ply
format ascii 1.0
element vertex 1613
property float32 x
property float32 y
property float32 z
property float32 I
end_header
50.1032 -2.4151 10.7507 1.0000
50.1033 -2.2651 10.7492 1.0000
50.1033 -1.9653 10.7465 1.0000
50.1033 -1.8155 10.7453 1.0000
50.1033 -1.6657 10.7442 1.0000
50.1033 -1.3662 10.7422 1.0000
50.1033 -1.2165 10.7414 1.0000
50.1032 -0.9171 10.7400 1.0000
50.1032 -0.7674 10.7395 1.0000
50.1032 -0.6178 10.7391 1.0000
50.1032 -0.4681 10.7387 1.0000
50.1032 -0.1688 10.7383 1.0000
50.1032 0.1304 10.7383 1.0000
50.1033 0.4296 10.7386 1.0000
50.1033 0.8786 10.7399 1.0000
50.1033 1.1779 10.7412 1.0000
50.1033 1.3277 10.7420 1.0000
50.1032 1.4774 10.7429 1.0000
50.1033 1.7770 10.7450 1.0000
50.1032 1.9268 10.7462 1.0000
50.1032 2.2266 10.7488 1.0000
50.1032 2.5265 10.7519 1.0000
50.1033 2.6765 10.7536 1.0000
50.1033 2.8266 10.7553 1.0000
50.1033 2.9767 10.7572 1.0000
50.1033 3.1269 10.7591 1.0000
50.1033 3.2771 10.7612 1.0000
50.1033 3.5778 10.7656 1.0000
50.1033 4.1799 10.7755 1.0000
50.1033 4.3305 10.7783 1.0000
50.1033 4.4813 10.7811 1.0000
50.1033 4.6322 10.7840 1.0000
50.1033 4.7831 10.7871 1.0000
50.1033 4.9342 10.7902 1.0000
50.1033 5.3878 10.8002 1.0000
50.1033 5.5392 10.8037 1.0000
50.1033 6.2978 10.8228 1.0000
50.1033 6.4498 10.8269 1.0000
50.1033 6.6020 10.8311 1.0000
50.1033 6.7543 10.8354 1.0000
50.1033 6.9067 10.8398 1.0000
50.1033 7.0592 10.8443 1.0000
50.1033 7.5176 10.8585 1.0000
50.1034 7.8239 10.8684 1.0000
50.1034 8.2843 10.8841 1.0000
50.1034 8.5920 10.8950 1.0000
50.1034 8.9004 10.9064 1.0000
50.1034 9.2094 10.9182 1.0000
50.1034 9.3642 10.9242 1.0000
50.1035 9.8295 10.9430 1.0000
50.1034 9.9850 10.9495 1.0000
50.1035 10.1407 10.9560 1.0000
50.1035 10.2965 10.9627 1.0000
50.1035 10.6088 10.9764 1.0000
50.1035 10.7653 10.9834 1.0000
50.1035 10.9219 10.9905 1.0000
50.1035 11.0788 10.9977 1.0000
50.1035 11.5505 11.0200 1.0000
50.1035 11.7081 11.0276 1.0000
50.1035 12.1826 11.0512 1.0000
50.1035 12.3412 11.0593 1.0000
50.1035 12.8183 11.0842 1.0000
50.1036 12.9779 11.0927 1.0000
50.1035 13.2977 11.1101 1.0000
50.1036 -13.0723 11.0978 1.0000
50.1025 1.2280 9.8590 1.0000
50.1025 1.3777 9.8598 1.0000
50.1024 1.6772 9.8616 1.0000
50.1025 1.8270 9.8626 1.0000
50.1025 1.9768 9.8637 1.0000
50.1025 2.1267 9.8650 1.0000
50.1025 3.0269 9.8741 1.0000
50.1025 3.1771 9.8759 1.0000
50.1025 3.3273 9.8778 1.0000
50.1025 4.0795 9.8887 1.0000
50.1025 4.2301 9.8911 1.0000
50.1025 4.3808 9.8937 1.0000
50.1025 4.5317 9.8963 1.0000
50.1025 4.6826 9.8990 1.0000
50.1025 4.8335 9.9018 1.0000
50.1025 4.9846 9.9047 1.0000
50.1025 5.1357 9.9077 1.0000
50.1025 5.2870 9.9108 1.0000
50.1025 5.4383 9.9140 1.0000
50.1025 5.5897 9.9172 1.0000
50.1026 6.0447 9.9276 1.0000
50.1025 6.1965 9.9312 1.0000
50.1026 7.4156 9.9635 1.0000
50.1026 7.5686 9.9679 1.0000
50.1026 7.7217 9.9725 1.0000
50.1026 8.1819 9.9867 1.0000
50.1026 8.3356 9.9916 1.0000
50.1026 8.4895 9.9966 1.0000
50.1026 8.7976 10.0069 1.0000
50.1027 9.1064 10.0176 1.0000
50.1027 9.2610 10.0231 1.0000
50.1026 9.5708 10.0343 1.0000
50.1026 9.7260 10.0401 1.0000
50.1026 9.8813 10.0460 1.0000
50.1026 10.3485 10.0642 1.0000
50.1027 10.6609 10.0768 1.0000
50.1027 10.8174 10.0832 1.0000
50.1027 11.2881 10.1032 1.0000
50.1027 11.6030 10.1170 1.0000
50.1028 11.7607 10.1240 1.0000
50.1028 11.9187 10.1312 1.0000
50.1027 12.0769 10.1384 1.0000
50.1028 12.3940 10.1532 1.0000
50.1028 12.5529 10.1608 1.0000
50.1028 13.0311 10.1840 1.0000
50.1028 13.1909 10.1920 1.0000
50.1028 13.3510 10.2001 1.0000
50.1028 -13.3387 10.1994 1.0000
50.1028 -12.8591 10.1756 1.0000
50.1028 -12.6998 10.1678 1.0000
50.1028 -12.3818 10.1526 1.0000
50.1028 -12.2231 10.1452 1.0000
50.1028 -11.9065 10.1306 1.0000
50.1028 -11.7486 10.1235 1.0000
50.1028 -11.4334 10.1095 1.0000
50.1028 -11.1189 10.0959 1.0000
50.1028 -10.9620 10.0893 1.0000
50.1027 -10.8054 10.0827 1.0000
50.1028 -10.4926 10.0699 1.0000
50.1027 -10.3365 10.0637 1.0000
50.1027 -10.1806 10.0575 1.0000
50.1027 -9.4039 10.0282 1.0000
50.1027 -8.7857 10.0065 1.0000
50.1026 -8.6316 10.0013 1.0000
50.1026 -8.4776 9.9962 1.0000
50.1027 -8.0166 9.9815 1.0000
50.1026 -7.7100 9.9721 1.0000
50.1025 -7.4039 9.9631 1.0000
50.1025 -7.2511 9.9588 1.0000
50.1025 -7.0984 9.9545 1.0000
50.1025 -6.9458 9.9503 1.0000
50.1026 -6.7934 9.9463 1.0000
50.1025 -6.6411 9.9423 1.0000
50.1025 -6.4889 9.9384 1.0000
50.1025 -6.3368 9.9346 1.0000
50.1025 -6.1848 9.9309 1.0000
50.1025 -6.0330 9.9273 1.0000
50.1025 -5.8812 9.9238 1.0000
50.1024 -5.7297 9.9203 1.0000
50.1025 -5.5781 9.9170 1.0000
50.1024 -5.2753 9.9106 1.0000
50.1024 -5.1241 9.9075 1.0000
50.1024 -4.8219 9.9016 1.0000
50.1025 -4.3693 9.8935 1.0000
50.1025 -4.2186 9.8910 1.0000
50.1025 -4.0679 9.8885 1.0000
50.1025 -3.9174 9.8862 1.0000
50.1025 -3.7669 9.8839 1.0000
50.1025 -3.6164 9.8817 1.0000
50.1025 -3.4660 9.8796 1.0000
50.1025 -3.3157 9.8776 1.0000
50.1024 -3.1655 9.8757 1.0000
50.1024 -3.0154 9.8739 1.0000
50.1024 -2.5651 9.8690 1.0000
50.1025 -2.4151 9.8675 1.0000
50.1025 -1.5159 9.8606 1.0000
50.1025 -1.3662 9.8597 1.0000
50.1025 -1.2164 9.8590 1.0000
50.1025 -1.0668 9.8583 1.0000
50.1025 -0.4681 9.8565 1.0000
50.1025 -0.1688 9.8561 1.0000
50.1025 -0.0192 9.8561 1.0000
50.1024 0.1304 9.8561 1.0000
50.1025 0.5793 9.8567 1.0000
50.1025 1.3277 9.8595 1.0000
50.1025 1.4774 9.8604 1.0000
50.1025 1.6271 9.8613 1.0000
50.1025 1.7769 9.8623 1.0000
50.1025 1.9267 9.8634 1.0000
50.1025 2.0766 9.8645 1.0000
50.1025 2.2265 9.8658 1.0000
50.1025 2.5265 9.8686 1.0000
50.1025 2.6765 9.8701 1.0000
50.1025 2.8265 9.8718 1.0000
50.1025 3.1269 9.8753 1.0000
50.1025 3.2771 9.8771 1.0000
50.1025 3.4274 9.8791 1.0000
50.1025 5.0852 9.9067 1.0000
50.1025 5.2364 9.9098 1.0000
50.1025 5.3878 9.9129 1.0000
50.1025 5.5391 9.9161 1.0000
50.1025 5.6906 9.9195 1.0000
50.1026 5.8422 9.9229 1.0000
50.1026 5.9940 9.9264 1.0000
50.1025 6.1458 9.9300 1.0000
50.1026 6.7542 9.9452 1.0000
50.1026 6.9065 9.9493 1.0000
50.1026 7.0591 9.9534 1.0000
50.1026 7.3646 9.9620 1.0000
50.1026 7.5174 9.9664 1.0000
50.1026 7.9771 9.9802 1.0000
50.1026 8.2842 9.9899 1.0000
50.1026 8.9003 10.0104 1.0000
50.1027 9.0547 10.0158 1.0000
50.1026 9.5190 10.0324 1.0000
50.1026 9.6741 10.0382 1.0000
50.1026 9.8294 10.0440 1.0000
50.1026 10.1406 10.0560 1.0000
50.1027 10.7651 10.0811 1.0000
50.1027 11.0786 10.0942 1.0000
50.1027 11.2356 10.1009 1.0000
50.1027 11.5503 10.1146 1.0000
50.1027 12.0240 10.1360 1.0000
50.1028 12.6588 10.1658 1.0000
50.1028 12.8181 10.1736 1.0000
50.1028 12.9777 10.1814 1.0000
50.1028 -13.3922 10.2022 1.0000
50.1028 -13.0721 10.1861 1.0000
50.1028 -12.9124 10.1782 1.0000
50.1017 1.2279 8.9825 1.0000
50.1017 1.5274 8.9839 1.0000
50.1017 1.6772 8.9848 1.0000
50.1017 1.8270 8.9857 1.0000
50.1017 1.9769 8.9868 1.0000
50.1017 2.1267 8.9879 1.0000
50.1017 2.2766 8.9890 1.0000
50.1017 2.4265 8.9903 1.0000
50.1017 2.5765 8.9916 1.0000
50.1017 2.7266 8.9931 1.0000
50.1017 2.8767 8.9946 1.0000
50.1017 3.0268 8.9962 1.0000
50.1017 3.1770 8.9978 1.0000
50.1018 3.3272 8.9996 1.0000
50.1018 3.4775 9.0014 1.0000
50.1017 3.9289 9.0073 1.0000
50.1017 4.0794 9.0095 1.0000
50.1018 4.3808 9.0140 1.0000
50.1018 4.6825 9.0189 1.0000
50.1018 4.9845 9.0241 1.0000
50.1018 5.1356 9.0268 1.0000
50.1018 5.4383 9.0325 1.0000
50.1018 5.5897 9.0355 1.0000
50.1018 5.7412 9.0385 1.0000
50.1018 5.8928 9.0417 1.0000
50.1018 6.3485 9.0516 1.0000
50.1018 6.5005 9.0551 1.0000
50.1018 6.6527 9.0586 1.0000
50.1019 7.1100 9.0698 1.0000
50.1018 7.2627 9.0737 1.0000
50.1018 7.4155 9.0776 1.0000
50.1018 7.5685 9.0817 1.0000
50.1018 7.8748 9.0900 1.0000
50.1018 8.3354 9.1032 1.0000
50.1019 8.4893 9.1078 1.0000
50.1019 8.7974 9.1172 1.0000
50.1019 9.1062 9.1269 1.0000
50.1019 9.4156 9.1370 1.0000
50.1019 9.5707 9.1422 1.0000
50.1019 9.7259 9.1474 1.0000
50.1019 9.8812 9.1528 1.0000
50.1019 10.0367 9.1582 1.0000
50.1019 10.3484 9.1694 1.0000
50.1019 10.6608 9.1808 1.0000
50.1019 10.9740 9.1927 1.0000
50.1020 11.1308 9.1988 1.0000
50.1020 11.2879 9.2049 1.0000
50.1019 11.4453 9.2111 1.0000
50.1019 11.6028 9.2175 1.0000
50.1019 11.7606 9.2239 1.0000
50.1019 11.9185 9.2304 1.0000
50.1020 12.3938 9.2505 1.0000
50.1020 12.8712 9.2714 1.0000
50.1020 13.3509 9.2932 1.0000
50.1021 -13.3385 9.2926 1.0000
50.1021 -13.1783 9.2853 1.0000
50.1021 -12.6995 9.2638 1.0000
50.1020 -12.5405 9.2569 1.0000
50.1020 -12.3816 9.2500 1.0000
50.1020 -12.2229 9.2432 1.0000
50.1020 -11.9064 9.2299 1.0000
50.1020 -11.7484 9.2234 1.0000
50.1020 -10.8052 9.1863 1.0000
50.1020 -10.4925 9.1746 1.0000
50.1020 -10.3364 9.1689 1.0000
50.1019 -9.7139 9.1470 1.0000
50.1019 -9.5588 9.1418 1.0000
50.1019 -9.0943 9.1266 1.0000
50.1019 -8.9399 9.1216 1.0000
50.1019 -8.7856 9.1168 1.0000
50.1019 -8.4774 9.1074 1.0000
50.1019 -8.1699 9.0984 1.0000
50.1019 -7.7098 9.0855 1.0000
50.1018 -7.4037 9.0773 1.0000
50.1018 -7.0983 9.0695 1.0000
50.1018 -6.7933 9.0620 1.0000
50.1017 -6.6410 9.0583 1.0000
50.1017 -6.4888 9.0548 1.0000
50.1017 -6.3367 9.0513 1.0000
50.1017 -6.1847 9.0479 1.0000
50.1017 -5.5780 9.0353 1.0000
50.1017 -5.4266 9.0323 1.0000
50.1017 -5.1240 9.0266 1.0000
50.1017 -4.9729 9.0239 1.0000
50.1017 -4.3692 9.0139 1.0000
50.1017 -3.9173 9.0072 1.0000
50.1017 -3.7668 9.0051 1.0000
50.1017 -3.1655 8.9977 1.0000
50.1017 -2.7150 8.9930 1.0000
50.1017 -2.5650 8.9915 1.0000
50.1017 -2.4150 8.9902 1.0000
50.1017 -1.9653 8.9867 1.0000
50.1017 -1.8154 8.9857 1.0000
50.1017 -1.6656 8.9847 1.0000
50.1017 -1.5159 8.9839 1.0000
50.1017 -0.9171 8.9813 1.0000
50.1017 -0.7674 8.9808 1.0000
50.1017 -0.4681 8.9802 1.0000
50.1017 -0.0192 8.9798 1.0000
50.1017 0.4296 8.9801 1.0000
50.1017 0.5792 8.9804 1.0000
50.1017 0.8786 8.9812 1.0000
50.1017 1.6272 8.9845 1.0000
50.1017 1.7769 8.9854 1.0000
50.1017 1.9267 8.9864 1.0000
50.1017 2.5264 8.9912 1.0000
50.1017 2.9766 8.9956 1.0000
50.1018 3.1268 8.9972 1.0000
50.1017 3.2770 8.9990 1.0000
50.1017 3.5776 9.0027 1.0000
50.1017 3.7280 9.0046 1.0000
50.1017 3.8786 9.0067 1.0000
50.1018 4.4812 9.0156 1.0000
50.1018 4.6321 9.0181 1.0000
50.1018 5.3877 9.0316 1.0000
50.1018 5.5391 9.0345 1.0000
50.1018 5.6906 9.0375 1.0000
50.1018 5.9939 9.0438 1.0000
50.1018 6.1457 9.0471 1.0000
50.1018 6.4496 9.0539 1.0000
50.1018 6.6018 9.0574 1.0000
50.1018 7.2117 9.0723 1.0000
50.1018 7.3644 9.0763 1.0000
50.1018 7.6704 9.0844 1.0000
50.1018 7.8236 9.0886 1.0000
50.1018 7.9770 9.0929 1.0000
50.1019 8.7459 9.1156 1.0000
50.1019 8.9002 9.1204 1.0000
50.1019 9.0546 9.1253 1.0000
50.1019 9.2092 9.1302 1.0000
50.1019 9.3639 9.1353 1.0000
50.1019 9.8293 9.1510 1.0000
50.1019 10.1404 9.1619 1.0000
50.1019 10.2963 9.1675 1.0000
50.1019 10.4523 9.1731 1.0000
50.1019 10.6085 9.1789 1.0000
50.1019 10.7649 9.1848 1.0000
50.1019 10.9216 9.1907 1.0000
50.1019 11.0784 9.1967 1.0000
50.1019 11.3927 9.2090 1.0000
50.1019 11.5501 9.2153 1.0000
50.1019 11.8657 9.2282 1.0000
50.1020 12.1822 9.2415 1.0000
50.1020 12.3408 9.2482 1.0000
50.1020 12.8179 9.2690 1.0000
50.1020 12.9775 9.2762 1.0000
50.1021 -13.0719 9.2804 1.0000
50.1020 -12.9122 9.2733 1.0000
50.1010 1.0783 8.1107 1.0000
50.1010 1.8270 8.1142 1.0000
50.1010 1.9768 8.1151 1.0000
50.1010 2.5765 8.1195 1.0000
50.1010 3.0268 8.1236 1.0000
50.1010 3.1770 8.1251 1.0000
50.1010 3.4775 8.1283 1.0000
50.1010 3.6279 8.1300 1.0000
50.1010 3.7783 8.1318 1.0000
50.1010 3.9288 8.1337 1.0000
50.1010 4.0794 8.1356 1.0000
50.1010 4.2300 8.1376 1.0000
50.1010 4.3807 8.1397 1.0000
50.1010 4.5315 8.1419 1.0000
50.1010 4.6824 8.1441 1.0000
50.1010 4.8334 8.1465 1.0000
50.1010 5.1356 8.1513 1.0000
50.1010 5.2869 8.1538 1.0000
50.1010 5.4381 8.1564 1.0000
50.1010 5.5896 8.1591 1.0000
50.1010 5.7411 8.1619 1.0000
50.1010 5.8928 8.1647 1.0000
50.1010 6.5004 8.1768 1.0000
50.1011 7.1099 8.1901 1.0000
50.1011 7.7215 8.2045 1.0000
50.1011 8.0281 8.2123 1.0000
50.1011 8.1816 8.2162 1.0000
50.1011 8.3353 8.2203 1.0000
50.1011 9.1061 8.2417 1.0000
50.1011 9.2608 8.2462 1.0000
50.1011 9.4155 8.2508 1.0000
50.1012 9.5705 8.2554 1.0000
50.1012 9.7257 8.2602 1.0000
50.1012 10.0365 8.2699 1.0000
50.1011 10.3482 8.2800 1.0000
50.1011 10.5043 8.2851 1.0000
50.1011 10.6606 8.2904 1.0000
50.1012 10.9738 8.3011 1.0000
50.1012 11.2878 8.3121 1.0000
50.1012 11.4451 8.3177 1.0000
50.1012 11.6026 8.3234 1.0000
50.1012 11.7604 8.3292 1.0000
50.1012 12.2350 8.3471 1.0000
50.1012 12.3937 8.3532 1.0000
50.1012 12.7117 8.3658 1.0000
50.1012 12.8711 8.3721 1.0000
50.1012 -13.3383 8.3913 1.0000
50.1013 -13.1782 8.3847 1.0000
50.1013 -12.6994 8.3653 1.0000
50.1013 -12.5403 8.3590 1.0000
50.1012 -12.3814 8.3528 1.0000
50.1012 -12.2228 8.3467 1.0000
50.1012 -11.7482 8.3288 1.0000
50.1012 -11.1186 8.3061 1.0000
50.1012 -10.9617 8.3006 1.0000
50.1012 -10.8051 8.2953 1.0000
50.1012 -10.4923 8.2847 1.0000
50.1012 -10.0246 8.2695 1.0000
50.1011 -9.4037 8.2504 1.0000
50.1011 -8.9397 8.2369 1.0000
50.1011 -8.6313 8.2283 1.0000
50.1012 -8.0163 8.2120 1.0000
50.1011 -7.8629 8.2081 1.0000
50.1011 -7.5566 8.2005 1.0000
50.1010 -7.2508 8.1933 1.0000
50.1010 -6.6408 8.1797 1.0000
50.1010 -6.3366 8.1734 1.0000
50.1010 -6.0328 8.1674 1.0000
50.1010 -5.7295 8.1616 1.0000
50.1010 -5.5779 8.1589 1.0000
50.1010 -5.4265 8.1562 1.0000
50.1010 -5.2752 8.1536 1.0000
50.1010 -5.1240 8.1511 1.0000
50.1010 -4.9728 8.1486 1.0000
50.1010 -4.8217 8.1463 1.0000
50.1010 -4.5200 8.1417 1.0000
50.1010 -4.3692 8.1396 1.0000
50.1010 -4.2185 8.1375 1.0000
50.1010 -4.0678 8.1355 1.0000
50.1010 -3.4659 8.1282 1.0000
50.1010 -3.0152 8.1235 1.0000
50.1009 -2.4150 8.1182 1.0000
50.1010 -2.1151 8.1160 1.0000
50.1010 -1.9653 8.1150 1.0000
50.1010 -1.8154 8.1141 1.0000
50.1010 -1.6656 8.1133 1.0000
50.1010 -1.5159 8.1125 1.0000
50.1010 -1.3661 8.1118 1.0000
50.1010 -1.2164 8.1112 1.0000
50.1010 -1.0667 8.1106 1.0000
50.1010 -0.9171 8.1102 1.0000
50.1010 -0.7674 8.1098 1.0000
50.1010 -0.3185 8.1089 1.0000
50.1010 -0.1688 8.1088 1.0000
50.1010 0.2800 8.1089 1.0000
50.1010 0.4296 8.1091 1.0000
50.1010 0.5793 8.1093 1.0000
50.1010 0.7289 8.1097 1.0000
50.1010 0.8786 8.1100 1.0000
50.1010 1.0283 8.1105 1.0000
50.1010 1.1779 8.1110 1.0000
50.1010 1.3276 8.1116 1.0000
50.1010 1.4774 8.1123 1.0000
50.1010 1.6272 8.1131 1.0000
50.1010 1.9267 8.1148 1.0000
50.1010 2.0766 8.1158 1.0000
50.1010 2.2265 8.1168 1.0000
50.1010 2.3764 8.1179 1.0000
50.1010 2.6764 8.1204 1.0000
50.1010 2.9766 8.1231 1.0000
50.1010 3.1267 8.1246 1.0000
50.1010 3.2770 8.1261 1.0000
50.1010 3.4272 8.1277 1.0000
50.1010 3.7280 8.1312 1.0000
50.1010 3.8785 8.1331 1.0000
50.1010 4.0290 8.1350 1.0000
50.1010 4.6320 8.1434 1.0000
50.1010 4.7829 8.1457 1.0000
50.1010 5.0851 8.1505 1.0000
50.1010 5.2363 8.1530 1.0000
50.1010 5.3876 8.1556 1.0000
50.1010 5.6904 8.1609 1.0000
50.1010 5.9938 8.1666 1.0000
50.1010 6.2975 8.1726 1.0000
50.1010 6.4496 8.1757 1.0000
50.1010 6.6017 8.1789 1.0000
50.1011 6.7539 8.1822 1.0000
50.1011 6.9063 8.1855 1.0000
50.1011 7.5172 8.1996 1.0000
50.1011 7.6703 8.2033 1.0000
50.1011 8.1303 8.2149 1.0000
50.1011 8.5917 8.2272 1.0000
50.1011 9.0545 8.2402 1.0000
50.1011 9.3638 8.2492 1.0000
50.1012 9.5187 8.2539 1.0000
50.1012 9.8291 8.2634 1.0000
50.1011 10.1403 8.2732 1.0000
50.1011 10.4521 8.2834 1.0000
50.1012 10.7647 8.2939 1.0000
50.1012 10.9214 8.2992 1.0000
50.1012 11.2353 8.3102 1.0000
50.1012 11.3925 8.3158 1.0000
50.1012 11.5499 8.3215 1.0000
50.1012 11.8656 8.3331 1.0000
50.1012 12.0237 8.3391 1.0000
50.1012 12.1820 8.3451 1.0000
50.1012 12.8178 8.3700 1.0000
50.1013 13.2971 8.3896 1.0000
50.1013 -13.2317 8.3869 1.0000
50.1013 -13.0717 8.3803 1.0000
50.1013 -12.9121 8.3738 1.0000
50.1003 1.2279 7.2448 1.0000
50.1003 1.6772 7.2466 1.0000
50.1003 1.8270 7.2474 1.0000
50.1003 1.9768 7.2482 1.0000
50.1003 2.5765 7.2522 1.0000
50.1003 2.8766 7.2545 1.0000
50.1003 3.0267 7.2558 1.0000
50.1003 3.7783 7.2632 1.0000
50.1003 4.0793 7.2666 1.0000
50.1003 4.2299 7.2684 1.0000
50.1003 4.3807 7.2702 1.0000
50.1003 4.5315 7.2722 1.0000
50.1003 5.1356 7.2805 1.0000
50.1003 5.2867 7.2828 1.0000
50.1003 5.4381 7.2851 1.0000
50.1003 5.5895 7.2875 1.0000
50.1003 5.7410 7.2900 1.0000
50.1003 6.3482 7.3005 1.0000
50.1003 6.5003 7.3033 1.0000
50.1003 6.6525 7.3062 1.0000
50.1003 6.8048 7.3091 1.0000
50.1003 6.9572 7.3121 1.0000
50.1003 7.1098 7.3152 1.0000
50.1003 7.4153 7.3215 1.0000
50.1003 7.5683 7.3248 1.0000
50.1003 7.7213 7.3281 1.0000
50.1003 7.8746 7.3315 1.0000
50.1003 8.0280 7.3350 1.0000
50.1003 8.4890 7.3458 1.0000
50.1003 8.9515 7.3573 1.0000
50.1003 9.1060 7.3613 1.0000
50.1003 9.2606 7.3653 1.0000
50.1004 9.7255 7.3778 1.0000
50.1004 10.1921 7.3910 1.0000
50.1004 10.6604 7.4048 1.0000
50.1004 11.1305 7.4192 1.0000
50.1004 11.2876 7.4242 1.0000
50.1004 11.6025 7.4343 1.0000
50.1005 12.8709 7.4778 1.0000
50.1004 13.1903 7.4894 1.0000
50.1004 13.3504 7.4954 1.0000
50.1005 -13.3381 7.4949 1.0000
50.1005 -13.0181 7.4831 1.0000
50.1005 -12.8585 7.4774 1.0000
50.1005 -12.6992 7.4717 1.0000
50.1005 -12.3812 7.4605 1.0000
50.1005 -12.0642 7.4496 1.0000
50.1004 -11.9060 7.4443 1.0000
50.1004 -11.7480 7.4391 1.0000
50.1004 -11.5903 7.4339 1.0000
50.1004 -11.4328 7.4288 1.0000
50.1004 -11.2755 7.4238 1.0000
50.1004 -10.6485 7.4044 1.0000
50.1004 -10.4921 7.3997 1.0000
50.1004 -10.1802 7.3906 1.0000
50.1004 -9.8690 7.3818 1.0000
50.1004 -9.5585 7.3732 1.0000
50.1004 -9.4035 7.3691 1.0000
50.1003 -9.2487 7.3650 1.0000
50.1004 -8.9397 7.3570 1.0000
50.1003 -8.6312 7.3493 1.0000
50.1004 -8.0162 7.3347 1.0000
50.1003 -7.8628 7.3313 1.0000
50.1004 -7.5565 7.3245 1.0000
50.1003 -6.9455 7.3119 1.0000
50.1003 -6.7930 7.3089 1.0000
50.1003 -6.6408 7.3059 1.0000
50.1003 -6.4885 7.3031 1.0000
50.1003 -6.1846 7.2976 1.0000
50.1002 -6.0327 7.2949 1.0000
50.1003 -5.7294 7.2898 1.0000
50.1003 -5.5779 7.2873 1.0000
50.1003 -5.4265 7.2849 1.0000
50.1003 -5.2751 7.2826 1.0000
50.1003 -5.1239 7.2804 1.0000
50.1003 -4.9727 7.2782 1.0000
50.1002 -4.6708 7.2740 1.0000
50.1003 -3.9172 7.2647 1.0000
50.1002 -3.7667 7.2630 1.0000
50.1003 -3.6163 7.2614 1.0000
50.1003 -3.4659 7.2599 1.0000
50.1003 -3.3156 7.2584 1.0000
50.1002 -3.0151 7.2557 1.0000
50.1003 -2.8650 7.2544 1.0000
50.1002 -2.7149 7.2532 1.0000
50.1003 -2.4149 7.2510 1.0000
50.1003 -2.2650 7.2500 1.0000
50.1003 -1.9652 7.2482 1.0000
50.1003 -1.8154 7.2473 1.0000
50.1003 -1.5158 7.2459 1.0000
50.1003 -1.3662 7.2453 1.0000
50.1003 -1.2164 7.2447 1.0000
50.1003 -1.0667 7.2442 1.0000
50.1003 -0.6177 7.2431 1.0000
50.1003 -0.4681 7.2429 1.0000
50.1003 -0.3185 7.2427 1.0000
50.1003 -0.0192 7.2426 1.0000
50.1003 0.2800 7.2427 1.0000
50.1003 0.4296 7.2429 1.0000
50.1002 0.8785 7.2437 1.0000
50.1003 1.3276 7.2451 1.0000
50.1003 1.4773 7.2457 1.0000
50.1003 1.6271 7.2464 1.0000
50.1003 1.7769 7.2471 1.0000
50.1003 1.9267 7.2479 1.0000
50.1003 2.0765 7.2488 1.0000
50.1003 2.2265 7.2497 1.0000
50.1003 2.3764 7.2507 1.0000
50.1003 2.9765 7.2554 1.0000
50.1003 3.5776 7.2610 1.0000
50.1003 3.7279 7.2626 1.0000
50.1003 4.0290 7.2660 1.0000
50.1003 4.1796 7.2678 1.0000
50.1003 4.3303 7.2696 1.0000
50.1003 4.6319 7.2735 1.0000
50.1003 4.7829 7.2755 1.0000
50.1003 4.9339 7.2776 1.0000
50.1003 5.0850 7.2798 1.0000
50.1003 5.2362 7.2820 1.0000
50.1003 5.5389 7.2867 1.0000
50.1003 5.8419 7.2917 1.0000
50.1003 5.9937 7.2942 1.0000
50.1003 6.1455 7.2969 1.0000
50.1003 6.6016 7.3052 1.0000
50.1003 7.0588 7.3141 1.0000
50.1003 7.3642 7.3204 1.0000
50.1003 7.5171 7.3237 1.0000
50.1003 7.8234 7.3304 1.0000
50.1003 8.2838 7.3409 1.0000
50.1003 8.4376 7.3446 1.0000
50.1003 8.5915 7.3483 1.0000
50.1003 9.2089 7.3639 1.0000
50.1004 9.6737 7.3764 1.0000
50.1004 9.8289 7.3807 1.0000
50.1004 9.9844 7.3850 1.0000
50.1004 10.4520 7.3985 1.0000
50.1004 10.6082 7.4032 1.0000
50.1004 10.7646 7.4079 1.0000
50.1004 11.0781 7.4176 1.0000
50.1004 11.2351 7.4225 1.0000
50.1004 11.3924 7.4275 1.0000
50.1004 11.5498 7.4326 1.0000
50.1004 11.8654 7.4430 1.0000
50.1004 12.3404 7.4591 1.0000
50.1004 12.4992 7.4646 1.0000
50.1004 12.6583 7.4702 1.0000
50.1004 12.8176 7.4759 1.0000
50.1004 12.9771 7.4816 1.0000
50.1004 13.1369 7.4875 1.0000
50.1005 -13.3916 7.4969 1.0000
50.1005 -13.2315 7.4909 1.0000
50.1005 -12.9119 7.4793 1.0000
50.0995 1.3776 6.3830 1.0000
50.0995 1.5274 6.3836 1.0000
50.0995 1.6771 6.3842 1.0000
50.0995 1.8269 6.3849 1.0000
50.0995 2.2765 6.3872 1.0000
50.0995 2.4264 6.3881 1.0000
50.0995 2.5764 6.3891 1.0000
50.0995 2.7265 6.3901 1.0000
50.0995 3.3271 6.3947 1.0000
50.0995 3.4774 6.3960 1.0000
50.0995 3.7782 6.3987 1.0000
50.0995 3.9287 6.4002 1.0000
50.0995 4.0792 6.4017 1.0000
50.0995 4.3806 6.4050 1.0000
50.0995 4.6823 6.4084 1.0000
50.0995 4.8333 6.4103 1.0000
50.0995 5.2867 6.4161 1.0000
50.0995 5.5894 6.4202 1.0000
50.0995 5.7409 6.4224 1.0000
50.0996 6.3481 6.4316 1.0000
50.0995 6.6524 6.4366 1.0000
50.0995 6.8047 6.4392 1.0000
50.0995 6.9571 6.4419 1.0000
50.0996 7.5681 6.4530 1.0000
50.0996 7.7213 6.4560 1.0000
50.0996 8.1814 6.4652 1.0000
50.0996 8.3351 6.4683 1.0000
50.0996 9.2605 6.4887 1.0000
50.0996 9.5703 6.4960 1.0000
50.0996 10.1920 6.5113 1.0000
50.0996 10.3479 6.5153 1.0000
50.0996 10.6603 6.5235 1.0000
50.0996 10.8168 6.5277 1.0000
50.0996 10.9735 6.5319 1.0000
50.0996 11.1304 6.5362 1.0000
50.0996 11.2874 6.5406 1.0000
50.0996 11.4448 6.5450 1.0000
50.0996 11.6023 6.5495 1.0000
50.0997 12.0762 6.5634 1.0000
50.0997 12.2346 6.5681 1.0000
50.0997 12.3933 6.5730 1.0000
50.0997 12.8706 6.5878 1.0000
50.0997 13.0303 6.5929 1.0000
50.0997 13.3502 6.6033 1.0000
50.0998 -13.3379 6.6029 1.0000
50.0997 -13.1778 6.5977 1.0000
50.0997 -12.8584 6.5875 1.0000
50.0997 -12.6990 6.5824 1.0000
50.0997 -12.3810 6.5726 1.0000
50.0997 -12.2224 6.5678 1.0000
50.0997 -11.9058 6.5583 1.0000
50.0997 -11.7479 6.5537 1.0000
50.0997 -11.5901 6.5492 1.0000
50.0997 -11.1183 6.5359 1.0000
50.0997 -10.9613 6.5316 1.0000
50.0997 -10.4920 6.5191 1.0000
50.0996 -10.1800 6.5110 1.0000
50.0997 -9.7135 6.4995 1.0000
50.0996 -9.5583 6.4957 1.0000
50.0996 -9.4034 6.4921 1.0000
50.0996 -8.1696 6.4649 1.0000
50.0996 -8.0161 6.4618 1.0000
50.0996 -7.8627 6.4587 1.0000
50.0996 -7.7095 6.4557 1.0000
50.0996 -7.5564 6.4528 1.0000
50.0995 -7.4035 6.4499 1.0000
50.0995 -7.2506 6.4471 1.0000
50.0995 -7.0980 6.4444 1.0000
50.0995 -6.4885 6.4339 1.0000
50.0995 -6.3364 6.4315 1.0000
50.0995 -5.4263 6.4179 1.0000
50.0995 -4.8216 6.4101 1.0000
50.0995 -4.6706 6.4083 1.0000
50.0995 -4.5198 6.4065 1.0000
50.0995 -4.0677 6.4016 1.0000
50.0994 -3.9171 6.4001 1.0000
50.0994 -3.6162 6.3972 1.0000
50.0995 -3.3155 6.3946 1.0000
50.0995 -2.7149 6.3900 1.0000
50.0995 -2.5649 6.3890 1.0000
50.0995 -2.4149 6.3880 1.0000
50.0995 -2.2650 6.3871 1.0000
50.0995 -1.8154 6.3848 1.0000
50.0995 -1.5158 6.3835 1.0000
50.0995 -1.3661 6.3830 1.0000
50.0995 -1.2163 6.3825 1.0000
50.0995 -0.7674 6.3814 1.0000
50.0995 -0.4681 6.3809 1.0000
50.0995 -0.3185 6.3808 1.0000
50.0995 0.1303 6.3806 1.0000
50.0995 0.2800 6.3807 1.0000
50.0995 0.5792 6.3810 1.0000
50.0995 0.7289 6.3813 1.0000
50.0995 1.4773 6.3834 1.0000
50.0995 1.9267 6.3853 1.0000
50.0995 2.2264 6.3869 1.0000
50.0995 2.3763 6.3878 1.0000
50.0995 2.9765 6.3919 1.0000
50.0995 3.2769 6.3943 1.0000
50.0995 3.8784 6.3997 1.0000
50.0995 4.0289 6.4012 1.0000
50.0995 4.1795 6.4028 1.0000
50.0995 4.6318 6.4078 1.0000
50.0995 5.3874 6.4174 1.0000
50.0995 5.5388 6.4195 1.0000
50.0995 5.8419 6.4239 1.0000
50.0995 5.9936 6.4261 1.0000
50.0995 6.2973 6.4308 1.0000
50.0995 6.4494 6.4333 1.0000
50.0995 6.6015 6.4358 1.0000
50.0996 7.0587 6.4436 1.0000
50.0996 7.2113 6.4464 1.0000
50.0996 7.5170 6.4521 1.0000
50.0996 7.9766 6.4610 1.0000
50.0996 8.4375 6.4705 1.0000
50.0996 9.0542 6.4840 1.0000
50.0996 9.3635 6.4911 1.0000
50.0996 9.5185 6.4948 1.0000
50.0996 9.6735 6.4985 1.0000
50.0996 9.8288 6.5023 1.0000
50.0996 10.2957 6.5140 1.0000
50.0996 10.4518 6.5180 1.0000
50.0996 10.7644 6.5263 1.0000
50.0996 10.9211 6.5305 1.0000
50.0996 11.5496 6.5480 1.0000
50.0997 11.8652 6.5571 1.0000
50.0997 12.0233 6.5618 1.0000
50.0997 12.3402 6.5714 1.0000
50.0997 12.6580 6.5812 1.0000
50.0997 12.9769 6.5912 1.0000
50.0997 13.2967 6.6016 1.0000
50.0997 -13.2313 6.5994 1.0000
50.0997 -12.9117 6.5891 1.0000
50.0988 1.0782 5.5237 1.0000
50.0988 1.2279 5.5240 1.0000
50.0988 1.3776 5.5245 1.0000
50.0988 1.5273 5.5250 1.0000
50.0988 1.6771 5.5255 1.0000
50.0988 1.8269 5.5261 1.0000
50.0988 2.1266 5.5274 1.0000
50.0988 2.2765 5.5281 1.0000
50.0988 2.4264 5.5289 1.0000
50.0988 2.8765 5.5315 1.0000
50.0988 3.1768 5.5335 1.0000
50.0988 3.4773 5.5357 1.0000
50.0988 3.6277 5.5368 1.0000
50.0988 3.7781 5.5381 1.0000
50.0988 4.0792 5.5407 1.0000
50.0988 4.6822 5.5465 1.0000
50.0988 4.8332 5.5480 1.0000
50.0988 4.9842 5.5497 1.0000
50.0988 5.5893 5.5567 1.0000
50.0988 5.7409 5.5585 1.0000
50.0988 5.8925 5.5605 1.0000
50.0988 6.0442 5.5624 1.0000
50.0988 6.1960 5.5645 1.0000
50.0988 6.3480 5.5665 1.0000
50.0988 6.5001 5.5687 1.0000
50.0988 6.6522 5.5709 1.0000
50.0988 7.1096 5.5777 1.0000
50.0988 7.5680 5.5851 1.0000
50.0988 8.3349 5.5983 1.0000
50.0988 8.4888 5.6011 1.0000
50.0988 8.6428 5.6040 1.0000
50.0988 8.7969 5.6069 1.0000
50.0988 8.9512 5.6098 1.0000
50.0989 9.1057 5.6129 1.0000
50.0988 9.2604 5.6159 1.0000
50.0988 9.4151 5.6191 1.0000
50.0989 9.8806 5.6288 1.0000
50.0988 10.5038 5.6425 1.0000
50.0989 10.6601 5.6460 1.0000
50.0988 10.8166 5.6497 1.0000
50.0988 10.9733 5.6533 1.0000
50.0988 11.1302 5.6570 1.0000
50.0988 11.4446 5.6647 1.0000
50.0989 11.7599 5.6725 1.0000
50.0989 11.9178 5.6765 1.0000
50.0989 12.0760 5.6806 1.0000
50.0989 12.2344 5.6847 1.0000
50.0989 12.5519 5.6931 1.0000
50.0989 12.7111 5.6974 1.0000
50.0989 12.8704 5.7017 1.0000
50.0989 13.0300 5.7061 1.0000
50.0989 13.1899 5.7106 1.0000
50.0989 13.3500 5.7151 1.0000
50.0990 -13.3376 5.7148 1.0000
50.0989 -13.0177 5.7058 1.0000
50.0989 -12.6987 5.6971 1.0000
50.0990 -12.5397 5.6928 1.0000
50.0989 -11.9056 5.6762 1.0000
50.0989 -11.7477 5.6722 1.0000
50.0990 -11.4325 5.6644 1.0000
50.0989 -11.2751 5.6605 1.0000
50.0989 -11.1181 5.6568 1.0000
50.0989 -10.4918 5.6422 1.0000
50.0989 -10.3358 5.6387 1.0000
50.0989 -10.1799 5.6353 1.0000
50.0989 -9.7133 5.6252 1.0000
50.0989 -9.5582 5.6220 1.0000
50.0989 -9.2484 5.6157 1.0000
50.0988 -9.0938 5.6126 1.0000
50.0989 -8.9394 5.6096 1.0000
50.0989 -8.4770 5.6009 1.0000
50.0989 -8.3231 5.5981 1.0000
50.0988 -8.1695 5.5953 1.0000
50.0989 -8.0160 5.5926 1.0000
50.0988 -7.8626 5.5900 1.0000
50.0988 -7.5563 5.5849 1.0000
50.0988 -7.4034 5.5824 1.0000
50.0988 -7.2505 5.5799 1.0000
50.0988 -7.0979 5.5775 1.0000
50.0988 -6.7929 5.5729 1.0000
50.0988 -6.6406 5.5707 1.0000
50.0988 -6.0326 5.5623 1.0000
50.0988 -5.8808 5.5603 1.0000
50.0988 -5.7292 5.5584 1.0000
50.0988 -5.4263 5.5547 1.0000
50.0988 -5.2749 5.5529 1.0000
50.0988 -5.1237 5.5512 1.0000
50.0988 -4.8215 5.5479 1.0000
50.0988 -4.6706 5.5463 1.0000
50.0987 -4.5197 5.5448 1.0000
50.0988 -4.3690 5.5434 1.0000
50.0988 -4.2182 5.5419 1.0000
50.0988 -4.0676 5.5406 1.0000
50.0988 -3.9170 5.5392 1.0000
50.0988 -3.6161 5.5368 1.0000
50.0987 -3.1653 5.5334 1.0000
50.0987 -3.0150 5.5324 1.0000
50.0987 -2.8649 5.5314 1.0000
50.0987 -2.5648 5.5296 1.0000
50.0987 -2.4149 5.5288 1.0000
50.0988 -2.2649 5.5280 1.0000
50.0988 -2.1151 5.5273 1.0000
50.0988 -1.9651 5.5266 1.0000
50.0988 -1.8153 5.5260 1.0000
50.0988 -1.6655 5.5254 1.0000
50.0988 -1.5158 5.5249 1.0000
50.0988 -1.2164 5.5240 1.0000
50.0988 -1.0667 5.5236 1.0000
50.0988 -0.7674 5.5230 1.0000
50.0988 -0.4680 5.5226 1.0000
50.0988 -0.0193 5.5224 1.0000
50.0988 0.2799 5.5225 1.0000
50.0988 0.4296 5.5226 1.0000
50.0988 0.7288 5.5230 1.0000
50.0988 1.1778 5.5239 1.0000
50.0988 1.3276 5.5243 1.0000
50.0988 1.7769 5.5259 1.0000
50.0988 2.3763 5.5286 1.0000
50.0988 2.5263 5.5294 1.0000
50.0988 2.6762 5.5303 1.0000
50.0988 2.8263 5.5312 1.0000
50.0988 2.9765 5.5321 1.0000
50.0988 3.1266 5.5331 1.0000
50.0988 3.2769 5.5342 1.0000
50.0988 3.4271 5.5353 1.0000
50.0988 3.5774 5.5364 1.0000
50.0988 3.7279 5.5377 1.0000
50.0988 4.0288 5.5402 1.0000
50.0988 4.1795 5.5416 1.0000
50.0988 4.4810 5.5444 1.0000
50.0988 4.7828 5.5475 1.0000
50.0988 5.0849 5.5508 1.0000
50.0988 5.3873 5.5542 1.0000
50.0988 5.6902 5.5579 1.0000
50.0988 5.8418 5.5598 1.0000
50.0988 6.2972 5.5658 1.0000
50.0988 6.6014 5.5701 1.0000
50.0988 7.0586 5.5769 1.0000
50.0988 7.2112 5.5793 1.0000
50.0988 7.3640 5.5817 1.0000
50.0988 7.5169 5.5842 1.0000
50.0988 7.8231 5.5893 1.0000
50.0988 7.9765 5.5919 1.0000
50.0988 8.5913 5.6030 1.0000
50.0988 8.7454 5.6059 1.0000
50.0988 8.8996 5.6089 1.0000
50.0989 9.0540 5.6119 1.0000
50.0988 9.2087 5.6149 1.0000
50.0988 9.3634 5.6180 1.0000
50.0988 9.8287 5.6277 1.0000
50.0989 9.9841 5.6310 1.0000
50.0989 10.1398 5.6344 1.0000
50.0989 10.6079 5.6448 1.0000
50.0988 10.7643 5.6484 1.0000
50.0989 11.2347 5.6596 1.0000
50.0988 11.3920 5.6634 1.0000
50.0989 11.8650 5.6752 1.0000
50.0989 12.0231 5.6792 1.0000
50.0989 12.3401 5.6875 1.0000
50.0989 12.4988 5.6917 1.0000
50.0989 12.8171 5.7003 1.0000
50.0989 12.9767 5.7047 1.0000
50.0990 -13.0711 5.7073 1.0000
50.0990 -12.9115 5.7029 1.0000
50.0981 1.0782 4.6684 1.0000
50.0980 1.3776 4.6691 1.0000
50.0980 1.5273 4.6695 1.0000
50.0981 1.6771 4.6700 1.0000
50.0980 1.8269 4.6705 1.0000
50.0981 1.9767 4.6710 1.0000
50.0980 2.1265 4.6716 1.0000
50.0981 2.2764 4.6722 1.0000
50.0980 2.4263 4.6728 1.0000
50.0980 2.5763 4.6735 1.0000
50.0981 2.8765 4.6751 1.0000
50.0981 3.4773 4.6786 1.0000
50.0981 3.6277 4.6796 1.0000
50.0981 3.7781 4.6806 1.0000
50.0981 4.6822 4.6877 1.0000
50.0981 5.1353 4.6918 1.0000
50.0981 5.4378 4.6948 1.0000
50.0981 5.7408 4.6979 1.0000
50.0981 5.8924 4.6995 1.0000
50.0981 6.5000 4.7065 1.0000
50.0981 6.9569 4.7122 1.0000
50.0981 7.4149 4.7182 1.0000
50.0981 7.7210 4.7225 1.0000
50.0981 8.3349 4.7315 1.0000
50.0981 8.4887 4.7339 1.0000
50.0981 8.6426 4.7363 1.0000
50.0981 8.7968 4.7388 1.0000
50.0981 9.2602 4.7464 1.0000
50.0981 9.4150 4.7491 1.0000
50.0981 9.5700 4.7518 1.0000
50.0981 9.7251 4.7545 1.0000
50.0981 10.0360 4.7601 1.0000
50.0981 10.5037 4.7689 1.0000
50.0981 10.6599 4.7719 1.0000
50.0981 10.9731 4.7780 1.0000
50.0981 11.1300 4.7812 1.0000
50.0981 11.2871 4.7844 1.0000
50.0981 11.6019 4.7909 1.0000
50.0981 11.7597 4.7942 1.0000
50.0982 13.3498 4.8303 1.0000
50.0982 -13.3374 4.8300 1.0000
50.0982 -12.6986 4.8150 1.0000
50.0982 -12.2220 4.8043 1.0000
50.0982 -11.9054 4.7974 1.0000
50.0982 -11.4323 4.7874 1.0000
50.0981 -11.1179 4.7809 1.0000
50.0982 -10.8044 4.7747 1.0000
50.0982 -10.3356 4.7657 1.0000
50.0981 -9.7132 4.7543 1.0000
50.0981 -9.5580 4.7516 1.0000
50.0981 -9.4031 4.7489 1.0000
50.0981 -8.9392 4.7411 1.0000
50.0981 -8.3230 4.7313 1.0000
50.0981 -7.8624 4.7245 1.0000
50.0981 -7.7092 4.7223 1.0000
50.0981 -7.4032 4.7181 1.0000
50.0981 -6.7928 4.7101 1.0000
50.0981 -6.6405 4.7082 1.0000
50.0980 -6.3363 4.7045 1.0000
50.0981 -5.7291 4.6978 1.0000
50.0981 -5.5776 4.6962 1.0000
50.0981 -5.4262 4.6947 1.0000
50.0981 -5.2749 4.6932 1.0000
50.0981 -5.1236 4.6917 1.0000
50.0980 -4.8215 4.6889 1.0000
50.0980 -4.6706 4.6876 1.0000
50.0980 -4.2182 4.6839 1.0000
50.0980 -3.9170 4.6816 1.0000
50.0980 -3.7665 4.6805 1.0000
50.0980 -3.4658 4.6785 1.0000
50.0980 -3.1652 4.6767 1.0000
50.0980 -3.0151 4.6758 1.0000
50.0980 -2.7148 4.6742 1.0000
50.0981 -2.1150 4.6715 1.0000
50.0981 -1.6655 4.6699 1.0000
50.0981 -1.3660 4.6691 1.0000
50.0981 -1.2163 4.6687 1.0000
50.0981 -1.0666 4.6684 1.0000
50.0981 -0.6176 4.6677 1.0000
50.0981 -0.3184 4.6675 1.0000
50.0980 0.1304 4.6674 1.0000
50.0980 0.5792 4.6677 1.0000
50.0980 0.7288 4.6679 1.0000
50.0981 1.0281 4.6683 1.0000
50.0980 1.4772 4.6694 1.0000
50.0980 1.7768 4.6703 1.0000
50.0980 1.9266 4.6708 1.0000
50.0980 2.5262 4.6733 1.0000
50.0980 2.6762 4.6740 1.0000
50.0980 2.8263 4.6748 1.0000
50.0981 2.9764 4.6756 1.0000
50.0981 3.2768 4.6773 1.0000
50.0981 3.4271 4.6783 1.0000
50.0981 3.5774 4.6793 1.0000
50.0981 3.7278 4.6803 1.0000
50.0981 4.0288 4.6824 1.0000
50.0981 4.1794 4.6836 1.0000
50.0981 4.3301 4.6848 1.0000
50.0981 4.4809 4.6860 1.0000
50.0981 4.6318 4.6873 1.0000
50.0981 4.7826 4.6886 1.0000
50.0981 4.9337 4.6899 1.0000
50.0981 5.3872 4.6943 1.0000
50.0981 5.8417 4.6990 1.0000
50.0981 5.9934 4.7006 1.0000
50.0981 6.1452 4.7024 1.0000
50.0981 6.2971 4.7041 1.0000
50.0981 6.4491 4.7059 1.0000
50.0981 6.6013 4.7077 1.0000
50.0981 6.7536 4.7096 1.0000
50.0981 6.9060 4.7115 1.0000
50.0981 7.0585 4.7135 1.0000
50.0981 7.2111 4.7155 1.0000
50.0981 7.5168 4.7196 1.0000
50.0981 7.6699 4.7218 1.0000
50.0981 8.1299 4.7284 1.0000
50.0981 8.2835 4.7307 1.0000
50.0981 8.5912 4.7355 1.0000
50.0981 8.8995 4.7404 1.0000
50.0981 9.0539 4.7430 1.0000
50.0981 9.3632 4.7482 1.0000
50.0981 9.5181 4.7509 1.0000
50.0981 9.9840 4.7592 1.0000
50.0981 10.2954 4.7649 1.0000
50.0981 10.4515 4.7679 1.0000
50.0981 10.7641 4.7739 1.0000
50.0981 11.0776 4.7801 1.0000
50.0981 11.2346 4.7833 1.0000
50.0981 11.5493 4.7898 1.0000
50.0981 11.7069 4.7931 1.0000
50.0981 11.8649 4.7965 1.0000
50.0981 12.1813 4.8034 1.0000
50.0981 12.3399 4.8069 1.0000
50.0982 12.9765 4.8214 1.0000
50.0982 13.1363 4.8252 1.0000
50.0982 13.2963 4.8290 1.0000
50.0982 -13.3910 4.8312 1.0000
25.2738 0.9216 1.9259 1.0000
25.2713 0.9971 1.9260 1.0000
25.2723 1.2996 1.9271 1.0000
25.2740 1.3754 1.9275 1.0000
25.2753 1.4512 1.9280 1.0000
25.3010 1.9081 1.9322 1.0000
25.6082 2.0081 1.9561 1.0000
25.8965 2.1085 1.9786 1.0000
50.0974 4.2297 3.8286 1.0000
50.0974 4.3804 3.8296 1.0000
50.0974 5.1352 3.8350 1.0000
50.0974 5.4377 3.8375 1.0000
50.0974 6.1959 3.8441 1.0000
50.0973 6.3478 3.8456 1.0000
50.0974 6.4999 3.8470 1.0000
50.0973 6.6521 3.8485 1.0000
50.0974 6.8044 3.8501 1.0000
50.0974 6.9568 3.8517 1.0000
50.0974 7.1094 3.8533 1.0000
50.0974 7.4149 3.8566 1.0000
50.0974 8.0275 3.8637 1.0000
50.0974 8.1810 3.8656 1.0000
50.0974 8.4885 3.8694 1.0000
50.0974 8.6425 3.8714 1.0000
50.0974 8.7967 3.8734 1.0000
50.0974 8.9510 3.8755 1.0000
50.0974 9.2601 3.8797 1.0000
50.0974 9.7250 3.8863 1.0000
50.0974 10.1915 3.8932 1.0000
50.0974 10.5035 3.8980 1.0000
50.0974 10.8163 3.9030 1.0000
50.0974 10.9729 3.9055 1.0000
50.0974 11.2870 3.9107 1.0000
50.0974 11.7595 3.9188 1.0000
50.0974 11.9175 3.9215 1.0000
50.0974 12.0756 3.9243 1.0000
50.0974 12.2341 3.9272 1.0000
50.0974 12.5516 3.9330 1.0000
50.0974 12.8701 3.9390 1.0000
50.0974 13.0296 3.9420 1.0000
50.0974 -13.3372 3.9480 1.0000
50.0975 -13.0174 3.9418 1.0000
50.0975 -12.8578 3.9387 1.0000
50.0974 -12.6984 3.9357 1.0000
50.0974 -12.3804 3.9298 1.0000
50.0974 -12.2219 3.9270 1.0000
50.0974 -11.7473 3.9185 1.0000
50.0974 -11.5896 3.9158 1.0000
50.0974 -11.4321 3.9131 1.0000
50.0974 -11.2749 3.9105 1.0000
50.0974 -10.8042 3.9028 1.0000
50.0974 -10.1796 3.8930 1.0000
50.0974 -10.0238 3.8907 1.0000
50.0974 -9.8683 3.8884 1.0000
50.0974 -9.4029 3.8817 1.0000
50.0974 -9.2481 3.8795 1.0000
50.0974 -9.0935 3.8774 1.0000
50.0974 -8.9390 3.8753 1.0000
50.0974 -8.6306 3.8713 1.0000
50.0974 -8.4767 3.8693 1.0000
50.0974 -8.0157 3.8636 1.0000
50.0974 -7.7091 3.8600 1.0000
50.0974 -7.5560 3.8582 1.0000
50.0973 -7.4031 3.8565 1.0000
50.0973 -7.2503 3.8548 1.0000
50.0973 -6.9451 3.8515 1.0000
50.0973 -6.6404 3.8484 1.0000
50.0973 -6.4881 3.8469 1.0000
50.0973 -6.3362 3.8455 1.0000
50.0973 -5.5776 3.8386 1.0000
50.0973 -5.4261 3.8374 1.0000
50.0973 -5.2748 3.8361 1.0000
50.0973 -4.9725 3.8338 1.0000
25.0413 -2.4100 1.9158 1.0000
25.0410 -2.3345 1.9152 1.0000
25.0403 -2.1837 1.9141 1.0000
25.0396 -2.0330 1.9131 1.0000
25.0393 -1.9578 1.9126 1.0000
25.0397 -1.8826 1.9122 1.0000
25.0423 -1.7324 1.9116 1.0000
25.0468 -1.2823 1.9099 1.0000
25.0445 -0.9824 1.9087 1.0000
25.0455 -0.9076 1.9085 1.0000
25.0467 -0.8327 1.9084 1.0000
25.0493 -0.6830 1.9083 1.0000
25.0506 -0.6082 1.9082 1.0000
25.0519 -0.5334 1.9082 1.0000
25.0533 -0.4586 1.9082 1.0000
25.0546 -0.3837 1.9082 1.0000
25.0589 -0.0845 1.9083 1.0000
25.0593 -0.0096 1.9083 1.0000
25.0600 0.1401 1.9084 1.0000
25.0608 0.2897 1.9086 1.0000
25.0616 0.4394 1.9088 1.0000
25.0623 0.5892 1.9091 1.0000
25.0631 0.7390 1.9095 1.0000
25.2721 0.9719 1.9260 1.0000
25.2696 1.0473 1.9260 1.0000
25.2684 1.1229 1.9262 1.0000
25.2700 1.1986 1.9265 1.0000
25.2717 1.2743 1.9270 1.0000
25.2767 1.5017 1.9283 1.0000
25.2788 1.5776 1.9288 1.0000
25.2808 1.6535 1.9293 1.0000
25.5135 1.9751 1.9487 1.0000
50.0974 4.1794 3.8283 1.0000
50.0974 4.4808 3.8303 1.0000
50.0974 4.6317 3.8313 1.0000
50.0974 4.9336 3.8335 1.0000
50.0974 5.2359 3.8358 1.0000
50.0974 5.3872 3.8370 1.0000
50.0974 5.5385 3.8383 1.0000
50.0974 6.2970 3.8451 1.0000
50.0974 6.4491 3.8465 1.0000
50.0974 7.0583 3.8527 1.0000
50.0974 7.2110 3.8544 1.0000
50.0974 7.3638 3.8561 1.0000
50.0974 7.6697 3.8595 1.0000
50.0974 7.8229 3.8613 1.0000
50.0974 7.9762 3.8631 1.0000
50.0974 8.1297 3.8650 1.0000
50.0974 8.7451 3.8728 1.0000
50.0974 8.8993 3.8748 1.0000
50.0974 9.2083 3.8790 1.0000
50.0974 9.3631 3.8811 1.0000
50.0974 9.5180 3.8833 1.0000
50.0974 9.6731 3.8855 1.0000
50.0974 9.9838 3.8901 1.0000
50.0974 10.1395 3.8924 1.0000
50.0974 10.2953 3.8948 1.0000
50.0974 10.4513 3.8972 1.0000
50.0974 10.6075 3.8996 1.0000
50.0974 11.3917 3.9125 1.0000
50.0974 11.7068 3.9178 1.0000
50.0974 12.0228 3.9234 1.0000
50.0974 12.1811 3.9262 1.0000
50.0974 12.9763 3.9410 1.0000
50.0975 -13.2306 3.9459 1.0000
50.0974 -13.0707 3.9428 1.0000
50.0975 -12.9110 3.9397 1.0000
25.0474 0.6139 1.4829 1.0000
25.2257 0.8444 1.4938 1.0000
25.2215 1.0706 1.4941 1.0000
25.2202 1.1460 1.4942 1.0000
25.2187 1.2969 1.4945 1.0000
25.2215 1.5993 1.4957 1.0000
25.2238 1.6751 1.4962 1.0000
25.2263 1.7510 1.4966 1.0000
25.2281 1.8268 1.4970 1.0000
25.2294 1.9026 1.4974 1.0000
24.8487 2.1727 1.4763 1.0000
25.2678 2.5138 1.5029 1.0000
25.2721 2.5905 1.5036 1.0000
50.0966 5.2863 2.9814 1.0000
50.0966 5.4377 2.9824 1.0000
50.0966 5.8922 2.9854 1.0000
50.0966 6.0440 2.9865 1.0000
50.0966 6.3478 2.9887 1.0000
50.0966 6.4998 2.9898 1.0000
50.0967 6.6520 2.9910 1.0000
50.0967 6.8043 2.9922 1.0000
50.0967 6.9567 2.9934 1.0000
50.0967 7.2619 2.9959 1.0000
50.0967 7.5677 2.9986 1.0000
50.0967 7.7208 3.0000 1.0000
50.0966 7.8740 3.0014 1.0000
50.0966 8.0274 3.0028 1.0000
50.0966 8.1809 3.0042 1.0000
50.0966 8.3346 3.0057 1.0000
50.0967 8.6424 3.0088 1.0000
50.0967 8.9508 3.0119 1.0000
50.0967 9.4147 3.0169 1.0000
50.0967 9.5697 3.0186 1.0000
50.0966 10.6596 3.0313 1.0000
50.0966 10.9728 3.0353 1.0000
50.0967 11.6016 3.0434 1.0000
50.0967 12.2339 3.0521 1.0000
50.0967 12.7105 3.0589 1.0000
50.0967 12.8698 3.0612 1.0000
50.0967 13.0294 3.0636 1.0000
50.0967 13.3494 3.0684 1.0000
50.0967 -13.1770 3.0658 1.0000
50.0967 -12.6982 3.0587 1.0000
50.0967 -12.5391 3.0564 1.0000
50.0967 -12.3803 3.0542 1.0000
50.0967 -12.0632 3.0497 1.0000
50.0967 -11.7472 3.0454 1.0000
50.0967 -11.5894 3.0433 1.0000
50.0967 -10.3353 3.0274 1.0000
50.0967 -10.0237 3.0237 1.0000
50.0967 -9.8683 3.0219 1.0000
50.0967 -9.7129 3.0202 1.0000
50.0967 -9.2480 3.0151 1.0000
50.0967 -9.0934 3.0134 1.0000
50.0967 -8.9390 3.0118 1.0000
50.0967 -8.7847 3.0102 1.0000
50.0967 -8.6305 3.0086 1.0000
50.0967 -8.4766 3.0071 1.0000
50.0967 -8.3228 3.0056 1.0000
50.0967 -8.1691 3.0041 1.0000
50.0967 -8.0156 3.0027 1.0000
50.0967 -7.7090 2.9999 1.0000
50.0965 -7.0975 2.9946 1.0000
50.0965 -6.7925 2.9921 1.0000
50.0966 -6.6403 2.9909 1.0000
50.0965 -6.3360 2.9886 1.0000
50.0966 -6.1841 2.9875 1.0000
50.0966 -6.0323 2.9864 1.0000
50.0966 -5.8805 2.9853 1.0000
50.0966 -5.5774 2.9833 1.0000
50.0966 -5.4260 2.9823 1.0000
50.0966 -4.9724 2.9795 1.0000
24.9963 -2.4057 1.4862 1.0000
24.9977 -2.3304 1.4859 1.0000
25.0016 -2.1051 1.4849 1.0000
25.0054 -1.8800 1.4841 1.0000
25.0081 -1.7301 1.4836 1.0000
25.0106 -1.5801 1.4832 1.0000
25.0135 -1.4304 1.4828 1.0000
25.0156 -1.2806 1.4825 1.0000
25.0187 -1.0562 1.4821 1.0000
25.0206 -0.9067 1.4818 1.0000
25.0237 -0.7572 1.4817 1.0000
25.0312 -0.3086 1.4816 1.0000
25.0363 -0.0096 1.4818 1.0000
25.0389 0.1399 1.4820 1.0000
25.0403 0.2147 1.4821 1.0000
25.0429 0.3643 1.4823 1.0000
25.0442 0.4392 1.4825 1.0000
25.0496 0.7387 1.4832 1.0000
25.2220 1.0454 1.4940 1.0000
25.2203 1.1962 1.4943 1.0000
25.2169 1.4226 1.4948 1.0000
25.2184 1.4983 1.4952 1.0000
25.2207 1.5740 1.4956 1.0000
25.2277 1.8015 1.4969 1.0000
25.2290 1.8773 1.4973 1.0000
25.2346 2.0293 1.4983 1.0000
25.2431 2.1059 1.4992 1.0000
24.8487 2.1477 1.4762 1.0000
24.8487 2.2225 1.4765 1.0000
25.0501 2.3160 1.4889 1.0000
50.0966 5.5385 2.9830 1.0000
50.0966 5.8416 2.9851 1.0000
50.0966 5.9932 2.9861 1.0000
50.0966 6.2969 2.9883 1.0000
50.0967 6.6011 2.9906 1.0000
50.0967 6.9057 2.9930 1.0000
50.0967 7.0583 2.9942 1.0000
50.0966 7.2109 2.9955 1.0000
50.0967 7.5166 2.9982 1.0000
50.0967 7.6696 2.9995 1.0000
50.0966 7.9761 3.0023 1.0000
50.0966 8.1296 3.0037 1.0000
50.0967 8.4370 3.0067 1.0000
50.0967 8.5909 3.0083 1.0000
50.0967 8.7450 3.0098 1.0000
50.0967 8.8992 3.0114 1.0000
50.0967 9.0537 3.0130 1.0000
50.0967 9.2082 3.0146 1.0000
50.0967 9.3629 3.0163 1.0000
50.0967 9.8282 3.0215 1.0000
50.0967 9.9837 3.0233 1.0000
50.0967 10.2952 3.0269 1.0000
50.0966 10.6074 3.0307 1.0000
50.0966 10.7638 3.0326 1.0000
50.0966 10.9204 3.0346 1.0000
50.0967 11.2342 3.0386 1.0000
50.0967 11.3915 3.0406 1.0000
50.0967 11.5490 3.0427 1.0000
50.0967 11.7066 3.0448 1.0000
50.0967 12.0226 3.0491 1.0000
50.0967 13.1358 3.0652 1.0000
50.0967 -13.2304 3.0666 1.0000
25.0451 0.5390 1.0584 1.0000
25.0476 0.6888 1.0587 1.0000
25.0489 0.7637 1.0588 1.0000
25.2066 0.8438 1.0656 1.0000
25.2066 0.9192 1.0657 1.0000
25.2025 1.0697 1.0658 1.0000
25.2003 1.2205 1.0660 1.0000
25.1975 1.4467 1.0664 1.0000
25.1998 1.5979 1.0668 1.0000
25.2006 1.6736 1.0671 1.0000
25.2021 1.8249 1.0676 1.0000
25.2062 1.9766 1.0683 1.0000
25.2133 2.1288 1.0691 1.0000
25.2204 2.2812 1.0699 1.0000
25.2238 2.3574 1.0704 1.0000
25.2305 2.5101 1.0713 1.0000
50.0959 5.4376 2.1290 1.0000
50.0959 5.5890 2.1297 1.0000
50.0959 5.8921 2.1312 1.0000
50.0959 6.1957 2.1327 1.0000
50.0959 6.4997 2.1343 1.0000
50.0959 6.6519 2.1352 1.0000
50.0959 6.8042 2.1360 1.0000
50.0959 7.2618 2.1387 1.0000
50.0959 7.5676 2.1406 1.0000
50.0959 7.7207 2.1416 1.0000
50.0959 7.8739 2.1426 1.0000
50.0959 8.1808 2.1446 1.0000
50.0959 8.3345 2.1457 1.0000
50.0959 8.4883 2.1468 1.0000
50.0959 8.9506 2.1501 1.0000
50.0959 9.5696 2.1549 1.0000
50.0959 9.7247 2.1561 1.0000
50.0959 9.8801 2.1574 1.0000
50.0959 10.0355 2.1586 1.0000
50.0959 10.5032 2.1626 1.0000
50.0959 10.6595 2.1640 1.0000
50.0959 10.8160 2.1654 1.0000
50.0959 11.1295 2.1682 1.0000
50.0960 11.6014 2.1726 1.0000
50.0959 12.3923 2.1804 1.0000
50.0959 12.5512 2.1820 1.0000
50.0960 13.3492 2.1904 1.0000
50.0960 -12.8574 2.1852 1.0000
50.0960 -12.6980 2.1835 1.0000
50.0960 -12.5390 2.1819 1.0000
50.0960 -12.3801 2.1803 1.0000
50.0960 -12.2215 2.1787 1.0000
50.0960 -12.0631 2.1771 1.0000
50.0960 -11.9049 2.1755 1.0000
50.0960 -11.7470 2.1740 1.0000
50.0960 -11.2745 2.1695 1.0000
50.0960 -11.1174 2.1681 1.0000
50.0960 -10.3351 2.1612 1.0000
50.0960 -10.1792 2.1598 1.0000
50.0960 -9.8681 2.1573 1.0000
50.0960 -9.7128 2.1560 1.0000
50.0960 -9.5576 2.1548 1.0000
50.0959 -9.2479 2.1523 1.0000
50.0959 -9.0933 2.1512 1.0000
50.0959 -8.9388 2.1500 1.0000
50.0959 -8.6304 2.1478 1.0000
50.0959 -8.4765 2.1467 1.0000
50.0959 -8.1690 2.1445 1.0000
50.0959 -7.7089 2.1415 1.0000
50.0959 -7.5558 2.1405 1.0000
50.0958 -7.2501 2.1386 1.0000
50.0958 -6.7924 2.1360 1.0000
50.0958 -6.3360 2.1335 1.0000
50.0958 -5.8805 2.1311 1.0000
50.0958 -5.5774 2.1297 1.0000
50.0958 -5.2746 2.1283 1.0000
50.0958 -5.1234 2.1276 1.0000
50.0958 -4.9723 2.1270 1.0000
24.9642 -2.2522 1.0590 1.0000
24.9690 -2.1024 1.0587 1.0000
24.9762 -1.8778 1.0582 1.0000
24.9833 -1.6534 1.0579 1.0000
24.9857 -1.5786 1.0578 1.0000
24.9881 -1.5038 1.0577 1.0000
24.9903 -1.4290 1.0576 1.0000
24.9924 -1.3544 1.0575 1.0000
24.9946 -1.2796 1.0574 1.0000
24.9963 -1.2049 1.0573 1.0000
24.9974 -1.1301 1.0572 1.0000
25.0021 -0.9807 1.0572 1.0000
25.0161 -0.5326 1.0572 1.0000
25.0184 -0.4580 1.0572 1.0000
25.0208 -0.3832 1.0573 1.0000
25.0301 -0.0844 1.0575 1.0000
25.0324 -0.0096 1.0576 1.0000
25.0347 0.0651 1.0577 1.0000
25.0370 0.1399 1.0579 1.0000
25.0447 0.5140 1.0584 1.0000
25.0460 0.5888 1.0585 1.0000
25.0472 0.6637 1.0586 1.0000
25.0485 0.7386 1.0588 1.0000
25.2081 0.8187 1.0656 1.0000
25.2052 0.9692 1.0657 1.0000
25.2031 1.0446 1.0658 1.0000
25.2016 1.1199 1.0658 1.0000
25.1997 1.2707 1.0661 1.0000
25.1985 1.4970 1.0665 1.0000
25.1995 1.5726 1.0668 1.0000
25.2003 1.6483 1.0670 1.0000
25.2011 1.7239 1.0673 1.0000
25.2034 1.8754 1.0678 1.0000
25.2085 2.0272 1.0685 1.0000
25.2120 2.1033 1.0689 1.0000
25.2157 2.1794 1.0694 1.0000
25.2192 2.2557 1.0698 1.0000
25.2227 2.3319 1.0702 1.0000
25.2294 2.4846 1.0711 1.0000
25.2327 2.5611 1.0716 1.0000
50.0959 5.2358 2.1281 1.0000
50.0959 5.3870 2.1288 1.0000
50.0959 5.5384 2.1295 1.0000
50.0959 5.6899 2.1302 1.0000
50.0959 5.9931 2.1317 1.0000
50.0959 6.1449 2.1325 1.0000
50.0959 6.2968 2.1332 1.0000
50.0959 6.9056 2.1366 1.0000
50.0959 7.2108 2.1384 1.0000
50.0959 7.6695 2.1412 1.0000
50.0959 8.1295 2.1443 1.0000
50.0959 8.2831 2.1453 1.0000
50.0959 8.4369 2.1464 1.0000
50.0959 8.7449 2.1486 1.0000
50.0959 8.8991 2.1497 1.0000
50.0959 9.0535 2.1509 1.0000
50.0959 9.2081 2.1520 1.0000
50.0959 9.6729 2.1557 1.0000
50.0959 9.8281 2.1569 1.0000
50.0959 10.1392 2.1595 1.0000
50.0959 10.7637 2.1649 1.0000
50.0959 11.0771 2.1677 1.0000
50.0959 11.3913 2.1706 1.0000
50.0959 11.5487 2.1721 1.0000
50.0959 12.4981 2.1815 1.0000
50.0959 12.6571 2.1831 1.0000
50.0959 12.8164 2.1848 1.0000
50.0959 13.1356 2.1881 1.0000
50.0960 13.2957 2.1899 1.0000
50.0960 -13.2303 2.1892 1.0000
25.0404 0.5389 0.6347 1.0000
25.2009 0.8436 0.6390 1.0000
25.1952 0.9188 0.6389 1.0000
25.1009 0.9904 0.6366 1.0000
25.4503 1.0803 0.6455 1.0000
25.4503 1.1564 0.6456 1.0000
24.9678 1.2840 0.6335 1.0000
24.9691 1.4336 0.6338 1.0000
24.9662 1.7329 0.6342 1.0000
25.4503 1.8429 0.6466 1.0000
25.0403 1.9636 0.6365 1.0000
25.2093 2.2801 0.6414 1.0000
25.2127 2.3564 0.6417 1.0000
50.0952 5.4376 1.2769 1.0000
50.0952 5.8921 1.2782 1.0000
50.0951 6.1956 1.2791 1.0000
50.0951 6.4996 1.2801 1.0000
50.0951 6.8041 1.2811 1.0000
50.0951 6.9565 1.2816 1.0000
50.0951 7.1091 1.2822 1.0000
50.0951 7.2618 1.2827 1.0000
50.0951 7.7206 1.2844 1.0000
50.0951 8.3344 1.2869 1.0000
50.0951 8.6421 1.2882 1.0000
50.0951 8.7962 1.2889 1.0000
50.0952 9.1050 1.2903 1.0000
50.0952 9.4145 1.2917 1.0000
50.0952 9.5694 1.2924 1.0000
50.0952 9.7246 1.2931 1.0000
50.0952 9.8799 1.2939 1.0000
50.0951 10.3470 1.2962 1.0000
50.0951 10.5031 1.2970 1.0000
50.0951 10.9725 1.2995 1.0000
50.0951 11.6013 1.3030 1.0000
50.0952 11.7590 1.3040 1.0000
50.0952 12.0751 1.3058 1.0000
50.0952 12.2335 1.3068 1.0000
50.0952 12.3921 1.3077 1.0000
50.0952 12.5510 1.3087 1.0000
50.0952 12.7101 1.3097 1.0000
50.0952 13.1889 1.3127 1.0000
50.0952 13.3490 1.3138 1.0000
50.0952 -13.1765 1.3126 1.0000
50.0953 -13.0167 1.3116 1.0000
50.0952 -11.9047 1.3048 1.0000
50.0952 -11.7468 1.3039 1.0000
50.0952 -11.5891 1.3030 1.0000
50.0952 -11.4316 1.3021 1.0000
50.0952 -11.1172 1.3003 1.0000
50.0952 -10.9604 1.2995 1.0000
50.0952 -10.6473 1.2978 1.0000
50.0952 -10.4910 1.2970 1.0000
50.0952 -10.0234 1.2946 1.0000
50.0952 -9.8679 1.2938 1.0000
50.0952 -9.7126 1.2931 1.0000
50.0952 -9.0931 1.2902 1.0000
50.0952 -8.9387 1.2895 1.0000
50.0952 -8.7844 1.2888 1.0000
50.0952 -8.6303 1.2882 1.0000
50.0952 -8.1689 1.2862 1.0000
50.0952 -8.0153 1.2856 1.0000
50.0952 -7.8620 1.2850 1.0000
50.0952 -7.5557 1.2838 1.0000
50.0951 -7.0973 1.2821 1.0000
50.0951 -6.9448 1.2816 1.0000
50.0951 -6.4879 1.2800 1.0000
50.0951 -6.3358 1.2796 1.0000
50.0951 -5.8803 1.2782 1.0000
50.0951 -5.4259 1.2769 1.0000
50.0951 -5.1233 1.2761 1.0000
24.9283 -2.3992 0.6346 1.0000
24.9471 -1.9505 0.6341 1.0000
24.9478 -1.8757 0.6340 1.0000
24.9487 -1.8008 0.6339 1.0000
24.8312 -1.6433 0.6306 1.0000
24.8231 -1.4939 0.6302 1.0000
24.8244 -1.4196 0.6301 1.0000
24.8267 -1.1967 0.6299 1.0000
24.8262 -1.1224 0.6298 1.0000
24.8254 -1.0481 0.6297 1.0000
24.8549 -0.7520 0.6301 1.0000
25.0016 -0.5324 0.6337 1.0000
25.0067 -0.3830 0.6338 1.0000
25.0284 0.2146 0.6343 1.0000
25.0339 0.3642 0.6344 1.0000
25.0367 0.4390 0.6345 1.0000
25.0395 0.5138 0.6347 1.0000
25.0423 0.5887 0.6348 1.0000
25.1024 0.9654 0.6366 1.0000
25.4503 1.0548 0.6455 1.0000
24.9660 1.1842 0.6334 1.0000
24.9690 1.4087 0.6337 1.0000
24.9692 1.4834 0.6339 1.0000
25.1973 2.0263 0.6406 1.0000
25.2009 2.1024 0.6408 1.0000
25.2081 2.2546 0.6413 1.0000
