ply
format ascii 1.0
element vertex 1592
property float32 x
property float32 y
property float32 z
property float32 I
end_header
50.0941 -7.6077 12.6634 1.0000
50.0940 -7.4543 12.6576 1.0000
50.0940 -7.3011 12.6521 1.0000
50.0940 -6.9950 12.6413 1.0000
50.0940 -6.8422 12.6360 1.0000
50.0940 -6.3844 12.6211 1.0000
50.0940 -6.2321 12.6163 1.0000
50.0940 -5.6237 12.5984 1.0000
50.0940 -4.8657 12.5787 1.0000
50.0940 -4.7143 12.5751 1.0000
50.0940 -4.4119 12.5683 1.0000
50.0940 -3.9588 12.5588 1.0000
50.0940 -3.8079 12.5559 1.0000
50.0940 -3.6571 12.5531 1.0000
50.0940 -3.5064 12.5504 1.0000
50.0940 -3.3557 12.5479 1.0000
50.0940 -3.0545 12.5430 1.0000
50.0940 -2.9040 12.5408 1.0000
50.0940 -2.6032 12.5367 1.0000
50.0941 -2.4529 12.5348 1.0000
50.0941 -1.8518 12.5284 1.0000
50.0941 -1.4014 12.5247 1.0000
50.0941 -1.2514 12.5237 1.0000
50.0941 -1.1013 12.5228 1.0000
50.0941 -0.9512 12.5221 1.0000
50.0941 -0.6513 12.5209 1.0000
50.0941 -0.2013 12.5199 1.0000
50.0941 0.6986 12.5210 1.0000
50.0941 0.8486 12.5216 1.0000
50.0941 0.9986 12.5223 1.0000
50.0941 1.1487 12.5231 1.0000
50.0941 1.5989 12.5262 1.0000
50.0941 1.7491 12.5274 1.0000
50.0941 1.8993 12.5288 1.0000
50.0941 2.0495 12.5303 1.0000
50.0941 2.1997 12.5319 1.0000
50.0941 3.1021 12.5438 1.0000
50.0941 3.2527 12.5462 1.0000
50.0941 3.4033 12.5487 1.0000
50.0941 3.7048 12.5540 1.0000
50.0941 4.1574 12.5628 1.0000
50.0941 5.2165 12.5875 1.0000
50.0941 5.3681 12.5915 1.0000
50.0941 6.1279 12.6131 1.0000
50.0941 6.2802 12.6178 1.0000
50.0941 6.4326 12.6226 1.0000
50.0941 6.5851 12.6275 1.0000
50.0941 7.0433 12.6429 1.0000
50.0941 9.1984 12.7291 1.0000
50.0941 9.3535 12.7362 1.0000
50.0941 9.5088 12.7434 1.0000
50.0941 9.8199 12.7581 1.0000
50.0941 9.9757 12.7656 1.0000
50.0941 10.2880 12.7811 1.0000
50.0941 10.4444 12.7890 1.0000
50.0941 10.9147 12.8135 1.0000
50.0941 11.3870 12.8392 1.0000
50.0941 11.7028 12.8569 1.0000
50.0941 12.1783 12.8845 1.0000
50.0941 12.3373 12.8939 1.0000
50.0941 12.8155 12.9230 1.0000
50.0941 12.9755 12.9330 1.0000
50.0941 13.1356 12.9431 1.0000
50.0941 13.2960 12.9533 1.0000
50.0941 -13.2281 12.9490 1.0000
50.0941 -12.9078 12.9288 1.0000
50.0941 -12.7480 12.9188 1.0000
50.0941 -12.5884 12.9091 1.0000
50.0941 -11.9525 12.8713 1.0000
50.0941 -11.7941 12.8621 1.0000
50.0941 -11.6359 12.8531 1.0000
50.0941 -11.1627 12.8269 1.0000
50.0941 -11.0054 12.8184 1.0000
50.0941 -10.8483 12.8100 1.0000
50.0941 -10.6914 12.8018 1.0000
50.0941 -10.3782 12.7857 1.0000
50.0941 -10.0657 12.7701 1.0000
50.0941 -9.9097 12.7624 1.0000
50.0941 -9.5985 12.7476 1.0000
50.0941 -9.4431 12.7403 1.0000
50.0941 -9.1328 12.7262 1.0000
50.0941 -8.9779 12.7193 1.0000
50.0941 -8.8232 12.7125 1.0000
50.0941 -8.6687 12.7059 1.0000
50.0941 -8.2060 12.6867 1.0000
50.0941 -8.0521 12.6805 1.0000
50.0941 -7.7446 12.6685 1.0000
50.0941 -7.5912 12.6627 1.0000
50.0940 -7.4378 12.6570 1.0000
50.0940 -6.9786 12.6407 1.0000
50.0940 -6.6730 12.6304 1.0000
50.0940 -6.3680 12.6205 1.0000
50.0940 -6.0635 12.6112 1.0000
50.0940 -5.9114 12.6067 1.0000
50.0940 -5.4556 12.5938 1.0000
50.0940 -5.1523 12.5858 1.0000
50.0940 -4.8493 12.5783 1.0000
50.0940 -4.6980 12.5747 1.0000
50.0940 -4.5468 12.5713 1.0000
50.0940 -4.2445 12.5647 1.0000
50.0940 -4.0936 12.5615 1.0000
50.0940 -3.9426 12.5585 1.0000
50.0940 -3.7917 12.5556 1.0000
50.0940 -3.6409 12.5528 1.0000
50.0940 -3.4902 12.5501 1.0000
50.0940 -3.3395 12.5476 1.0000
50.0940 -3.1889 12.5451 1.0000
50.0940 -3.0384 12.5428 1.0000
50.0941 -2.5870 12.5365 1.0000
50.0941 -2.1361 12.5312 1.0000
50.0941 -1.9859 12.5296 1.0000
50.0941 -1.6855 12.5269 1.0000
50.0941 -1.3852 12.5246 1.0000
50.0941 -0.7851 12.5213 1.0000
50.0941 -0.4851 12.5204 1.0000
50.0941 -0.0352 12.5198 1.0000
50.0941 0.1148 12.5198 1.0000
50.0941 1.0148 12.5224 1.0000
50.0941 1.1648 12.5232 1.0000
50.0941 1.7652 12.5276 1.0000
50.0941 1.9154 12.5290 1.0000
50.0941 2.3662 12.5338 1.0000
50.0941 2.5165 12.5356 1.0000
50.0941 2.6669 12.5375 1.0000
50.0941 2.8173 12.5396 1.0000
50.0941 3.4195 12.5489 1.0000
50.0941 3.5702 12.5516 1.0000
50.0941 3.7210 12.5543 1.0000
50.0941 3.8718 12.5571 1.0000
50.0941 4.3248 12.5664 1.0000
50.0941 4.4759 12.5697 1.0000
50.0941 4.7784 12.5766 1.0000
50.0941 4.9298 12.5803 1.0000
50.0941 5.0812 12.5840 1.0000
50.0941 5.3845 12.5919 1.0000
50.0941 5.6881 12.6003 1.0000
50.0941 5.8400 12.6046 1.0000
50.0941 6.2966 12.6183 1.0000
50.0941 6.4490 12.6231 1.0000
50.0941 6.7541 12.6331 1.0000
50.0941 7.0598 12.6435 1.0000
50.0941 7.3659 12.6544 1.0000
50.0941 7.5192 12.6601 1.0000
50.0941 -11.8111 11.9433 1.0000
50.0941 -11.6529 11.9349 1.0000
50.0941 -11.3371 11.9185 1.0000
50.0941 -11.0223 11.9026 1.0000
50.0941 -10.8652 11.8948 1.0000
50.0941 -10.3950 11.8722 1.0000
50.0941 -10.2387 11.8649 1.0000
50.0941 -9.7708 11.8436 1.0000
50.0941 -8.5309 11.7919 1.0000
50.0941 -8.3767 11.7860 1.0000
50.0941 -8.2226 11.7801 1.0000
50.0941 -8.0686 11.7744 1.0000
50.0941 -7.9148 11.7688 1.0000
50.0941 -7.7612 11.7632 1.0000
50.0941 -7.4543 11.7525 1.0000
50.0941 -7.3011 11.7474 1.0000
50.0940 -7.1480 11.7423 1.0000
50.0941 -6.9951 11.7373 1.0000
50.0940 -6.8422 11.7325 1.0000
50.0941 -6.6895 11.7277 1.0000
50.0941 -6.3845 11.7186 1.0000
50.0941 -6.0798 11.7098 1.0000
50.0940 -5.4720 11.6937 1.0000
50.0941 -5.1687 11.6862 1.0000
50.0940 -4.7144 11.6759 1.0000
50.0940 -4.5631 11.6727 1.0000
50.0940 -4.2608 11.6665 1.0000
50.0940 -4.1098 11.6636 1.0000
50.0940 -3.9588 11.6608 1.0000
50.0940 -3.8080 11.6581 1.0000
50.0940 -3.5064 11.6530 1.0000
50.0940 -3.3557 11.6506 1.0000
50.0940 -3.2051 11.6483 1.0000
50.0940 -3.0545 11.6461 1.0000
50.0940 -2.9041 11.6441 1.0000
50.0940 -2.7536 11.6421 1.0000
50.0940 -2.4529 11.6385 1.0000
50.0940 -2.3025 11.6368 1.0000
50.0940 -2.0020 11.6338 1.0000
50.0940 -1.8518 11.6325 1.0000
50.0940 -1.5515 11.6301 1.0000
50.0940 -1.1013 11.6273 1.0000
50.0940 -0.6513 11.6255 1.0000
50.0940 -0.0513 11.6246 1.0000
50.0941 0.2486 11.6247 1.0000
50.0941 0.3986 11.6249 1.0000
50.0941 0.5486 11.6252 1.0000
50.0940 0.6986 11.6257 1.0000
50.0940 0.8486 11.6262 1.0000
50.0941 1.7490 11.6316 1.0000
50.0941 1.8992 11.6329 1.0000
50.0941 2.3500 11.6373 1.0000
50.0940 2.5003 11.6390 1.0000
50.0940 2.6507 11.6408 1.0000
50.0941 3.1021 11.6468 1.0000
50.0941 3.2526 11.6490 1.0000
50.0940 3.4033 11.6513 1.0000
50.0940 4.1575 11.6645 1.0000
50.0940 4.4596 11.6705 1.0000
50.0940 4.6108 11.6737 1.0000
50.0941 4.7621 11.6770 1.0000
50.0941 4.9135 11.6803 1.0000
50.0941 5.3682 11.6911 1.0000
50.0941 5.6717 11.6988 1.0000
50.0941 6.1279 11.7112 1.0000
50.0941 6.4326 11.7200 1.0000
50.0941 6.5851 11.7245 1.0000
50.0941 6.7377 11.7292 1.0000
50.0941 6.8905 11.7340 1.0000
50.0941 7.1963 11.7439 1.0000
50.0941 7.3495 11.7490 1.0000
50.0941 7.5027 11.7542 1.0000
50.0941 7.6562 11.7595 1.0000
50.0941 7.9634 11.7705 1.0000
50.0941 8.7341 11.7999 1.0000
50.0941 8.8887 11.8061 1.0000
50.0941 9.0435 11.8124 1.0000
50.0941 9.3535 11.8254 1.0000
50.0941 9.5088 11.8321 1.0000
50.0941 9.9758 11.8528 1.0000
50.0941 10.4444 11.8745 1.0000
50.0941 10.7577 11.8896 1.0000
50.0941 10.9148 11.8973 1.0000
50.0941 11.0720 11.9051 1.0000
50.0941 11.2294 11.9130 1.0000
50.0941 11.5448 11.9293 1.0000
50.0941 12.0196 11.9545 1.0000
50.0941 12.1784 11.9631 1.0000
50.0941 12.4965 11.9808 1.0000
50.0941 12.6559 11.9898 1.0000
50.0941 13.2961 12.0270 1.0000
50.0941 -13.3887 12.0326 1.0000
50.0941 -13.2281 12.0230 1.0000
50.0941 -13.0678 12.0136 1.0000
50.0941 -12.5884 11.9860 1.0000
50.0941 -12.2700 11.9682 1.0000
50.0941 -12.1111 11.9595 1.0000
50.0941 -11.7941 11.9424 1.0000
50.0941 -11.6359 11.9340 1.0000
50.0941 -11.4780 11.9258 1.0000
50.0941 -11.3202 11.9177 1.0000
50.0941 -11.1627 11.9097 1.0000
50.0941 -11.0054 11.9018 1.0000
50.0941 -10.6914 11.8864 1.0000
50.0941 -9.9098 11.8498 1.0000
50.0941 -9.7541 11.8429 1.0000
50.0941 -9.1328 11.8162 1.0000
50.0941 -8.6687 11.7973 1.0000
50.0941 -8.5143 11.7913 1.0000
50.0941 -8.3601 11.7853 1.0000
50.0941 -8.2060 11.7795 1.0000
50.0941 -7.5912 11.7573 1.0000
50.0941 -7.4379 11.7520 1.0000
50.0940 -7.2846 11.7468 1.0000
50.0940 -6.5205 11.7226 1.0000
50.0941 -6.3680 11.7181 1.0000
50.0941 -6.2157 11.7137 1.0000
50.0940 -5.9113 11.7052 1.0000
50.0941 -5.6075 11.6971 1.0000
50.0940 -5.4556 11.6933 1.0000
50.0940 -5.3039 11.6895 1.0000
50.0941 -5.1523 11.6859 1.0000
50.0941 -5.0008 11.6823 1.0000
50.0940 -4.6980 11.6756 1.0000
50.0940 -4.5468 11.6723 1.0000
50.0940 -4.3956 11.6692 1.0000
50.0940 -4.2446 11.6662 1.0000
50.0940 -4.0935 11.6633 1.0000
50.0940 -3.9426 11.6605 1.0000
50.0940 -3.7917 11.6578 1.0000
50.0940 -3.6409 11.6552 1.0000
50.0940 -3.4902 11.6527 1.0000
50.0940 -3.3395 11.6503 1.0000
50.0940 -3.0384 11.6459 1.0000
50.0940 -2.8879 11.6438 1.0000
50.0940 -2.7374 11.6419 1.0000
50.0940 -2.2864 11.6366 1.0000
50.0940 -2.1361 11.6351 1.0000
50.0941 -1.9859 11.6337 1.0000
50.0941 -1.8357 11.6323 1.0000
50.0941 -0.7851 11.6260 1.0000
50.0940 -0.6351 11.6255 1.0000
50.0941 -0.4851 11.6251 1.0000
50.0940 -0.1851 11.6246 1.0000
50.0940 1.0148 11.6269 1.0000
50.0941 1.4650 11.6295 1.0000
50.0940 1.6151 11.6306 1.0000
50.0941 1.9154 11.6330 1.0000
50.0941 2.3661 11.6375 1.0000
50.0941 2.6668 11.6410 1.0000
50.0940 2.9678 11.6449 1.0000
50.0941 3.1182 11.6470 1.0000
50.0941 3.2688 11.6493 1.0000
50.0940 3.4195 11.6516 1.0000
50.0940 3.7210 11.6566 1.0000
50.0940 3.8718 11.6592 1.0000
50.0940 4.0227 11.6620 1.0000
50.0940 4.4759 11.6709 1.0000
50.0940 4.6271 11.6740 1.0000
50.0941 4.7784 11.6773 1.0000
50.0941 5.0812 11.6842 1.0000
50.0941 5.2328 11.6878 1.0000
50.0941 5.5363 11.6953 1.0000
50.0941 5.6881 11.6992 1.0000
50.0941 6.2966 11.7160 1.0000
50.0941 6.4490 11.7205 1.0000
50.0941 6.6015 11.7250 1.0000
50.0941 6.7541 11.7297 1.0000
50.0941 6.9069 11.7345 1.0000
50.0941 -11.6529 11.0229 1.0000
50.0941 -11.1796 11.0004 1.0000
50.0941 -11.0223 10.9931 1.0000
50.0941 -10.5515 10.9719 1.0000
50.0941 -10.3950 10.9650 1.0000
50.0941 -10.2386 10.9582 1.0000
50.0941 -10.0825 10.9516 1.0000
50.0941 -9.6152 10.9323 1.0000
50.0941 -9.4598 10.9260 1.0000
50.0941 -9.3045 10.9199 1.0000
50.0941 -8.8398 10.9022 1.0000
50.0941 -8.6853 10.8965 1.0000
50.0941 -8.5309 10.8908 1.0000
50.0941 -8.3766 10.8853 1.0000
50.0941 -8.2225 10.8800 1.0000
50.0941 -8.0686 10.8747 1.0000
50.0941 -7.7611 10.8644 1.0000
50.0941 -7.6077 10.8594 1.0000
50.0940 -7.4543 10.8545 1.0000
50.0940 -7.3011 10.8497 1.0000
50.0940 -7.1480 10.8450 1.0000
50.0939 -6.3844 10.8231 1.0000
50.0939 -6.2321 10.8190 1.0000
50.0940 -6.0799 10.8151 1.0000
50.0940 -5.7757 10.8074 1.0000
50.0939 -5.6238 10.8037 1.0000
50.0940 -5.3203 10.7966 1.0000
50.0940 -4.7143 10.7837 1.0000
50.0940 -4.2608 10.7750 1.0000
50.0939 -4.1098 10.7723 1.0000
50.0939 -3.8080 10.7672 1.0000
50.0940 -3.6571 10.7648 1.0000
50.0939 -3.3557 10.7603 1.0000
50.0939 -2.6032 10.7507 1.0000
50.0939 -2.1523 10.7462 1.0000
50.0941 -1.8519 10.7436 1.0000
50.0940 -1.7017 10.7425 1.0000
50.0941 -1.5516 10.7414 1.0000
50.0941 -1.4015 10.7405 1.0000
50.0940 -1.2514 10.7396 1.0000
50.0941 -1.1013 10.7389 1.0000
50.0941 -0.9513 10.7382 1.0000
50.0941 -0.6513 10.7372 1.0000
50.0940 -0.5012 10.7368 1.0000
50.0940 0.0987 10.7363 1.0000
50.0940 0.3986 10.7366 1.0000
50.0940 0.9986 10.7384 1.0000
50.0941 1.5989 10.7417 1.0000
50.0940 1.7491 10.7428 1.0000
50.0940 1.8992 10.7440 1.0000
50.0941 2.0495 10.7453 1.0000
50.0940 2.3500 10.7481 1.0000
50.0941 2.6506 10.7513 1.0000
50.0940 2.8011 10.7530 1.0000
50.0941 2.9515 10.7549 1.0000
50.0940 3.1021 10.7568 1.0000
50.0940 3.2527 10.7589 1.0000
50.0940 3.8555 10.7680 1.0000
50.0940 4.0065 10.7706 1.0000
50.0940 4.1574 10.7732 1.0000
50.0940 4.4596 10.7787 1.0000
50.0940 4.6108 10.7817 1.0000
50.0941 4.9134 10.7878 1.0000
50.0941 5.3681 10.7977 1.0000
50.0940 5.5198 10.8013 1.0000
50.0940 6.1279 10.8163 1.0000
50.0940 6.7377 10.8329 1.0000
50.0940 7.0433 10.8419 1.0000
50.0940 7.6561 10.8609 1.0000
50.0940 7.8097 10.8660 1.0000
50.0941 7.9634 10.8711 1.0000
50.0940 8.1172 10.8763 1.0000
50.0940 8.2712 10.8816 1.0000
50.0941 8.4253 10.8871 1.0000
50.0941 8.7341 10.8982 1.0000
50.0940 9.0435 10.9098 1.0000
50.0940 9.1984 10.9158 1.0000
50.0941 9.5088 10.9280 1.0000
50.0940 9.6643 10.9342 1.0000
50.0940 9.8200 10.9406 1.0000
50.0940 9.9758 10.9471 1.0000
50.0940 10.1318 10.9537 1.0000
50.0940 10.4444 10.9671 1.0000
50.0940 10.6010 10.9740 1.0000
50.0940 10.7578 10.9811 1.0000
50.0941 11.0719 10.9954 1.0000
50.0941 11.2293 11.0027 1.0000
50.0940 11.3870 11.0102 1.0000
50.0940 11.5448 11.0177 1.0000
50.0941 11.8611 11.0331 1.0000
50.0940 12.0196 11.0410 1.0000
50.0941 12.1783 11.0490 1.0000
50.0941 12.3373 11.0571 1.0000
50.0940 13.2961 11.1080 1.0000
50.0941 -13.2281 11.1043 1.0000
50.0941 -13.0678 11.0956 1.0000
50.0941 -12.9077 11.0870 1.0000
50.0941 -12.5884 11.0701 1.0000
50.0941 -12.1111 11.0456 1.0000
50.0941 -11.9525 11.0377 1.0000
50.0941 -11.7941 11.0298 1.0000
50.0941 -11.4779 11.0145 1.0000
50.0941 -11.3202 11.0070 1.0000
50.0941 -11.1627 10.9996 1.0000
50.0941 -10.8482 10.9851 1.0000
50.0941 -10.6913 10.9781 1.0000
50.0941 -10.5346 10.9711 1.0000
50.0941 -10.2218 10.9575 1.0000
50.0941 -10.0657 10.9509 1.0000
50.0941 -9.5984 10.9316 1.0000
50.0941 -9.4430 10.9254 1.0000
50.0941 -9.2878 10.9193 1.0000
50.0941 -9.1327 10.9132 1.0000
50.0941 -8.9779 10.9073 1.0000
50.0941 -8.8232 10.9015 1.0000
50.0941 -8.0520 10.8741 1.0000
50.0941 -7.8982 10.8689 1.0000
50.0941 -7.5912 10.8589 1.0000
50.0940 -7.4378 10.8540 1.0000
50.0939 -6.9786 10.8399 1.0000
50.0939 -6.8257 10.8355 1.0000
50.0939 -6.6730 10.8311 1.0000
50.0940 -6.2157 10.8186 1.0000
50.0940 -5.9114 10.8108 1.0000
50.0939 -5.6075 10.8033 1.0000
50.0940 -5.3039 10.7963 1.0000
50.0939 -5.1523 10.7929 1.0000
50.0940 -4.6981 10.7834 1.0000
50.0940 -4.5468 10.7804 1.0000
50.0939 -4.3957 10.7775 1.0000
50.0939 -4.2446 10.7747 1.0000
50.0940 -3.7918 10.7670 1.0000
50.0939 -3.6409 10.7646 1.0000
50.0940 -3.4902 10.7623 1.0000
50.0939 -2.8879 10.7541 1.0000
50.0940 -2.5870 10.7506 1.0000
50.0940 -2.4367 10.7490 1.0000
50.0940 -2.2864 10.7474 1.0000
50.0941 -2.1361 10.7460 1.0000
50.0941 -1.9859 10.7447 1.0000
50.0940 -1.8357 10.7435 1.0000
50.0940 -1.3853 10.7404 1.0000
50.0940 -0.4851 10.7368 1.0000
50.0941 -0.3352 10.7365 1.0000
50.0941 -0.1852 10.7363 1.0000
50.0940 0.1148 10.7363 1.0000
50.0941 0.2648 10.7364 1.0000
50.0941 0.4148 10.7366 1.0000
50.0941 0.8647 10.7379 1.0000
50.0941 1.1648 10.7392 1.0000
50.0940 1.3149 10.7400 1.0000
50.0941 1.4649 10.7409 1.0000
50.0941 1.6151 10.7418 1.0000
50.0941 2.2159 10.7468 1.0000
50.0940 2.3662 10.7482 1.0000
50.0941 2.5165 10.7498 1.0000
50.0940 2.8173 10.7532 1.0000
50.0940 3.1183 10.7571 1.0000
50.0940 3.2688 10.7591 1.0000
50.0941 3.5702 10.7635 1.0000
50.0941 3.8718 10.7683 1.0000
50.0941 4.7784 10.7850 1.0000
50.0941 4.9298 10.7881 1.0000
50.0940 5.2328 10.7947 1.0000
50.0941 5.5362 10.8016 1.0000
50.0941 5.6880 10.8053 1.0000
50.0941 5.8400 10.8090 1.0000
50.0940 5.9921 10.8128 1.0000
50.0940 6.1443 10.8167 1.0000
50.0941 6.4489 10.8249 1.0000
50.0941 6.6015 10.8291 1.0000
50.0941 6.9069 10.8378 1.0000
50.0941 7.0597 10.8424 1.0000
50.0941 -11.6529 10.1175 1.0000
50.0940 -11.1796 10.0968 1.0000
50.0941 -11.0223 10.0901 1.0000
50.0940 -10.8651 10.0835 1.0000
50.0940 -10.7082 10.0771 1.0000
50.0940 -10.3950 10.0643 1.0000
50.0941 -10.2386 10.0581 1.0000
50.0940 -9.4597 10.0286 1.0000
50.0940 -9.3045 10.0230 1.0000
50.0941 -8.9946 10.0120 1.0000
50.0941 -8.8399 10.0067 1.0000
50.0941 -8.6853 10.0014 1.0000
50.0940 -8.5309 9.9963 1.0000
50.0940 -8.2226 9.9863 1.0000
50.0940 -7.7612 9.9720 1.0000
50.0941 -7.6077 9.9674 1.0000
50.0939 -7.3011 9.9585 1.0000
50.0939 -7.1480 9.9542 1.0000
50.0939 -6.8422 9.9459 1.0000
50.0939 -6.6895 9.9419 1.0000
50.0939 -6.5369 9.9380 1.0000
50.0939 -6.3844 9.9341 1.0000
50.0939 -6.2321 9.9304 1.0000
50.0939 -6.0798 9.9267 1.0000
50.0939 -5.9277 9.9231 1.0000
50.0939 -5.4720 9.9130 1.0000
50.0939 -5.3202 9.9098 1.0000
50.0939 -4.8657 9.9008 1.0000
50.0939 -4.5630 9.8952 1.0000
50.0939 -4.4119 9.8926 1.0000
50.0939 -4.2608 9.8900 1.0000
50.0939 -4.1098 9.8875 1.0000
50.0939 -3.9588 9.8851 1.0000
50.0939 -3.8080 9.8828 1.0000
50.0939 -3.6572 9.8806 1.0000
50.0939 -2.9041 9.8710 1.0000
50.0939 -2.7536 9.8693 1.0000
50.0939 -2.4529 9.8662 1.0000
50.0939 -2.0020 9.8623 1.0000
50.0940 -1.8518 9.8611 1.0000
50.0940 -1.7016 9.8601 1.0000
50.0940 -1.5515 9.8591 1.0000
50.0940 -1.2513 9.8575 1.0000
50.0940 -0.2013 9.8545 1.0000
50.0940 -0.0512 9.8544 1.0000
50.0940 0.0987 9.8544 1.0000
50.0940 0.3987 9.8547 1.0000
50.0940 0.5486 9.8550 1.0000
50.0940 0.6986 9.8554 1.0000
50.0940 1.1487 9.8570 1.0000
50.0940 1.2987 9.8577 1.0000
50.0940 1.4488 9.8585 1.0000
50.0940 1.7491 9.8604 1.0000
50.0940 1.8993 9.8615 1.0000
50.0940 2.0495 9.8626 1.0000
50.0940 2.1997 9.8639 1.0000
50.0940 2.5003 9.8667 1.0000
50.0940 2.8011 9.8698 1.0000
50.0940 3.5540 9.8792 1.0000
50.0940 3.8556 9.8835 1.0000
50.0940 4.3085 9.8908 1.0000
50.0940 4.4596 9.8934 1.0000
50.0940 4.6108 9.8961 1.0000
50.0940 4.9135 9.9017 1.0000
50.0940 5.0649 9.9047 1.0000
50.0940 5.3681 9.9108 1.0000
50.0940 5.8237 9.9208 1.0000
50.0940 5.9757 9.9243 1.0000
50.0940 6.4326 9.9353 1.0000
50.0940 6.5851 9.9392 1.0000
50.0940 6.7377 9.9431 1.0000
50.0940 7.0433 9.9513 1.0000
50.0940 7.8097 9.9734 1.0000
50.0940 8.1172 9.9829 1.0000
50.0940 8.4253 9.9928 1.0000
50.0940 8.5796 9.9979 1.0000
50.0940 8.7341 10.0031 1.0000
50.0940 8.8887 10.0083 1.0000
50.0940 9.1984 10.0192 1.0000
50.0940 9.3535 10.0247 1.0000
50.0941 9.5088 10.0304 1.0000
50.0941 9.8199 10.0420 1.0000
50.0941 9.9757 10.0479 1.0000
50.0941 10.2880 10.0601 1.0000
50.0941 11.2293 10.0990 1.0000
50.0941 11.7028 10.1198 1.0000
50.0941 11.8611 10.1269 1.0000
50.0941 12.0196 10.1341 1.0000
50.0941 12.3373 10.1489 1.0000
50.0941 12.4965 10.1564 1.0000
50.0941 12.6559 10.1640 1.0000
50.0941 12.8155 10.1718 1.0000
50.0941 12.9755 10.1796 1.0000
50.0941 13.1356 10.1876 1.0000
50.0941 13.2960 10.1956 1.0000
50.0941 -13.3886 10.2003 1.0000
50.0941 -13.2281 10.1922 1.0000
50.0940 -12.9077 10.1763 1.0000
50.0941 -11.6359 10.1168 1.0000
50.0940 -11.3202 10.1029 1.0000
50.0940 -11.1627 10.0961 1.0000
50.0940 -10.6913 10.0764 1.0000
50.0941 -10.3781 10.0637 1.0000
50.0941 -10.2218 10.0575 1.0000
50.0940 -9.9097 10.0454 1.0000
50.0940 -9.5984 10.0337 1.0000
50.0941 -9.4431 10.0280 1.0000
50.0940 -8.9779 10.0114 1.0000
50.0940 -8.8232 10.0061 1.0000
50.0940 -8.5143 9.9958 1.0000
50.0941 -8.2060 9.9858 1.0000
50.0941 -8.0521 9.9809 1.0000
50.0941 -7.8983 9.9762 1.0000
50.0941 -7.7447 9.9715 1.0000
50.0940 -7.5912 9.9669 1.0000
50.0939 -7.1315 9.9538 1.0000
50.0939 -6.9786 9.9496 1.0000
50.0939 -6.8258 9.9455 1.0000
50.0939 -6.3680 9.9337 1.0000
50.0939 -6.2157 9.9300 1.0000
50.0939 -6.0634 9.9263 1.0000
50.0939 -5.7593 9.9193 1.0000
50.0939 -5.6074 9.9159 1.0000
50.0939 -5.4556 9.9127 1.0000
50.0939 -5.1523 9.9064 1.0000
50.0939 -4.8494 9.9005 1.0000
50.0939 -4.6980 9.8977 1.0000
50.0939 -4.2445 9.8897 1.0000
50.0939 -4.0935 9.8873 1.0000
50.0939 -3.7917 9.8826 1.0000
50.0939 -3.6409 9.8804 1.0000
50.0939 -2.7374 9.8691 1.0000
50.0939 -2.5870 9.8675 1.0000
50.0940 -1.9858 9.8621 1.0000
50.0940 -1.0851 9.8567 1.0000
50.0940 -0.9351 9.8561 1.0000
50.0940 -0.6351 9.8552 1.0000
50.0940 -0.4851 9.8549 1.0000
50.0940 -0.3351 9.8546 1.0000
50.0940 -0.1851 9.8545 1.0000
50.0940 -0.0351 9.8544 1.0000
50.0940 0.4148 9.8547 1.0000
50.0940 0.8648 9.8559 1.0000
50.0940 1.0148 9.8564 1.0000
50.0940 1.1648 9.8571 1.0000
50.0940 1.9155 9.8616 1.0000
50.0940 2.5165 9.8668 1.0000
50.0940 2.6669 9.8684 1.0000
50.0940 2.8173 9.8700 1.0000
50.0940 2.9678 9.8717 1.0000
50.0940 3.1183 9.8735 1.0000
50.0940 3.4195 9.8773 1.0000
50.0940 3.5702 9.8794 1.0000
50.0940 3.7210 9.8815 1.0000
50.0940 4.0227 9.8861 1.0000
50.0940 4.1737 9.8885 1.0000
50.0940 4.3248 9.8911 1.0000
50.0940 4.4759 9.8937 1.0000
50.0940 4.6271 9.8964 1.0000
50.0940 4.9298 9.9020 1.0000
50.0940 5.8400 9.9212 1.0000
50.0940 5.9921 9.9247 1.0000
50.0940 6.1443 9.9283 1.0000
50.0940 6.2966 9.9320 1.0000
50.0940 6.4490 9.9357 1.0000
50.0940 6.7541 9.9436 1.0000
50.0940 6.9069 9.9476 1.0000
50.0940 7.0598 9.9518 1.0000
50.0940 7.2128 9.9560 1.0000
50.0940 7.5192 9.9648 1.0000
50.0941 -11.8111 9.2246 1.0000
50.0941 -11.3371 9.2055 1.0000
50.0941 -11.0223 9.1932 1.0000
50.0940 -10.8652 9.1872 1.0000
50.0940 -10.7082 9.1812 1.0000
50.0940 -10.0825 9.1584 1.0000
50.0941 -9.1495 9.1269 1.0000
50.0940 -8.9945 9.1220 1.0000
50.0940 -8.6853 9.1123 1.0000
50.0940 -8.5309 9.1077 1.0000
50.0940 -8.3766 9.1031 1.0000
50.0940 -8.2225 9.0985 1.0000
50.0940 -8.0686 9.0941 1.0000
50.0940 -7.9148 9.0898 1.0000
50.0940 -7.7612 9.0855 1.0000
50.0941 -7.6077 9.0813 1.0000
50.0939 -7.3011 9.0732 1.0000
50.0939 -6.8422 9.0617 1.0000
50.0939 -6.6895 9.0581 1.0000
50.0939 -6.5369 9.0545 1.0000
50.0939 -5.9277 9.0410 1.0000
50.0939 -5.7757 9.0379 1.0000
50.0939 -5.6238 9.0348 1.0000
50.0939 -5.4720 9.0318 1.0000
50.0939 -5.0171 9.0233 1.0000
50.0939 -4.7143 9.0181 1.0000
50.0939 -4.5631 9.0156 1.0000
50.0939 -4.4119 9.0131 1.0000
50.0939 -4.2608 9.0108 1.0000
50.0939 -3.8080 9.0043 1.0000
50.0939 -3.6572 9.0023 1.0000
50.0939 -3.5064 9.0004 1.0000
50.0939 -3.3557 8.9985 1.0000
50.0939 -3.2052 8.9967 1.0000
50.0939 -2.9041 8.9935 1.0000
50.0939 -2.6032 8.9905 1.0000
50.0940 -1.8518 8.9845 1.0000
50.0940 -1.2514 8.9812 1.0000
50.0940 -1.1013 8.9806 1.0000
50.0940 -0.8012 8.9795 1.0000
50.0940 -0.6512 8.9791 1.0000
50.0940 -0.5012 8.9788 1.0000
50.0940 -0.3513 8.9786 1.0000
50.0940 -0.0513 8.9784 1.0000
50.0940 0.0987 8.9784 1.0000
50.0940 0.2486 8.9785 1.0000
50.0940 0.5486 8.9789 1.0000
50.0940 1.2987 8.9814 1.0000
50.0940 1.5989 8.9830 1.0000
50.0940 1.8993 8.9848 1.0000
50.0940 2.1997 8.9870 1.0000
50.0940 2.6507 8.9910 1.0000
50.0940 3.1021 8.9956 1.0000
50.0940 3.2527 8.9973 1.0000
50.0940 3.5540 9.0010 1.0000
50.0940 3.8556 9.0049 1.0000
50.0940 4.0064 9.0071 1.0000
50.0940 4.3085 9.0115 1.0000
50.0940 4.4596 9.0139 1.0000
50.0940 4.7621 9.0189 1.0000
50.0940 5.0649 9.0242 1.0000
50.0940 5.5199 9.0327 1.0000
50.0940 5.6717 9.0358 1.0000
50.0940 5.8237 9.0389 1.0000
50.0940 6.1279 9.0453 1.0000
50.0940 6.2802 9.0487 1.0000
50.0940 6.7377 9.0592 1.0000
50.0940 7.1963 9.0706 1.0000
50.0940 7.5027 9.0785 1.0000
50.0940 7.6561 9.0826 1.0000
50.0940 7.8096 9.0868 1.0000
50.0940 8.1171 9.0955 1.0000
50.0940 8.2712 9.1000 1.0000
50.0940 8.4253 9.1045 1.0000
50.0940 8.7341 9.1138 1.0000
50.0940 9.0434 9.1235 1.0000
50.0940 9.1984 9.1285 1.0000
50.0940 9.6643 9.1440 1.0000
50.0940 9.8199 9.1493 1.0000
50.0940 10.4443 9.1715 1.0000
50.0940 10.6009 9.1772 1.0000
50.0940 10.7577 9.1831 1.0000
50.0940 10.9147 9.1890 1.0000
50.0940 11.0719 9.1951 1.0000
50.0940 11.3870 9.2074 1.0000
50.0940 11.5448 9.2137 1.0000
50.0940 11.7028 9.2201 1.0000
50.0940 11.8611 9.2266 1.0000
50.0940 12.0196 9.2332 1.0000
50.0940 12.8156 9.2676 1.0000
50.0940 12.9755 9.2747 1.0000
50.0940 13.1356 9.2819 1.0000
50.0941 -13.3887 9.2935 1.0000
50.0941 -13.2281 9.2862 1.0000
50.0941 -13.0678 9.2789 1.0000
50.0941 -12.9077 9.2717 1.0000
50.0941 -11.9525 9.2304 1.0000
50.0941 -11.4779 9.2111 1.0000
50.0941 -11.3202 9.2048 1.0000
50.0940 -11.1627 9.1986 1.0000
50.0940 -9.9098 9.1524 1.0000
50.0940 -9.7540 9.1470 1.0000
50.0940 -9.4430 9.1365 1.0000
50.0940 -9.2878 9.1314 1.0000
50.0940 -9.1328 9.1264 1.0000
50.0940 -8.2059 9.0981 1.0000
50.0940 -8.0520 9.0936 1.0000
50.0940 -7.7446 9.0851 1.0000
50.0940 -7.5911 9.0809 1.0000
50.0939 -7.4379 9.0768 1.0000
50.0940 -7.2846 9.0728 1.0000
50.0939 -7.1315 9.0689 1.0000
50.0939 -6.9786 9.0651 1.0000
50.0939 -6.6731 9.0577 1.0000
50.0939 -6.5205 9.0541 1.0000
50.0939 -6.3680 9.0506 1.0000
50.0939 -6.0635 9.0439 1.0000
50.0939 -5.9114 9.0407 1.0000
50.0940 -5.6075 9.0345 1.0000
50.0939 -5.3039 9.0286 1.0000
50.0940 -5.0009 9.0230 1.0000
50.0939 -4.8494 9.0204 1.0000
50.0939 -4.6981 9.0178 1.0000
50.0939 -4.5468 9.0153 1.0000
50.0939 -4.3957 9.0129 1.0000
50.0939 -4.2446 9.0106 1.0000
50.0939 -4.0936 9.0083 1.0000
50.0939 -3.9426 9.0061 1.0000
50.0940 -3.6410 9.0021 1.0000
50.0939 -3.1889 8.9966 1.0000
50.0939 -2.8879 8.9933 1.0000
50.0940 -2.7374 8.9918 1.0000
50.0940 -2.5870 8.9904 1.0000
50.0940 -2.4367 8.9890 1.0000
50.0940 -2.1361 8.9865 1.0000
50.0940 -1.6855 8.9835 1.0000
50.0940 -1.0851 8.9805 1.0000
50.0940 -0.6351 8.9791 1.0000
50.0940 -0.4851 8.9788 1.0000
50.0940 -0.1851 8.9784 1.0000
50.0940 -0.0352 8.9784 1.0000
50.0940 0.2648 8.9785 1.0000
50.0940 0.4147 8.9787 1.0000
50.0940 0.5647 8.9790 1.0000
50.0940 0.8648 8.9797 1.0000
50.0940 1.0148 8.9802 1.0000
50.0940 1.1648 8.9808 1.0000
50.0940 1.6151 8.9831 1.0000
50.0940 1.9154 8.9850 1.0000
50.0940 2.2159 8.9872 1.0000
50.0940 2.3662 8.9884 1.0000
50.0940 2.8173 8.9926 1.0000
50.0940 2.9678 8.9941 1.0000
50.0940 3.1183 8.9958 1.0000
50.0940 3.2689 8.9975 1.0000
50.0940 3.5702 9.0012 1.0000
50.0940 3.7210 9.0031 1.0000
50.0940 3.8718 9.0052 1.0000
50.0940 4.0227 9.0073 1.0000
50.0940 4.1737 9.0095 1.0000
50.0940 4.3247 9.0118 1.0000
50.0940 4.7784 9.0191 1.0000
50.0940 5.0812 9.0245 1.0000
50.0940 5.3845 9.0301 1.0000
50.0940 5.6881 9.0361 1.0000
50.0940 5.8400 9.0392 1.0000
50.0940 6.1443 9.0457 1.0000
50.0940 6.2965 9.0490 1.0000
50.0940 6.6014 9.0560 1.0000
50.0940 6.9068 9.0633 1.0000
50.0940 7.0598 9.0671 1.0000
50.0940 7.2128 9.0710 1.0000
50.0940 7.6726 9.0831 1.0000
50.0940 -11.8111 8.3300 1.0000
50.0940 -11.1796 8.3071 1.0000
50.0940 -11.0223 8.3016 1.0000
50.0940 -10.8651 8.2962 1.0000
50.0940 -10.7082 8.2908 1.0000
50.0940 -10.3950 8.2804 1.0000
50.0940 -10.2386 8.2753 1.0000
50.0940 -10.0825 8.2703 1.0000
50.0940 -9.9265 8.2653 1.0000
50.0940 -9.4598 8.2510 1.0000
50.0940 -9.1495 8.2418 1.0000
50.0940 -8.9945 8.2373 1.0000
50.0940 -8.6853 8.2286 1.0000
50.0940 -8.5309 8.2244 1.0000
50.0940 -8.0686 8.2122 1.0000
50.0940 -7.7612 8.2044 1.0000
50.0940 -7.6076 8.2006 1.0000
50.0939 -7.4543 8.1969 1.0000
50.0939 -6.8421 8.1829 1.0000
50.0939 -6.3844 8.1732 1.0000
50.0939 -6.0798 8.1672 1.0000
50.0939 -5.3203 8.1533 1.0000
50.0939 -5.0171 8.1482 1.0000
50.0939 -3.5064 8.1275 1.0000
50.0939 -3.2051 8.1242 1.0000
50.0939 -2.9040 8.1213 1.0000
50.0939 -2.6032 8.1186 1.0000
50.0939 -2.4529 8.1174 1.0000
50.0939 -2.3025 8.1162 1.0000
50.0939 -1.8518 8.1132 1.0000
50.0939 -1.7016 8.1123 1.0000
50.0939 -1.5515 8.1115 1.0000
50.0939 -1.4014 8.1108 1.0000
50.0939 -1.2513 8.1102 1.0000
50.0939 -1.1013 8.1096 1.0000
50.0939 -0.9512 8.1091 1.0000
50.0939 -0.5012 8.1081 1.0000
50.0939 -0.3512 8.1079 1.0000
50.0940 -0.2013 8.1077 1.0000
50.0939 -0.0513 8.1077 1.0000
50.0939 0.0987 8.1077 1.0000
50.0939 0.3986 8.1079 1.0000
50.0939 1.1487 8.1098 1.0000
50.0940 1.5989 8.1118 1.0000
50.0939 2.1997 8.1155 1.0000
50.0939 2.3500 8.1166 1.0000
50.0940 2.5003 8.1178 1.0000
50.0940 2.6506 8.1190 1.0000
50.0939 2.8011 8.1203 1.0000
50.0940 2.9515 8.1217 1.0000
50.0939 3.1021 8.1232 1.0000
50.0939 3.4033 8.1263 1.0000
50.0939 3.7048 8.1298 1.0000
50.0939 3.8555 8.1316 1.0000
50.0940 4.6108 8.1419 1.0000
50.0940 4.7620 8.1442 1.0000
50.0939 4.9134 8.1466 1.0000
50.0940 5.0649 8.1490 1.0000
50.0940 5.2165 8.1515 1.0000
50.0939 5.5199 8.1567 1.0000
50.0939 5.6717 8.1595 1.0000
50.0940 5.8237 8.1623 1.0000
50.0940 5.9757 8.1651 1.0000
50.0939 6.1279 8.1681 1.0000
50.0940 6.2802 8.1711 1.0000
50.0939 6.5851 8.1774 1.0000
50.0940 7.0433 8.1874 1.0000
50.0940 7.3494 8.1944 1.0000
50.0940 7.5027 8.1981 1.0000
50.0939 7.6561 8.2018 1.0000
50.0939 7.8097 8.2056 1.0000
50.0940 8.2712 8.2174 1.0000
50.0940 8.5796 8.2257 1.0000
50.0940 9.3535 8.2478 1.0000
50.0939 9.5088 8.2524 1.0000
50.0940 10.2880 8.2769 1.0000
50.0940 10.4443 8.2820 1.0000
50.0940 10.7577 8.2925 1.0000
50.0940 10.9147 8.2979 1.0000
50.0939 11.2293 8.3089 1.0000
50.0939 11.3870 8.3145 1.0000
50.0939 11.5448 8.3202 1.0000
50.0939 12.1783 8.3438 1.0000
50.0939 12.3373 8.3499 1.0000
50.0939 12.8155 8.3688 1.0000
50.0939 12.9755 8.3752 1.0000
50.0940 13.1357 8.3818 1.0000
50.0940 -13.2280 8.3856 1.0000
50.0940 -13.0678 8.3790 1.0000
50.0940 -12.9077 8.3725 1.0000
50.0940 -12.7479 8.3661 1.0000
50.0940 -12.4290 8.3535 1.0000
50.0940 -11.7940 8.3293 1.0000
50.0940 -11.6359 8.3235 1.0000
50.0940 -11.4779 8.3178 1.0000
50.0940 -11.1627 8.3065 1.0000
50.0940 -11.0054 8.3010 1.0000
50.0940 -10.8482 8.2956 1.0000
50.0940 -10.6914 8.2903 1.0000
50.0940 -10.5346 8.2850 1.0000
50.0940 -10.3781 8.2798 1.0000
50.0940 -10.2218 8.2747 1.0000
50.0940 -10.0657 8.2697 1.0000
50.0940 -9.9097 8.2648 1.0000
50.0940 -9.7540 8.2599 1.0000
50.0940 -9.5984 8.2551 1.0000
50.0940 -9.4430 8.2505 1.0000
50.0940 -8.8232 8.2325 1.0000
50.0940 -8.6687 8.2282 1.0000
50.0940 -8.5143 8.2239 1.0000
50.0940 -8.3600 8.2198 1.0000
50.0940 -8.0520 8.2117 1.0000
50.0940 -7.5911 8.2002 1.0000
50.0939 -7.4378 8.1965 1.0000
50.0939 -7.1315 8.1894 1.0000
50.0939 -6.9786 8.1859 1.0000
50.0939 -6.8257 8.1826 1.0000
50.0939 -6.6730 8.1793 1.0000
50.0939 -5.9113 8.1639 1.0000
50.0939 -5.6074 8.1583 1.0000
50.0939 -5.4557 8.1556 1.0000
50.0939 -5.3039 8.1530 1.0000
50.0939 -5.1523 8.1504 1.0000
50.0939 -4.2445 8.1367 1.0000
50.0939 -4.0935 8.1347 1.0000
50.0939 -3.9425 8.1327 1.0000
50.0939 -3.7917 8.1308 1.0000
50.0939 -3.3395 8.1257 1.0000
50.0939 -3.1889 8.1241 1.0000
50.0939 -3.0383 8.1226 1.0000
50.0939 -2.5870 8.1185 1.0000
50.0939 -2.4366 8.1172 1.0000
50.0939 -2.2863 8.1161 1.0000
50.0939 -2.1361 8.1150 1.0000
50.0939 -1.6855 8.1122 1.0000
50.0939 -0.6351 8.1083 1.0000
50.0939 -0.4851 8.1080 1.0000
50.0939 -0.0352 8.1077 1.0000
50.0939 0.1148 8.1077 1.0000
50.0939 0.2648 8.1078 1.0000
50.0939 0.4148 8.1079 1.0000
50.0939 1.0148 8.1093 1.0000
50.0939 1.6151 8.1119 1.0000
50.0939 1.9154 8.1136 1.0000
50.0939 2.0656 8.1146 1.0000
50.0939 2.2159 8.1156 1.0000
50.0939 2.3662 8.1167 1.0000
50.0939 2.9677 8.1219 1.0000
50.0939 3.1183 8.1234 1.0000
50.0939 3.2689 8.1249 1.0000
50.0940 3.4195 8.1265 1.0000
50.0939 3.5702 8.1282 1.0000
50.0939 4.4759 8.1400 1.0000
50.0940 4.6271 8.1422 1.0000
50.0940 4.7784 8.1445 1.0000
50.0940 4.9297 8.1468 1.0000
50.0940 5.3845 8.1544 1.0000
50.0940 5.5362 8.1570 1.0000
50.0940 5.8400 8.1626 1.0000
50.0939 6.2965 8.1715 1.0000
50.0940 6.4489 8.1746 1.0000
50.0939 7.0598 8.1878 1.0000
50.0939 7.6727 8.2022 1.0000
50.0940 -11.4949 7.4299 1.0000
50.0940 -11.1796 7.4198 1.0000
50.0940 -11.0223 7.4149 1.0000
50.0940 -10.2387 7.3914 1.0000
50.0940 -9.9266 7.3825 1.0000
50.0940 -9.3045 7.3655 1.0000
50.0940 -9.1495 7.3615 1.0000
50.0940 -8.9946 7.3575 1.0000
50.0940 -8.6853 7.3497 1.0000
50.0940 -8.3766 7.3422 1.0000
50.0940 -8.2226 7.3386 1.0000
50.0940 -8.0686 7.3350 1.0000
50.0940 -7.9148 7.3315 1.0000
50.0939 -7.4543 7.3214 1.0000
50.0939 -7.1480 7.3150 1.0000
50.0939 -6.9950 7.3119 1.0000
50.0939 -6.8422 7.3089 1.0000
50.0939 -6.5369 7.3031 1.0000
50.0939 -6.3845 7.3002 1.0000
50.0939 -5.9277 7.2922 1.0000
50.0939 -5.6237 7.2872 1.0000
50.0939 -4.8657 7.2758 1.0000
50.0939 -4.7143 7.2737 1.0000
50.0939 -4.5631 7.2717 1.0000
50.0939 -4.4119 7.2697 1.0000
50.0939 -4.2608 7.2678 1.0000
50.0939 -3.9588 7.2643 1.0000
50.0939 -3.5064 7.2594 1.0000
50.0939 -3.2052 7.2565 1.0000
50.0939 -2.9041 7.2538 1.0000
50.0939 -2.7536 7.2526 1.0000
50.0939 -2.4529 7.2503 1.0000
50.0940 -2.1523 7.2484 1.0000
50.0940 -1.7017 7.2459 1.0000
50.0940 -1.5516 7.2451 1.0000
50.0940 -1.4014 7.2445 1.0000
50.0940 -1.2514 7.2439 1.0000
50.0940 -0.9513 7.2430 1.0000
50.0940 -0.8013 7.2426 1.0000
50.0940 -0.6513 7.2423 1.0000
50.0940 -0.5013 7.2420 1.0000
50.0940 -0.2013 7.2417 1.0000
50.0940 0.0986 7.2417 1.0000
50.0940 0.2486 7.2418 1.0000
50.0940 0.5486 7.2421 1.0000
50.0940 0.8486 7.2427 1.0000
50.0940 0.9986 7.2431 1.0000
50.0940 1.1486 7.2436 1.0000
50.0940 1.2987 7.2441 1.0000
50.0940 1.5989 7.2454 1.0000
50.0940 1.7490 7.2461 1.0000
50.0940 1.8993 7.2469 1.0000
50.0940 2.0494 7.2477 1.0000
50.0940 2.1996 7.2487 1.0000
50.0940 2.6507 7.2518 1.0000
50.0940 2.9515 7.2542 1.0000
50.0940 3.2526 7.2569 1.0000
50.0940 3.4032 7.2584 1.0000
50.0940 3.5539 7.2599 1.0000
50.0940 4.0064 7.2648 1.0000
50.0940 4.1574 7.2666 1.0000
50.0940 4.3085 7.2684 1.0000
50.0940 4.4596 7.2703 1.0000
50.0940 4.6108 7.2723 1.0000
50.0940 4.7621 7.2743 1.0000
50.0939 5.0649 7.2786 1.0000
50.0939 5.2164 7.2808 1.0000
50.0940 5.3681 7.2831 1.0000
50.0940 5.8236 7.2904 1.0000
50.0939 5.9757 7.2930 1.0000
50.0940 6.1279 7.2957 1.0000
50.0940 6.2801 7.2984 1.0000
50.0940 6.4325 7.3011 1.0000
50.0940 6.5850 7.3040 1.0000
50.0939 6.7377 7.3069 1.0000
50.0940 6.8904 7.3099 1.0000
50.0939 7.0433 7.3129 1.0000
50.0940 7.1963 7.3160 1.0000
50.0940 7.6561 7.3258 1.0000
50.0940 8.1171 7.3361 1.0000
50.0939 8.2711 7.3397 1.0000
50.0939 8.4253 7.3434 1.0000
50.0940 8.5796 7.3471 1.0000
50.0940 8.8886 7.3548 1.0000
50.0940 9.0434 7.3587 1.0000
50.0940 9.1984 7.3628 1.0000
50.0940 9.8199 7.3795 1.0000
50.0940 9.9757 7.3839 1.0000
50.0940 10.2879 7.3928 1.0000
50.0940 10.4443 7.3974 1.0000
50.0940 10.7577 7.4068 1.0000
50.0940 10.9147 7.4116 1.0000
50.0940 11.0719 7.4165 1.0000
50.0940 11.3869 7.4264 1.0000
50.0939 11.8611 7.4419 1.0000
50.0940 12.0196 7.4472 1.0000
50.0940 12.3372 7.4581 1.0000
50.0940 12.8155 7.4749 1.0000
50.0940 12.9754 7.4807 1.0000
50.0940 -13.3887 7.4959 1.0000
50.0940 -13.2281 7.4899 1.0000
50.0940 -12.7479 7.4725 1.0000
50.0940 -11.7941 7.4397 1.0000
50.0940 -11.6359 7.4345 1.0000
50.0940 -11.3202 7.4243 1.0000
50.0940 -11.0054 7.4144 1.0000
50.0940 -10.5347 7.4001 1.0000
50.0940 -9.9098 7.3820 1.0000
50.0940 -9.5984 7.3734 1.0000
50.0940 -9.4430 7.3692 1.0000
50.0940 -9.2879 7.3651 1.0000
50.0940 -9.1328 7.3610 1.0000
50.0940 -8.8232 7.3532 1.0000
50.0940 -8.5143 7.3455 1.0000
50.0940 -8.3601 7.3418 1.0000
50.0940 -8.2060 7.3382 1.0000
50.0940 -8.0521 7.3346 1.0000
50.0940 -7.8983 7.3311 1.0000
50.0940 -7.7446 7.3277 1.0000
50.0939 -7.4378 7.3211 1.0000
50.0939 -7.2846 7.3178 1.0000
50.0939 -6.6730 7.3056 1.0000
50.0939 -6.5205 7.3028 1.0000
50.0939 -6.0634 7.2945 1.0000
50.0939 -5.9113 7.2919 1.0000
50.0939 -5.7593 7.2894 1.0000
50.0939 -5.6075 7.2869 1.0000
50.0939 -5.3039 7.2822 1.0000
50.0939 -5.0008 7.2777 1.0000
50.0939 -4.6980 7.2734 1.0000
50.0939 -4.3956 7.2695 1.0000
50.0939 -4.2446 7.2676 1.0000
50.0939 -3.7917 7.2624 1.0000
50.0939 -3.1889 7.2563 1.0000
50.0939 -3.0384 7.2550 1.0000
50.0939 -2.8879 7.2537 1.0000
50.0939 -2.7374 7.2525 1.0000
50.0939 -2.5870 7.2513 1.0000
50.0939 -2.2864 7.2492 1.0000
50.0939 -2.1361 7.2483 1.0000
50.0940 -1.9859 7.2474 1.0000
50.0940 -1.8357 7.2465 1.0000
50.0940 -1.6855 7.2458 1.0000
50.0940 -1.3853 7.2444 1.0000
50.0940 -0.7851 7.2426 1.0000
50.0940 -0.6351 7.2423 1.0000
50.0940 -0.4851 7.2420 1.0000
50.0940 -0.1852 7.2417 1.0000
50.0940 0.1148 7.2417 1.0000
50.0940 0.4147 7.2419 1.0000
50.0940 0.5647 7.2421 1.0000
50.0940 0.7147 7.2424 1.0000
50.0940 0.8647 7.2428 1.0000
50.0940 1.0148 7.2432 1.0000
50.0940 1.1648 7.2436 1.0000
50.0940 1.7652 7.2462 1.0000
50.0940 2.0656 7.2478 1.0000
50.0940 2.5164 7.2508 1.0000
50.0940 2.6668 7.2519 1.0000
50.0940 2.9677 7.2544 1.0000
50.0940 3.1182 7.2557 1.0000
50.0940 3.2688 7.2571 1.0000
50.0940 3.4195 7.2585 1.0000
50.0940 3.7210 7.2616 1.0000
50.0940 4.0227 7.2650 1.0000
50.0940 4.3247 7.2686 1.0000
50.0940 4.4759 7.2705 1.0000
50.0940 4.6271 7.2725 1.0000
50.0940 4.9297 7.2767 1.0000
50.0940 5.2328 7.2811 1.0000
50.0940 5.3844 7.2834 1.0000
50.0939 5.5362 7.2858 1.0000
50.0940 5.6880 7.2882 1.0000
50.0939 5.8400 7.2907 1.0000
50.0939 6.1443 7.2959 1.0000
50.0939 7.2128 7.3164 1.0000
50.0940 -11.4949 6.5457 1.0000
50.0940 -11.1796 6.5369 1.0000
50.0940 -11.0223 6.5325 1.0000
50.0940 -10.8651 6.5283 1.0000
50.0940 -10.7082 6.5241 1.0000
50.0940 -10.5515 6.5199 1.0000
50.0940 -10.3950 6.5158 1.0000
50.0940 -10.2386 6.5118 1.0000
50.0940 -10.0825 6.5079 1.0000
50.0940 -9.9266 6.5040 1.0000
50.0940 -9.4598 6.4927 1.0000
50.0940 -9.3046 6.4890 1.0000
50.0940 -9.1495 6.4855 1.0000
50.0940 -8.9946 6.4820 1.0000
50.0940 -8.6853 6.4751 1.0000
50.0940 -8.5309 6.4718 1.0000
50.0940 -8.2226 6.4653 1.0000
50.0940 -8.0686 6.4621 1.0000
50.0940 -7.7612 6.4560 1.0000
50.0939 -7.4543 6.4502 1.0000
50.0939 -7.3011 6.4473 1.0000
50.0939 -7.1480 6.4445 1.0000
50.0939 -6.9950 6.4418 1.0000
50.0939 -6.5369 6.4340 1.0000
50.0939 -6.3844 6.4315 1.0000
50.0939 -6.0798 6.4267 1.0000
50.0939 -5.6238 6.4200 1.0000
50.0939 -5.4720 6.4179 1.0000
50.0939 -5.1686 6.4138 1.0000
50.0939 -4.7143 6.4081 1.0000
50.0939 -4.5631 6.4063 1.0000
50.0939 -4.4119 6.4046 1.0000
50.0939 -4.2608 6.4030 1.0000
50.0939 -4.1098 6.4013 1.0000
50.0939 -3.8080 6.3983 1.0000
50.0939 -3.5064 6.3955 1.0000
50.0939 -3.3557 6.3942 1.0000
50.0939 -2.9041 6.3906 1.0000
50.0939 -2.7536 6.3895 1.0000
50.0939 -2.4529 6.3876 1.0000
50.0939 -2.1523 6.3858 1.0000
50.0939 -2.0020 6.3850 1.0000
50.0939 -1.8518 6.3843 1.0000
50.0939 -1.7017 6.3836 1.0000
50.0939 -1.5515 6.3830 1.0000
50.0939 -1.4014 6.3824 1.0000
50.0939 -1.1013 6.3815 1.0000
50.0939 -0.8012 6.3807 1.0000
50.0939 -0.6513 6.3805 1.0000
50.0939 -0.3512 6.3801 1.0000
50.0939 -0.2013 6.3800 1.0000
50.0939 -0.0513 6.3799 1.0000
50.0939 0.0987 6.3799 1.0000
50.0939 0.2486 6.3800 1.0000
50.0939 0.8486 6.3808 1.0000
50.0939 1.2987 6.3821 1.0000
50.0939 1.5989 6.3832 1.0000
50.0939 1.8993 6.3845 1.0000
50.0939 2.0495 6.3853 1.0000
50.0939 2.1997 6.3861 1.0000
50.0939 2.3500 6.3869 1.0000
50.0939 2.5003 6.3879 1.0000
50.0939 3.2527 6.3933 1.0000
50.0939 3.4033 6.3946 1.0000
50.0939 3.5540 6.3960 1.0000
50.0939 3.7047 6.3973 1.0000
50.0939 3.8556 6.3988 1.0000
50.0939 4.0065 6.4003 1.0000
50.0939 4.3085 6.4035 1.0000
50.0939 4.4596 6.4051 1.0000
50.0939 5.2165 6.4144 1.0000
50.0939 5.3682 6.4164 1.0000
50.0939 5.5199 6.4185 1.0000
50.0939 5.8237 6.4229 1.0000
50.0939 5.9757 6.4251 1.0000
50.0939 6.7377 6.4374 1.0000
50.0939 7.0433 6.4427 1.0000
50.0939 7.1963 6.4454 1.0000
50.0939 7.3495 6.4482 1.0000
50.0939 7.5027 6.4511 1.0000
50.0939 7.8096 6.4570 1.0000
50.0939 7.9633 6.4600 1.0000
50.0939 8.1172 6.4631 1.0000
50.0939 8.4254 6.4695 1.0000
50.0939 8.5796 6.4728 1.0000
50.0939 8.7340 6.4762 1.0000
50.0939 8.8886 6.4796 1.0000
50.0939 9.0435 6.4830 1.0000
50.0939 9.1984 6.4866 1.0000
50.0939 9.3535 6.4902 1.0000
50.0939 9.6643 6.4976 1.0000
50.0939 9.8199 6.5013 1.0000
50.0939 9.9757 6.5052 1.0000
50.0939 10.4444 6.5171 1.0000
50.0939 10.6010 6.5212 1.0000
50.0939 11.0719 6.5339 1.0000
50.0939 11.3869 6.5427 1.0000
50.0939 11.5448 6.5472 1.0000
50.0939 11.7028 6.5517 1.0000
50.0939 12.4964 6.5754 1.0000
50.0939 12.6559 6.5804 1.0000
50.0939 12.8155 6.5854 1.0000
50.0939 13.2960 6.6008 1.0000
50.0940 -13.2281 6.5986 1.0000
50.0940 -12.7479 6.5833 1.0000
50.0940 -12.5884 6.5783 1.0000
50.0940 -12.4291 6.5734 1.0000
50.0940 -12.1111 6.5637 1.0000
50.0940 -11.9525 6.5590 1.0000
50.0940 -11.7941 6.5544 1.0000
50.0940 -11.6359 6.5498 1.0000
50.0940 -11.4779 6.5452 1.0000
50.0940 -11.3202 6.5408 1.0000
50.0940 -11.1627 6.5364 1.0000
50.0940 -11.0054 6.5321 1.0000
50.0940 -10.6914 6.5236 1.0000
50.0940 -10.5346 6.5195 1.0000
50.0940 -9.9098 6.5036 1.0000
50.0940 -9.4430 6.4923 1.0000
50.0940 -9.2879 6.4886 1.0000
50.0940 -9.1328 6.4851 1.0000
50.0940 -8.9779 6.4816 1.0000
50.0940 -8.8232 6.4781 1.0000
50.0940 -8.6687 6.4747 1.0000
50.0940 -8.5143 6.4714 1.0000
50.0940 -8.3601 6.4681 1.0000
50.0940 -8.0521 6.4618 1.0000
50.0940 -7.7446 6.4557 1.0000
50.0940 -7.5911 6.4528 1.0000
50.0939 -7.4378 6.4498 1.0000
50.0939 -7.1315 6.4442 1.0000
50.0939 -6.8257 6.4389 1.0000
50.0939 -6.5205 6.4337 1.0000
50.0939 -6.3680 6.4313 1.0000
50.0939 -6.0634 6.4265 1.0000
50.0939 -5.6075 6.4198 1.0000
50.0939 -5.4556 6.4176 1.0000
50.0939 -5.1523 6.4136 1.0000
50.0939 -4.8494 6.4097 1.0000
50.0939 -4.3957 6.4044 1.0000
50.0939 -4.2446 6.4028 1.0000
50.0939 -3.7917 6.3982 1.0000
50.0939 -3.6409 6.3967 1.0000
50.0939 -3.3395 6.3941 1.0000
50.0939 -3.1889 6.3928 1.0000
50.0939 -2.2864 6.3866 1.0000
50.0939 -2.1361 6.3857 1.0000
50.0939 -1.9858 6.3849 1.0000
50.0939 -1.8356 6.3842 1.0000
50.0939 -1.6855 6.3835 1.0000
50.0939 -1.3853 6.3824 1.0000
50.0939 -0.7851 6.3807 1.0000
50.0939 -0.4851 6.3802 1.0000
50.0939 -0.0352 6.3799 1.0000
50.0939 0.1148 6.3799 1.0000
50.0939 0.5648 6.3803 1.0000
50.0939 1.0148 6.3812 1.0000
50.0939 1.1648 6.3816 1.0000
50.0939 1.6151 6.3832 1.0000
50.0939 1.7652 6.3839 1.0000
50.0939 1.9154 6.3846 1.0000
50.0939 2.3662 6.3870 1.0000
50.0939 2.5165 6.3880 1.0000
50.0939 2.8173 6.3900 1.0000
50.0939 3.2689 6.3935 1.0000
50.0939 3.4195 6.3948 1.0000
50.0939 4.0227 6.4004 1.0000
50.0939 4.7784 6.4089 1.0000
50.0939 4.9298 6.4107 1.0000
50.0939 5.0812 6.4126 1.0000
50.0939 5.2328 6.4146 1.0000
50.0939 5.3845 6.4167 1.0000
50.0939 6.4489 6.4326 1.0000
50.0939 6.6015 6.4351 1.0000
50.0939 7.0597 6.4430 1.0000
50.0939 7.3659 6.4485 1.0000
50.0939 7.5192 6.4514 1.0000
50.0940 -11.8111 5.6733 1.0000
50.0939 -11.6529 5.6693 1.0000
50.0940 -11.4950 5.6654 1.0000
50.0939 -11.3371 5.6615 1.0000
50.0940 -11.1796 5.6577 1.0000
50.0940 -10.7082 5.6466 1.0000
50.0940 -9.9265 5.6292 1.0000
50.0939 -9.6152 5.6227 1.0000
50.0940 -9.4598 5.6195 1.0000
50.0940 -9.3045 5.6163 1.0000
50.0940 -9.1495 5.6132 1.0000
50.0940 -8.8399 5.6072 1.0000
50.0939 -8.6853 5.6042 1.0000
50.0939 -8.5309 5.6014 1.0000
50.0940 -8.0686 5.5930 1.0000
50.0939 -7.7611 5.5877 1.0000
50.0939 -7.6076 5.5852 1.0000
50.0939 -6.6895 5.5709 1.0000
50.0939 -6.3844 5.5665 1.0000
50.0939 -6.2321 5.5644 1.0000
50.0939 -5.9277 5.5604 1.0000
50.0939 -5.6238 5.5565 1.0000
50.0939 -5.3203 5.5529 1.0000
50.0939 -4.5631 5.5447 1.0000
50.0939 -4.4119 5.5432 1.0000
50.0939 -4.2608 5.5418 1.0000
50.0939 -3.9588 5.5391 1.0000
50.0939 -3.8079 5.5378 1.0000
50.0939 -3.6571 5.5365 1.0000
50.0939 -3.0545 5.5321 1.0000
50.0939 -2.9040 5.5311 1.0000
50.0939 -2.7536 5.5302 1.0000
50.0939 -2.6032 5.5293 1.0000
50.0939 -2.0020 5.5263 1.0000
50.0939 -1.5516 5.5245 1.0000
50.0939 -1.4014 5.5240 1.0000
50.0939 -1.2513 5.5236 1.0000
50.0939 -0.8012 5.5226 1.0000
50.0939 -0.2013 5.5219 1.0000
50.0939 -0.0513 5.5219 1.0000
50.0939 0.0987 5.5219 1.0000
50.0939 0.2486 5.5219 1.0000
50.0939 0.3986 5.5220 1.0000
50.0939 0.6986 5.5224 1.0000
50.0939 0.8486 5.5226 1.0000
50.0939 0.9986 5.5229 1.0000
50.0939 1.1487 5.5233 1.0000
50.0939 1.4488 5.5242 1.0000
50.0939 1.5989 5.5247 1.0000
50.0939 1.7491 5.5252 1.0000
50.0939 2.3500 5.5279 1.0000
50.0939 2.9516 5.5314 1.0000
50.0939 3.1020 5.5324 1.0000
50.0939 3.4033 5.5346 1.0000
50.0939 3.5540 5.5357 1.0000
50.0939 3.7048 5.5369 1.0000
50.0939 3.8556 5.5382 1.0000
50.0939 4.0065 5.5395 1.0000
50.0939 4.4596 5.5437 1.0000
50.0939 4.7621 5.5467 1.0000
50.0939 5.2165 5.5517 1.0000
50.0939 5.3681 5.5535 1.0000
50.0939 5.5198 5.5553 1.0000
50.0939 6.1279 5.5630 1.0000
50.0939 6.2802 5.5651 1.0000
50.0939 6.4325 5.5672 1.0000
50.0939 6.7377 5.5716 1.0000
50.0939 6.8904 5.5738 1.0000
50.0939 7.0433 5.5762 1.0000
50.0939 7.1963 5.5785 1.0000
50.0939 7.6561 5.5860 1.0000
50.0939 7.8096 5.5886 1.0000
50.0939 7.9634 5.5912 1.0000
50.0939 8.4253 5.5994 1.0000
50.0939 8.5796 5.6023 1.0000
50.0939 8.7341 5.6052 1.0000
50.0939 8.8887 5.6081 1.0000
50.0939 9.1984 5.6142 1.0000
50.0939 9.3535 5.6173 1.0000
50.0939 9.5087 5.6205 1.0000
50.0939 9.8199 5.6269 1.0000
50.0939 9.9757 5.6303 1.0000
50.0939 10.4443 5.6406 1.0000
50.0939 10.7577 5.6477 1.0000
50.0939 11.0719 5.6551 1.0000
50.0939 11.8611 5.6745 1.0000
50.0939 12.0196 5.6786 1.0000
50.0939 12.3373 5.6868 1.0000
50.0939 12.4964 5.6911 1.0000
50.0939 12.6559 5.6954 1.0000
50.0939 13.2960 5.7131 1.0000
50.0939 -12.7479 5.6979 1.0000
50.0939 -12.4290 5.6893 1.0000
50.0939 -12.1111 5.6809 1.0000
50.0940 -11.9525 5.6769 1.0000
50.0940 -11.7941 5.6728 1.0000
50.0940 -11.0054 5.6535 1.0000
50.0940 -10.6914 5.6462 1.0000
50.0940 -10.5346 5.6426 1.0000
50.0940 -10.3781 5.6391 1.0000
50.0940 -10.2218 5.6356 1.0000
50.0940 -9.9097 5.6289 1.0000
50.0939 -9.7540 5.6256 1.0000
50.0940 -9.4430 5.6191 1.0000
50.0939 -9.1328 5.6129 1.0000
50.0940 -8.9779 5.6098 1.0000
50.0940 -8.8232 5.6069 1.0000
50.0939 -8.6686 5.6039 1.0000
50.0940 -8.5143 5.6010 1.0000
50.0940 -8.3600 5.5982 1.0000
50.0939 -8.0520 5.5927 1.0000
50.0939 -7.8982 5.5901 1.0000
50.0940 -7.5911 5.5849 1.0000
50.0939 -7.2846 5.5799 1.0000
50.0939 -7.1315 5.5775 1.0000
50.0939 -6.3680 5.5663 1.0000
50.0939 -6.2157 5.5642 1.0000
50.0939 -6.0634 5.5622 1.0000
50.0939 -5.9113 5.5602 1.0000
50.0939 -5.4556 5.5545 1.0000
50.0939 -5.3039 5.5527 1.0000
50.0939 -5.0007 5.5493 1.0000
50.0939 -4.8494 5.5477 1.0000
50.0939 -4.6980 5.5461 1.0000
50.0939 -4.0935 5.5403 1.0000
50.0939 -3.9426 5.5389 1.0000
50.0939 -3.7917 5.5377 1.0000
50.0939 -3.4902 5.5352 1.0000
50.0939 -3.1889 5.5330 1.0000
50.0939 -3.0383 5.5320 1.0000
50.0939 -2.8879 5.5310 1.0000
50.0939 -2.7374 5.5301 1.0000
50.0939 -2.5870 5.5292 1.0000
50.0939 -2.4367 5.5284 1.0000
50.0939 -2.2863 5.5276 1.0000
50.0939 -2.1361 5.5269 1.0000
50.0939 -1.6855 5.5250 1.0000
50.0939 -1.2352 5.5235 1.0000
50.0939 -0.7851 5.5225 1.0000
50.0939 -0.6351 5.5223 1.0000
50.0939 -0.4851 5.5221 1.0000
50.0939 -0.3352 5.5220 1.0000
50.0939 -0.0352 5.5219 1.0000
50.0939 0.1148 5.5219 1.0000
50.0939 0.4147 5.5220 1.0000
50.0939 0.5647 5.5222 1.0000
50.0939 0.7147 5.5224 1.0000
50.0939 0.8648 5.5227 1.0000
50.0939 1.0148 5.5230 1.0000
50.0939 1.9154 5.5259 1.0000
50.0939 2.0656 5.5265 1.0000
50.0939 2.2159 5.5272 1.0000
50.0939 2.3662 5.5280 1.0000
50.0939 2.5165 5.5288 1.0000
50.0939 2.6668 5.5297 1.0000
50.0939 3.2688 5.5336 1.0000
50.0939 4.3248 5.5424 1.0000
50.0939 4.7784 5.5469 1.0000
50.0939 5.2328 5.5519 1.0000
50.0939 5.3845 5.5537 1.0000
50.0939 5.5362 5.5555 1.0000
50.0939 5.9921 5.5612 1.0000
50.0939 6.1443 5.5632 1.0000
50.0939 6.2966 5.5653 1.0000
50.0939 6.4490 5.5674 1.0000
50.0939 6.6015 5.5696 1.0000
50.0939 6.7541 5.5718 1.0000
50.0939 6.9069 5.5741 1.0000
50.0939 7.0598 5.5764 1.0000
50.0939 7.2128 5.5788 1.0000
50.0939 7.5192 5.5837 1.0000
50.0939 7.6726 5.5862 1.0000
50.0939 -11.8111 4.7950 1.0000
50.0939 -11.6529 4.7916 1.0000
50.0939 -11.3372 4.7850 1.0000
50.0939 -11.1796 4.7818 1.0000
50.0939 -11.0223 4.7786 1.0000
50.0939 -10.8651 4.7755 1.0000
50.0939 -10.3949 4.7664 1.0000
50.0939 -10.0825 4.7606 1.0000
50.0939 -9.4598 4.7495 1.0000
50.0939 -8.9946 4.7416 1.0000
50.0939 -8.5309 4.7342 1.0000
50.0939 -8.3766 4.7318 1.0000
50.0939 -7.9148 4.7249 1.0000
50.0939 -7.7611 4.7227 1.0000
50.0939 -7.6077 4.7205 1.0000
50.0938 -7.4543 4.7184 1.0000
50.0938 -7.3011 4.7163 1.0000
50.0938 -6.9950 4.7123 1.0000
50.0938 -6.8422 4.7103 1.0000
50.0938 -6.6895 4.7084 1.0000
50.0938 -6.5369 4.7065 1.0000
50.0938 -6.3844 4.7047 1.0000
50.0938 -6.2320 4.7030 1.0000
50.0938 -5.4720 4.6947 1.0000
50.0938 -5.3202 4.6932 1.0000
50.0938 -5.0171 4.6903 1.0000
50.0938 -4.8656 4.6889 1.0000
50.0938 -4.5630 4.6863 1.0000
50.0938 -4.4119 4.6850 1.0000
50.0938 -4.1098 4.6827 1.0000
50.0938 -3.9588 4.6815 1.0000
50.0938 -3.6571 4.6794 1.0000
50.0938 -3.5064 4.6784 1.0000
50.0938 -2.7536 4.6740 1.0000
50.0938 -2.6032 4.6733 1.0000
50.0939 -2.0020 4.6707 1.0000
50.0939 -1.8518 4.6702 1.0000
50.0939 -1.7017 4.6697 1.0000
50.0939 -1.5515 4.6692 1.0000
50.0939 -1.1013 4.6681 1.0000
50.0939 -0.5012 4.6672 1.0000
50.0939 -0.2013 4.6670 1.0000
50.0939 0.0986 4.6670 1.0000
50.0939 0.5486 4.6673 1.0000
50.0939 0.6986 4.6674 1.0000
50.0939 0.8486 4.6676 1.0000
50.0939 1.2987 4.6686 1.0000
50.0939 1.5989 4.6694 1.0000
50.0939 1.7491 4.6698 1.0000
50.0939 1.8993 4.6703 1.0000
50.0939 2.6507 4.6735 1.0000
50.0939 2.9515 4.6751 1.0000
50.0939 3.1021 4.6759 1.0000
50.0939 3.4033 4.6777 1.0000
50.0939 3.7047 4.6797 1.0000
50.0939 4.0064 4.6819 1.0000
50.0939 4.1575 4.6830 1.0000
50.0939 4.3084 4.6842 1.0000
50.0939 4.4596 4.6854 1.0000
50.0939 4.6108 4.6867 1.0000
50.0939 4.9134 4.6894 1.0000
50.0939 5.5199 4.6952 1.0000
50.0939 5.9757 4.7001 1.0000
50.0939 6.4325 4.7053 1.0000
50.0939 6.8904 4.7109 1.0000
50.0939 7.0433 4.7129 1.0000
50.0939 7.8096 4.7234 1.0000
50.0939 8.1171 4.7279 1.0000
50.0939 8.2711 4.7302 1.0000
50.0939 8.8886 4.7399 1.0000
50.0939 9.0434 4.7424 1.0000
50.0939 9.5088 4.7503 1.0000
50.0939 9.6643 4.7530 1.0000
50.0939 10.1317 4.7615 1.0000
50.0939 10.2879 4.7644 1.0000
50.0939 10.4443 4.7673 1.0000
