ply
format ascii 1.0
element vertex 1605
property float32 x
property float32 y
property float32 z
property float32 I
end_header
50.0941 7.7232 10.8631 1.0000
50.0941 8.0307 10.8734 1.0000
50.0940 8.6475 10.8951 1.0000
50.0941 8.8021 10.9007 1.0000
50.0941 8.9568 10.9065 1.0000
50.0940 9.1118 10.9124 1.0000
50.0941 9.5775 10.9307 1.0000
50.0941 9.7332 10.9370 1.0000
50.0940 10.0450 10.9500 1.0000
50.0941 10.5140 10.9702 1.0000
50.0941 10.6707 10.9772 1.0000
50.0941 10.8276 10.9842 1.0000
50.0940 10.9848 10.9914 1.0000
50.0940 11.1421 10.9986 1.0000
50.0940 11.4575 11.0135 1.0000
50.0940 11.6155 11.0211 1.0000
50.0940 12.0908 11.0446 1.0000
50.0941 12.2496 11.0526 1.0000
50.0940 12.5682 11.0690 1.0000
50.0941 12.7278 11.0774 1.0000
50.0940 13.0477 11.0945 1.0000
50.0940 13.2080 11.1032 1.0000
50.0940 13.3686 11.1120 1.0000
50.0941 -12.9952 11.0917 1.0000
50.0941 -12.1976 11.0500 1.0000
50.0941 -12.0387 11.0420 1.0000
50.0941 -11.7218 11.0263 1.0000
50.0941 -11.5637 11.0186 1.0000
50.0941 -11.4058 11.0110 1.0000
50.0941 -10.7762 10.9819 1.0000
50.0941 -10.6193 10.9749 1.0000
50.0941 -10.3062 10.9611 1.0000
50.0941 -10.1499 10.9544 1.0000
50.0941 -9.8379 10.9414 1.0000
50.0941 -9.6821 10.9350 1.0000
50.0941 -9.3713 10.9225 1.0000
50.0941 -8.9062 10.9046 1.0000
50.0941 -8.7515 10.8989 1.0000
50.0941 -8.2883 10.8822 1.0000
50.0941 -7.6730 10.8615 1.0000
50.0941 -7.5195 10.8566 1.0000
50.0940 -7.2129 10.8470 1.0000
50.0939 -6.9069 10.8378 1.0000
50.0939 -6.7541 10.8334 1.0000
50.0939 -6.6014 10.8291 1.0000
50.0940 -6.2963 10.8207 1.0000
50.0939 -5.9917 10.8128 1.0000
50.0939 -5.6876 10.8052 1.0000
50.0939 -5.2321 10.7947 1.0000
50.0939 -5.0805 10.7913 1.0000
50.0940 -4.9290 10.7881 1.0000
50.0940 -4.4749 10.7790 1.0000
50.0940 -4.3238 10.7762 1.0000
50.0940 -4.1726 10.7735 1.0000
50.0939 -4.0216 10.7708 1.0000
50.0939 -3.8706 10.7683 1.0000
50.0940 -2.9662 10.7551 1.0000
50.0940 -2.8157 10.7532 1.0000
50.0939 -2.6651 10.7514 1.0000
50.0940 -2.3643 10.7482 1.0000
50.0940 -2.0637 10.7454 1.0000
50.0940 -1.9134 10.7441 1.0000
50.0940 -1.7632 10.7429 1.0000
50.0940 -1.3127 10.7400 1.0000
50.0941 -1.0124 10.7385 1.0000
50.0940 -0.5622 10.7369 1.0000
50.0940 -0.4121 10.7366 1.0000
50.0940 0.1880 10.7363 1.0000
50.0941 0.6381 10.7371 1.0000
50.0941 0.9383 10.7382 1.0000
50.0940 1.2385 10.7395 1.0000
50.0940 1.3886 10.7404 1.0000
50.0941 1.6889 10.7424 1.0000
50.0940 1.9895 10.7447 1.0000
50.0940 2.2901 10.7475 1.0000
50.0940 2.4404 10.7490 1.0000
50.0940 2.5908 10.7506 1.0000
50.0941 2.7413 10.7523 1.0000
50.0940 2.8918 10.7541 1.0000
50.0940 4.9516 9.9024 1.0000
50.0940 5.1031 9.9054 1.0000
50.0940 5.5583 9.9149 1.0000
50.0940 6.0144 9.9252 1.0000
50.0940 6.3190 9.9325 1.0000
50.0940 6.4715 9.9363 1.0000
50.0940 7.2357 9.9567 1.0000
50.0940 7.5423 9.9655 1.0000
50.0940 8.0033 9.9794 1.0000
50.0940 8.1572 9.9842 1.0000
50.0940 8.3113 9.9891 1.0000
50.0940 8.6199 9.9992 1.0000
50.0940 9.0841 10.0151 1.0000
50.0940 9.2391 10.0206 1.0000
50.0940 9.3944 10.0262 1.0000
50.0941 9.5498 10.0319 1.0000
50.0941 9.7053 10.0377 1.0000
50.0941 10.0170 10.0495 1.0000
50.0941 10.3295 10.0617 1.0000
50.0941 10.6427 10.0744 1.0000
50.0941 10.7996 10.0808 1.0000
50.0941 10.9567 10.0874 1.0000
50.0941 11.2716 10.1008 1.0000
50.0941 11.4293 10.1076 1.0000
50.0941 11.7454 10.1217 1.0000
50.0941 12.0625 10.1361 1.0000
50.0941 12.3804 10.1509 1.0000
50.0941 12.6993 10.1661 1.0000
50.0941 12.8590 10.1739 1.0000
50.0941 13.0191 10.1818 1.0000
50.0941 13.1794 10.1898 1.0000
50.0941 -13.3446 10.1981 1.0000
50.0941 -12.8637 10.1741 1.0000
50.0941 -12.2260 10.1437 1.0000
50.0940 -11.5919 10.1148 1.0000
50.0940 -11.4339 10.1078 1.0000
50.0940 -10.9614 10.0876 1.0000
50.0941 -10.6473 10.0746 1.0000
50.0941 -10.4906 10.0682 1.0000
50.0941 -10.3341 10.0619 1.0000
50.0940 -10.1778 10.0558 1.0000
50.0941 -9.8657 10.0437 1.0000
50.0941 -9.7100 10.0378 1.0000
50.0940 -9.2437 10.0208 1.0000
50.0940 -8.9338 10.0099 1.0000
50.0941 -8.7791 10.0046 1.0000
50.0941 -8.4701 9.9943 1.0000
50.0940 -7.8541 9.9748 1.0000
50.0941 -7.7004 9.9702 1.0000
50.0939 -7.3935 9.9612 1.0000
50.0939 -7.0872 9.9525 1.0000
50.0939 -6.7813 9.9443 1.0000
50.0939 -6.4760 9.9364 1.0000
50.0939 -6.1712 9.9289 1.0000
50.0939 -5.8668 9.9218 1.0000
50.0939 -5.7147 9.9183 1.0000
50.0939 -5.5628 9.9150 1.0000
50.0939 -5.2592 9.9086 1.0000
50.0939 -4.9560 9.9025 1.0000
50.0939 -4.6532 9.8968 1.0000
50.0939 -4.5019 9.8941 1.0000
50.0939 -4.1996 9.8890 1.0000
50.0939 -4.0485 9.8865 1.0000
50.0939 -3.8976 9.8842 1.0000
50.0939 -3.5958 9.8798 1.0000
50.0939 -3.2943 9.8757 1.0000
50.0939 -3.1437 9.8738 1.0000
50.0939 -2.6920 9.8686 1.0000
50.0939 -2.5416 9.8671 1.0000
50.0940 -2.2408 9.8643 1.0000
50.0940 -1.9402 9.8618 1.0000
50.0940 -1.4896 9.8588 1.0000
50.0940 -1.1893 9.8572 1.0000
50.0940 -1.0392 9.8565 1.0000
50.0940 -0.7390 9.8555 1.0000
50.0940 -0.4389 9.8548 1.0000
50.0940 0.1612 9.8545 1.0000
50.0940 0.4613 9.8548 1.0000
50.0940 0.6114 9.8551 1.0000
50.0940 0.7615 9.8555 1.0000
50.0940 1.0616 9.8566 1.0000
50.0940 1.3618 9.8580 1.0000
50.0940 1.5120 9.8589 1.0000
50.0940 1.8124 9.8609 1.0000
50.0940 2.2633 9.8645 1.0000
50.0940 3.1661 9.8741 1.0000
50.0940 3.3168 9.8760 1.0000
50.0940 3.4675 9.8780 1.0000
50.0940 3.7691 9.8823 1.0000
50.0940 3.9201 9.8845 1.0000
50.0940 4.0710 9.8869 1.0000
50.0940 4.2221 9.8893 1.0000
50.0940 4.3732 9.8919 1.0000
50.0940 4.8271 9.9001 1.0000
50.0940 4.9786 9.9030 1.0000
50.0940 5.1302 9.9059 1.0000
50.0940 5.4336 9.9122 1.0000
50.0940 5.5854 9.9155 1.0000
50.0940 5.7373 9.9188 1.0000
50.0940 5.8894 9.9223 1.0000
50.0940 6.1939 9.9294 1.0000
50.0940 6.3463 9.9332 1.0000
50.0940 6.6514 9.9409 1.0000
50.0940 6.9570 9.9490 1.0000
50.0940 7.4163 9.9618 1.0000
50.0940 7.5697 9.9663 1.0000
50.0940 7.8770 9.9755 1.0000
50.0940 8.0307 9.9802 1.0000
50.0940 8.1847 9.9851 1.0000
50.0940 8.4930 9.9950 1.0000
50.0940 8.6475 10.0002 1.0000
50.0940 8.9569 10.0107 1.0000
50.0941 9.4221 10.0272 1.0000
50.0941 9.5775 10.0329 1.0000
50.0941 9.7331 10.0387 1.0000
50.0941 10.0449 10.0506 1.0000
50.0941 10.3574 10.0628 1.0000
50.0941 10.6707 10.0755 1.0000
50.0941 11.1421 10.0952 1.0000
50.0941 11.2997 10.1020 1.0000
50.0941 11.6155 10.1159 1.0000
50.0941 12.4088 10.1522 1.0000
50.0941 12.5682 10.1598 1.0000
50.0941 12.7277 10.1675 1.0000
50.0941 13.2080 10.1912 1.0000
50.0941 13.3686 10.1993 1.0000
50.0940 -12.8352 10.1727 1.0000
50.0941 -12.5159 10.1573 1.0000
50.0940 -12.0387 10.1350 1.0000
50.0940 -11.8802 10.1278 1.0000
50.0941 -11.4058 10.1066 1.0000
50.0941 -11.2481 10.0998 1.0000
50.0941 -11.0906 10.0930 1.0000
50.0941 -10.7762 10.0799 1.0000
50.0940 -10.6193 10.0734 1.0000
50.0940 -9.9938 10.0486 1.0000
50.0940 -9.8379 10.0427 1.0000
50.0941 -9.6821 10.0368 1.0000
50.0940 -9.2161 10.0198 1.0000
50.0941 -8.7515 10.0037 1.0000
50.0941 -8.2884 9.9884 1.0000
50.0941 -8.1343 9.9835 1.0000
50.0941 -7.8266 9.9740 1.0000
50.0941 -7.6730 9.9693 1.0000
50.0941 -7.5195 9.9648 1.0000
50.0939 -7.3661 9.9604 1.0000
50.0939 -7.2129 9.9560 1.0000
50.0939 -6.7541 9.9436 1.0000
50.0939 -6.6014 9.9396 1.0000
50.0939 -6.2963 9.9319 1.0000
50.0939 -5.9917 9.9246 1.0000
50.0939 -5.8396 9.9211 1.0000
50.0939 -5.3839 9.9112 1.0000
50.0939 -5.2321 9.9080 1.0000
50.0939 -4.9290 9.9020 1.0000
50.0939 -4.7775 9.8991 1.0000
50.0939 -4.4749 9.8936 1.0000
50.0939 -4.0216 9.8861 1.0000
50.0939 -3.5689 9.8794 1.0000
50.0939 -3.4181 9.8773 1.0000
50.0939 -3.2674 9.8753 1.0000
50.0939 -2.9662 9.8717 1.0000
50.0939 -2.6652 9.8683 1.0000
50.0940 -2.3643 9.8654 1.0000
50.0940 -1.9134 9.8616 1.0000
50.0940 -1.1625 9.8571 1.0000
50.0940 -1.0124 9.8564 1.0000
50.0940 -0.8623 9.8559 1.0000
50.0940 -0.2621 9.8545 1.0000
50.0940 -0.1121 9.8544 1.0000
50.0940 0.0380 9.8544 1.0000
50.0940 0.3381 9.8546 1.0000
50.0940 0.4881 9.8549 1.0000
50.0940 0.6382 9.8552 1.0000
50.0940 0.9383 9.8561 1.0000
50.0940 1.0884 9.8567 1.0000
50.0940 1.5388 9.8591 1.0000
50.0940 1.6890 9.8600 1.0000
50.0940 1.8392 9.8610 1.0000
50.0940 2.2901 9.8647 1.0000
50.0940 2.5909 9.8676 1.0000
50.0940 2.7413 9.8691 1.0000
50.0940 4.4975 9.0145 1.0000
50.0940 4.6487 9.0170 1.0000
50.0940 5.1031 9.0249 1.0000
50.0940 5.2547 9.0277 1.0000
50.0940 5.5583 9.0335 1.0000
50.0940 6.1666 9.0462 1.0000
50.0940 6.4715 9.0530 1.0000
50.0940 6.9296 9.0639 1.0000
50.0940 7.3889 9.0755 1.0000
50.0940 7.5423 9.0796 1.0000
50.0940 8.0032 9.0923 1.0000
50.0940 8.3113 9.1011 1.0000
50.0940 8.4655 9.1057 1.0000
50.0940 9.0841 9.1248 1.0000
50.0940 9.2391 9.1298 1.0000
50.0940 9.3944 9.1349 1.0000
50.0940 9.8611 9.1507 1.0000
50.0940 10.6427 9.1788 1.0000
50.0940 10.7996 9.1847 1.0000
50.0940 11.2716 9.2029 1.0000
50.0940 11.9038 9.2284 1.0000
50.0940 12.0624 9.2350 1.0000
50.0940 12.2213 9.2417 1.0000
50.0940 12.3804 9.2485 1.0000
50.0940 12.5397 9.2554 1.0000
50.0940 12.8591 9.2695 1.0000
50.0940 13.1794 9.2839 1.0000
50.0940 13.3400 9.2913 1.0000
50.0941 -13.1841 9.2842 1.0000
50.0941 -13.0238 9.2769 1.0000
50.0941 -12.7040 9.2626 1.0000
50.0941 -12.3851 9.2487 1.0000
50.0941 -12.2260 9.2419 1.0000
50.0941 -12.0671 9.2352 1.0000
50.0941 -11.9085 9.2286 1.0000
50.0941 -11.7501 9.2221 1.0000
50.0941 -11.4340 9.2093 1.0000
50.0940 -11.2762 9.2031 1.0000
50.0941 -11.1187 9.1969 1.0000
50.0940 -10.6473 9.1790 1.0000
50.0940 -10.4906 9.1732 1.0000
50.0940 -10.0216 9.1563 1.0000
50.0940 -9.7099 9.1455 1.0000
50.0940 -8.9338 9.1201 1.0000
50.0940 -8.6245 9.1105 1.0000
50.0940 -8.4701 9.1058 1.0000
50.0940 -8.3159 9.1013 1.0000
50.0940 -8.1618 9.0968 1.0000
50.0940 -7.7004 9.0839 1.0000
50.0941 -7.5469 9.0797 1.0000
50.0939 -7.2403 9.0717 1.0000
50.0939 -6.4760 9.0531 1.0000
50.0939 -6.1712 9.0463 1.0000
50.0939 -5.8668 9.0397 1.0000
50.0939 -5.4109 9.0306 1.0000
50.0940 -5.2593 9.0277 1.0000
50.0939 -5.1076 9.0249 1.0000
50.0939 -4.9561 9.0222 1.0000
50.0940 -4.8046 9.0196 1.0000
50.0939 -4.3507 9.0122 1.0000
50.0939 -3.8975 9.0055 1.0000
50.0939 -3.7466 9.0035 1.0000
50.0939 -3.2943 8.9978 1.0000
50.0939 -2.8425 8.9928 1.0000
50.0939 -2.5416 8.9899 1.0000
50.0939 -2.3912 8.9886 1.0000
50.0940 -2.2408 8.9874 1.0000
50.0940 -2.0905 8.9862 1.0000
50.0940 -1.9402 8.9851 1.0000
50.0940 -1.7900 8.9841 1.0000
50.0940 -1.6398 8.9832 1.0000
50.0940 -0.5889 8.9790 1.0000
50.0940 -0.4389 8.9787 1.0000
50.0940 -0.1389 8.9784 1.0000
50.0940 0.1612 8.9784 1.0000
50.0940 0.3113 8.9786 1.0000
50.0940 0.7614 8.9794 1.0000
50.0940 0.9114 8.9799 1.0000
50.0940 1.0615 8.9804 1.0000
50.0940 1.2117 8.9810 1.0000
50.0940 1.5120 8.9825 1.0000
50.0940 1.6621 8.9833 1.0000
50.0940 1.8124 8.9843 1.0000
50.0940 1.9626 8.9853 1.0000
50.0940 2.1129 8.9864 1.0000
50.0940 2.5640 8.9901 1.0000
50.0940 2.7144 8.9916 1.0000
50.0940 2.8650 8.9931 1.0000
50.0940 3.1661 8.9963 1.0000
50.0940 3.4675 8.9999 1.0000
50.0940 3.9200 9.0058 1.0000
50.0940 4.2221 9.0102 1.0000
50.0940 4.3732 9.0125 1.0000
50.0940 4.6757 9.0174 1.0000
50.0940 4.9786 9.0226 1.0000
50.0940 5.1302 9.0253 1.0000
50.0940 5.2818 9.0282 1.0000
50.0940 5.8894 9.0402 1.0000
50.0940 6.1939 9.0468 1.0000
50.0940 6.3463 9.0501 1.0000
50.0940 6.6513 9.0572 1.0000
50.0940 7.2631 9.0723 1.0000
50.0940 7.4164 9.0763 1.0000
50.0940 7.7232 9.0845 1.0000
50.0940 7.8769 9.0887 1.0000
50.0940 8.0307 9.0930 1.0000
50.0940 8.1847 9.0974 1.0000
50.0940 8.3388 9.1019 1.0000
50.0940 8.4931 9.1065 1.0000
50.0940 8.6475 9.1112 1.0000
50.0940 8.8021 9.1159 1.0000
50.0940 9.4221 9.1358 1.0000
50.0940 9.5775 9.1410 1.0000
50.0940 9.7332 9.1463 1.0000
50.0940 9.8889 9.1517 1.0000
50.0940 10.2011 9.1627 1.0000
50.0940 10.3574 9.1683 1.0000
50.0940 10.5139 9.1740 1.0000
50.0940 10.6707 9.1798 1.0000
50.0940 10.8276 9.1857 1.0000
50.0940 11.6155 9.2166 1.0000
50.0940 11.9321 9.2296 1.0000
50.0940 12.0908 9.2362 1.0000
50.0940 12.4088 9.2497 1.0000
50.0940 12.5682 9.2567 1.0000
50.0940 13.0477 9.2779 1.0000
50.0940 13.2080 9.2852 1.0000
50.0940 13.3687 9.2926 1.0000
50.0941 -13.1555 9.2828 1.0000
50.0941 -12.9952 9.2756 1.0000
50.0941 -12.8352 9.2684 1.0000
50.0941 -12.3566 9.2475 1.0000
50.0941 -12.1976 9.2407 1.0000
50.0941 -11.8802 9.2274 1.0000
50.0941 -11.4058 9.2082 1.0000
50.0940 -11.2480 9.2019 1.0000
50.0940 -11.0906 9.1958 1.0000
50.0940 -10.7762 9.1838 1.0000
50.0940 -10.3062 9.1664 1.0000
50.0940 -10.1499 9.1608 1.0000
50.0940 -9.6822 9.1446 1.0000
50.0940 -9.5266 9.1393 1.0000
50.0940 -9.2161 9.1291 1.0000
50.0940 -8.5969 9.1097 1.0000
50.0940 -8.2883 9.1005 1.0000
50.0940 -8.1343 9.0960 1.0000
50.0940 -7.9804 9.0916 1.0000
50.0940 -7.8266 9.0873 1.0000
50.0939 -7.3661 9.0749 1.0000
50.0939 -7.2129 9.0710 1.0000
50.0939 -6.7541 9.0596 1.0000
50.0940 -6.1440 9.0457 1.0000
50.0940 -5.6876 9.0361 1.0000
50.0939 -5.5357 9.0330 1.0000
50.0940 -5.0805 9.0244 1.0000
50.0939 -4.7775 9.0191 1.0000
50.0940 -4.6262 9.0166 1.0000
50.0939 -4.4750 9.0141 1.0000
50.0939 -4.0216 9.0073 1.0000
50.0939 -3.8706 9.0052 1.0000
50.0939 -3.7197 9.0031 1.0000
50.0939 -3.5689 9.0011 1.0000
50.0939 -3.4181 8.9993 1.0000
50.0939 -3.1168 8.9958 1.0000
50.0940 -2.6651 8.9911 1.0000
50.0940 -2.3643 8.9884 1.0000
50.0940 -1.9134 8.9849 1.0000
50.0940 -1.4628 8.9822 1.0000
50.0940 -1.1625 8.9808 1.0000
50.0940 -0.8623 8.9797 1.0000
50.0940 -0.7122 8.9793 1.0000
50.0940 -0.4121 8.9787 1.0000
50.0940 -0.2621 8.9785 1.0000
50.0940 0.0380 8.9784 1.0000
50.0940 0.4881 8.9788 1.0000
50.0940 0.7882 8.9795 1.0000
50.0940 0.9382 8.9800 1.0000
50.0940 1.2385 8.9811 1.0000
50.0940 1.3886 8.9818 1.0000
50.0940 1.5388 8.9826 1.0000
50.0940 1.6889 8.9835 1.0000
50.0940 1.9894 8.9855 1.0000
50.0940 2.1397 8.9866 1.0000
50.0940 2.5908 8.9904 1.0000
50.0940 2.7413 8.9918 1.0000
50.0940 2.8918 8.9933 1.0000
50.0940 4.4974 8.1403 1.0000
50.0940 4.6487 8.1425 1.0000
50.0940 4.9516 8.1472 1.0000
50.0940 5.1030 8.1496 1.0000
50.0940 5.2547 8.1521 1.0000
50.0940 5.4064 8.1547 1.0000
50.0940 5.5583 8.1574 1.0000
50.0940 5.7102 8.1602 1.0000
50.0940 5.8623 8.1630 1.0000
50.0940 6.1666 8.1689 1.0000
50.0939 6.4715 8.1750 1.0000
50.0939 7.0826 8.1883 1.0000
50.0939 7.2357 8.1918 1.0000
50.0939 7.3890 8.1954 1.0000
50.0940 8.3113 8.2185 1.0000
50.0939 9.2391 8.2444 1.0000
50.0940 9.5498 8.2537 1.0000
50.0940 9.7053 8.2584 1.0000
50.0940 9.8611 8.2633 1.0000
50.0939 10.1731 8.2732 1.0000
50.0940 10.4859 8.2834 1.0000
50.0939 11.2716 8.3104 1.0000
50.0939 12.2212 8.3455 1.0000
50.0939 12.6992 8.3641 1.0000
50.0939 12.8590 8.3705 1.0000
50.0940 13.3400 8.3902 1.0000
50.0940 -13.3446 8.3904 1.0000
50.0940 -13.0238 8.3772 1.0000
50.0940 -12.7039 8.3643 1.0000
50.0940 -12.5444 8.3580 1.0000
50.0940 -12.0671 8.3396 1.0000
50.0940 -11.9085 8.3336 1.0000
50.0940 -11.7501 8.3277 1.0000
50.0940 -11.5919 8.3219 1.0000
50.0940 -11.4339 8.3162 1.0000
50.0940 -11.2762 8.3105 1.0000
50.0940 -10.6473 8.2888 1.0000
50.0940 -10.4906 8.2835 1.0000
50.0940 -10.0217 8.2683 1.0000
50.0940 -9.7100 8.2586 1.0000
50.0940 -9.5543 8.2538 1.0000
50.0940 -9.0887 8.2400 1.0000
50.0940 -8.9338 8.2356 1.0000
50.0940 -8.7791 8.2312 1.0000
50.0940 -8.6245 8.2269 1.0000
50.0940 -8.1618 8.2146 1.0000
50.0939 -7.3935 8.1955 1.0000
50.0939 -6.7813 8.1816 1.0000
50.0939 -6.6286 8.1783 1.0000
50.0939 -6.4760 8.1751 1.0000
50.0939 -6.3235 8.1720 1.0000
50.0939 -6.1711 8.1689 1.0000
50.0939 -5.7147 8.1602 1.0000
50.0939 -5.4109 8.1548 1.0000
50.0939 -4.8046 8.1449 1.0000
50.0939 -4.6532 8.1426 1.0000
50.0939 -4.3507 8.1382 1.0000
50.0939 -4.1996 8.1361 1.0000
50.0939 -3.7466 8.1303 1.0000
50.0939 -3.1436 8.1236 1.0000
50.0939 -2.9930 8.1221 1.0000
50.0939 -2.8425 8.1207 1.0000
50.0939 -2.5416 8.1181 1.0000
50.0939 -2.3911 8.1169 1.0000
50.0939 -2.2408 8.1158 1.0000
50.0939 -1.9402 8.1137 1.0000
50.0939 -1.7900 8.1128 1.0000
50.0939 -0.8891 8.1089 1.0000
50.0939 -0.7391 8.1085 1.0000
50.0939 -0.5890 8.1082 1.0000
50.0939 0.0112 8.1077 1.0000
50.0939 0.3113 8.1078 1.0000
50.0939 0.4613 8.1080 1.0000
50.0939 0.6113 8.1083 1.0000
50.0939 0.7614 8.1086 1.0000
50.0940 0.9115 8.1090 1.0000
50.0939 1.0616 8.1095 1.0000
50.0939 1.3618 8.1107 1.0000
50.0940 1.5120 8.1113 1.0000
50.0940 1.8123 8.1130 1.0000
50.0939 2.1129 8.1149 1.0000
50.0939 2.4136 8.1171 1.0000
50.0939 2.7145 8.1196 1.0000
50.0939 2.8649 8.1209 1.0000
50.0939 3.1661 8.1238 1.0000
50.0939 3.4675 8.1271 1.0000
50.0940 3.6183 8.1288 1.0000
50.0940 3.7691 8.1306 1.0000
50.0940 3.9200 8.1324 1.0000
50.0940 4.0710 8.1344 1.0000
50.0940 4.2221 8.1364 1.0000
50.0939 4.3732 8.1385 1.0000
50.0940 4.6757 8.1429 1.0000
50.0940 4.8271 8.1452 1.0000
50.0940 4.9786 8.1476 1.0000
50.0940 5.1301 8.1501 1.0000
50.0939 5.2818 8.1526 1.0000
50.0940 5.7373 8.1607 1.0000
50.0939 6.0416 8.1664 1.0000
50.0940 6.1938 8.1694 1.0000
50.0939 6.3463 8.1725 1.0000
50.0940 6.6513 8.1788 1.0000
50.0939 6.8041 8.1821 1.0000
50.0940 6.9570 8.1855 1.0000
50.0940 7.2630 8.1924 1.0000
50.0940 7.4163 8.1960 1.0000
50.0940 8.3388 8.2192 1.0000
50.0940 8.4930 8.2234 1.0000
50.0940 8.6475 8.2276 1.0000
50.0940 9.1117 8.2407 1.0000
50.0940 9.5775 8.2545 1.0000
50.0940 9.7331 8.2593 1.0000
50.0939 9.8889 8.2641 1.0000
50.0939 10.0449 8.2691 1.0000
50.0940 10.3574 8.2792 1.0000
50.0940 10.6707 8.2896 1.0000
50.0939 10.9848 8.3003 1.0000
50.0939 11.1421 8.3058 1.0000
50.0939 11.6155 8.3228 1.0000
50.0939 11.7737 8.3286 1.0000
50.0939 11.9321 8.3345 1.0000
50.0939 12.4088 8.3527 1.0000
50.0939 12.7277 8.3653 1.0000
50.0940 13.0477 8.3782 1.0000
50.0940 13.2080 8.3847 1.0000
50.0940 -13.3159 8.3892 1.0000
50.0940 -12.6754 8.3632 1.0000
50.0940 -12.5159 8.3569 1.0000
50.0940 -12.0388 8.3385 1.0000
50.0940 -11.5637 8.3209 1.0000
50.0940 -11.4058 8.3152 1.0000
50.0940 -11.2480 8.3095 1.0000
50.0940 -11.0906 8.3040 1.0000
50.0940 -10.9333 8.2985 1.0000
50.0940 -10.6193 8.2878 1.0000
50.0940 -10.3062 8.2775 1.0000
50.0940 -10.1499 8.2724 1.0000
50.0940 -9.8379 8.2625 1.0000
50.0940 -9.6821 8.2577 1.0000
50.0940 -9.5266 8.2530 1.0000
50.0940 -9.0610 8.2392 1.0000
50.0940 -8.9061 8.2348 1.0000
50.0940 -8.4425 8.2220 1.0000
50.0940 -8.2883 8.2179 1.0000
50.0940 -8.1343 8.2139 1.0000
50.0940 -7.9804 8.2099 1.0000
50.0940 -7.6729 8.2022 1.0000
50.0940 -7.5195 8.1985 1.0000
50.0939 -6.7540 8.1810 1.0000
50.0939 -6.6013 8.1778 1.0000
50.0939 -6.4488 8.1746 1.0000
50.0939 -6.2963 8.1714 1.0000
50.0939 -5.8396 8.1626 1.0000
50.0939 -5.6875 8.1597 1.0000
50.0939 -5.5357 8.1570 1.0000
50.0939 -5.3839 8.1543 1.0000
50.0939 -5.0805 8.1492 1.0000
50.0939 -4.9289 8.1468 1.0000
50.0939 -4.7775 8.1444 1.0000
50.0939 -4.6262 8.1422 1.0000
50.0939 -4.4749 8.1399 1.0000
50.0939 -4.3237 8.1378 1.0000
50.0939 -4.1726 8.1357 1.0000
50.0939 -3.8706 8.1318 1.0000
50.0939 -3.4181 8.1265 1.0000
50.0939 -3.1168 8.1233 1.0000
50.0939 -2.8156 8.1205 1.0000
50.0939 -2.5147 8.1179 1.0000
50.0939 -2.3643 8.1167 1.0000
50.0939 -1.7632 8.1127 1.0000
50.0940 -1.6130 8.1119 1.0000
50.0940 -1.4628 8.1111 1.0000
50.0939 -0.7123 8.1085 1.0000
50.0939 -0.4121 8.1079 1.0000
50.0939 -0.2621 8.1078 1.0000
50.0939 -0.1121 8.1077 1.0000
50.0939 0.3380 8.1078 1.0000
50.0939 0.7882 8.1087 1.0000
50.0939 0.9383 8.1091 1.0000
50.0939 1.3886 8.1108 1.0000
50.0939 1.5388 8.1115 1.0000
50.0939 1.6890 8.1123 1.0000
50.0939 2.2901 8.1161 1.0000
50.0939 2.5909 8.1185 1.0000
50.0939 2.8918 8.1212 1.0000
50.0940 4.6487 7.2728 1.0000
50.0940 4.8000 7.2748 1.0000
50.0940 5.1031 7.2792 1.0000
50.0940 5.2547 7.2814 1.0000
50.0939 5.4064 7.2837 1.0000
50.0939 5.5583 7.2861 1.0000
50.0940 5.7102 7.2886 1.0000
50.0939 6.1666 7.2963 1.0000
50.0940 6.3190 7.2991 1.0000
50.0940 6.6241 7.3047 1.0000
50.0940 7.0826 7.3137 1.0000
50.0940 7.2357 7.3168 1.0000
50.0940 7.3889 7.3200 1.0000
50.0940 7.6958 7.3266 1.0000
50.0939 7.8495 7.3300 1.0000
50.0940 8.3113 7.3407 1.0000
50.0939 8.7745 7.3519 1.0000
50.0939 8.9292 7.3558 1.0000
50.0940 9.0841 7.3598 1.0000
50.0939 9.7054 7.3763 1.0000
50.0939 10.0170 7.3850 1.0000
50.0940 10.1732 7.3895 1.0000
50.0940 10.3295 7.3940 1.0000
50.0939 10.6427 7.4033 1.0000
50.0940 10.7996 7.4081 1.0000
50.0940 11.1140 7.4178 1.0000
50.0940 11.4293 7.4278 1.0000
50.0939 11.7454 7.4381 1.0000
50.0939 11.9038 7.4433 1.0000
50.0939 12.2213 7.4541 1.0000
50.0940 12.3804 7.4596 1.0000
50.0940 12.6992 7.4708 1.0000
50.0940 13.0191 7.4823 1.0000
50.0940 13.1793 7.4881 1.0000
50.0939 13.3399 7.4941 1.0000
50.0940 -13.3447 7.4942 1.0000
50.0940 -12.8637 7.4766 1.0000
50.0940 -12.7040 7.4709 1.0000
50.0940 -12.2260 7.4542 1.0000
50.0940 -11.9085 7.4435 1.0000
50.0940 -11.7501 7.4382 1.0000
50.0940 -11.2762 7.4229 1.0000
50.0940 -10.9614 7.4130 1.0000
50.0940 -10.4907 7.3988 1.0000
50.0940 -10.3341 7.3942 1.0000
50.0940 -10.1778 7.3896 1.0000
50.0940 -9.8657 7.3808 1.0000
50.0940 -9.5544 7.3722 1.0000
50.0940 -9.3990 7.3681 1.0000
50.0940 -9.2437 7.3639 1.0000
50.0940 -9.0887 7.3599 1.0000
50.0940 -8.6245 7.3482 1.0000
50.0940 -8.4702 7.3445 1.0000
50.0940 -8.3159 7.3408 1.0000
50.0940 -7.8541 7.3301 1.0000
50.0939 -7.3935 7.3201 1.0000
50.0939 -7.0872 7.3138 1.0000
50.0939 -6.7813 7.3077 1.0000
50.0939 -6.4760 7.3019 1.0000
50.0939 -6.3235 7.2991 1.0000
50.0939 -5.8668 7.2912 1.0000
50.0939 -5.7147 7.2886 1.0000
50.0939 -5.5628 7.2862 1.0000
50.0939 -5.4109 7.2838 1.0000
50.0939 -5.2592 7.2815 1.0000
50.0939 -5.1076 7.2792 1.0000
50.0939 -4.8045 7.2749 1.0000
50.0939 -4.6532 7.2729 1.0000
50.0939 -4.3507 7.2689 1.0000
50.0939 -4.1996 7.2671 1.0000
50.0939 -3.5958 7.2603 1.0000
50.0939 -3.4450 7.2588 1.0000
50.0939 -3.2943 7.2573 1.0000
50.0939 -3.1437 7.2559 1.0000
50.0939 -2.9930 7.2546 1.0000
50.0939 -2.8425 7.2533 1.0000
50.0940 -2.5416 7.2510 1.0000
50.0940 -2.3912 7.2499 1.0000
50.0940 -2.2409 7.2489 1.0000
50.0940 -1.9403 7.2471 1.0000
50.0940 -1.6398 7.2456 1.0000
50.0940 -1.4896 7.2449 1.0000
50.0940 -1.0392 7.2432 1.0000
50.0940 -0.5890 7.2422 1.0000
50.0940 -0.4389 7.2420 1.0000
50.0940 0.1612 7.2417 1.0000
50.0940 0.4613 7.2420 1.0000
50.0940 0.6113 7.2422 1.0000
50.0940 0.7614 7.2425 1.0000
50.0940 0.9114 7.2429 1.0000
50.0940 1.0616 7.2433 1.0000
50.0940 1.3618 7.2443 1.0000
50.0940 1.5120 7.2450 1.0000
50.0940 1.8123 7.2464 1.0000
50.0940 1.9626 7.2472 1.0000
50.0940 2.4136 7.2501 1.0000
50.0940 2.5639 7.2512 1.0000
50.0940 2.7144 7.2523 1.0000
50.0940 3.0155 7.2548 1.0000
50.0940 3.6182 7.2605 1.0000
50.0940 3.7691 7.2621 1.0000
50.0940 4.3732 7.2692 1.0000
50.0939 4.6757 7.2732 1.0000
50.0940 4.9786 7.2773 1.0000
50.0939 5.1301 7.2796 1.0000
50.0940 5.2818 7.2818 1.0000
50.0940 5.5854 7.2865 1.0000
50.0939 5.7374 7.2890 1.0000
50.0940 5.8894 7.2916 1.0000
50.0940 6.0415 7.2942 1.0000
50.0939 6.1939 7.2968 1.0000
50.0940 6.3462 7.2996 1.0000
50.0939 7.4163 7.3206 1.0000
50.0939 7.5697 7.3239 1.0000
50.0939 7.8769 7.3307 1.0000
50.0940 8.3388 7.3413 1.0000
50.0940 8.4930 7.3450 1.0000
50.0940 8.6475 7.3488 1.0000
50.0939 8.8021 7.3526 1.0000
50.0940 9.2668 7.3645 1.0000
50.0940 9.4221 7.3687 1.0000
50.0939 9.5775 7.3729 1.0000
50.0940 9.7331 7.3771 1.0000
50.0940 10.5139 7.3995 1.0000
50.0939 10.6707 7.4042 1.0000
50.0940 11.6154 7.4338 1.0000
50.0940 12.0907 7.4496 1.0000
50.0940 12.4087 7.4605 1.0000
50.0939 12.5681 7.4661 1.0000
50.0939 12.7277 7.4718 1.0000
50.0939 12.8876 7.4775 1.0000
50.0940 13.0477 7.4833 1.0000
50.0940 -13.3160 7.4932 1.0000
50.0940 -13.1555 7.4872 1.0000
50.0940 -12.8352 7.4756 1.0000
50.0940 -12.6755 7.4699 1.0000
50.0940 -12.5159 7.4643 1.0000
50.0940 -12.3567 7.4587 1.0000
50.0940 -12.0388 7.4479 1.0000
50.0940 -11.7219 7.4373 1.0000
50.0940 -11.5637 7.4321 1.0000
50.0940 -11.2481 7.4220 1.0000
50.0940 -11.0906 7.4170 1.0000
50.0940 -10.9333 7.4121 1.0000
50.0940 -10.4627 7.3980 1.0000
50.0940 -10.3062 7.3934 1.0000
50.0940 -9.9938 7.3844 1.0000
50.0940 -9.8379 7.3800 1.0000
50.0940 -9.0610 7.3592 1.0000
50.0940 -8.7515 7.3514 1.0000
50.0940 -8.5970 7.3476 1.0000
50.0940 -8.4426 7.3438 1.0000
50.0940 -8.1343 7.3365 1.0000
50.0940 -7.9804 7.3330 1.0000
50.0940 -7.5195 7.3228 1.0000
50.0939 -7.0598 7.3132 1.0000
50.0939 -6.2963 7.2986 1.0000
50.0939 -6.1440 7.2959 1.0000
50.0939 -5.9918 7.2933 1.0000
50.0939 -5.5357 7.2858 1.0000
50.0939 -5.3839 7.2834 1.0000
50.0939 -5.2322 7.2811 1.0000
50.0939 -4.7775 7.2745 1.0000
50.0939 -4.6262 7.2725 1.0000
50.0939 -4.0216 7.2650 1.0000
50.0939 -3.7197 7.2616 1.0000
50.0939 -3.5689 7.2600 1.0000
50.0939 -3.4181 7.2585 1.0000
50.0939 -3.2674 7.2571 1.0000
50.0939 -2.8156 7.2531 1.0000
50.0939 -2.6652 7.2519 1.0000
50.0940 -2.3643 7.2497 1.0000
50.0939 -2.2140 7.2488 1.0000
50.0940 -1.7632 7.2462 1.0000
50.0940 -1.6130 7.2454 1.0000
50.0940 -1.4628 7.2448 1.0000
50.0940 -1.3127 7.2442 1.0000
50.0940 -1.0124 7.2432 1.0000
50.0940 -0.8624 7.2427 1.0000
50.0940 0.0379 7.2417 1.0000
50.0940 0.7882 7.2426 1.0000
50.0940 1.2385 7.2439 1.0000
50.0940 1.8392 7.2466 1.0000
50.0940 1.9894 7.2474 1.0000
50.0940 2.1397 7.2483 1.0000
50.0940 2.2900 7.2492 1.0000
50.0940 2.4404 7.2503 1.0000
50.0940 2.7413 7.2525 1.0000
50.0939 4.4975 6.4056 1.0000
50.0939 4.6487 6.4073 1.0000
50.0939 4.8001 6.4091 1.0000
50.0939 4.9516 6.4110 1.0000
50.0939 5.1031 6.4129 1.0000
50.0939 5.2547 6.4149 1.0000
50.0939 5.4065 6.4170 1.0000
50.0939 5.5583 6.4191 1.0000
50.0939 5.8623 6.4235 1.0000
50.0939 6.3190 6.4305 1.0000
50.0939 6.4715 6.4329 1.0000
50.0939 6.6241 6.4354 1.0000
50.0939 7.3889 6.4490 1.0000
50.0939 7.5423 6.4518 1.0000
50.0939 7.6958 6.4548 1.0000
50.0939 7.8495 6.4578 1.0000
50.0939 8.1572 6.4640 1.0000
50.0939 8.4656 6.4704 1.0000
50.0939 8.6200 6.4737 1.0000
50.0939 8.7745 6.4770 1.0000
50.0939 8.9293 6.4805 1.0000
50.0939 9.3944 6.4911 1.0000
50.0939 9.5498 6.4948 1.0000
50.0939 9.7054 6.4986 1.0000
50.0939 10.0171 6.5062 1.0000
50.0939 10.1732 6.5101 1.0000
50.0939 10.4860 6.5182 1.0000
50.0939 11.2716 6.5394 1.0000
50.0939 11.7454 6.5529 1.0000
50.0939 12.5397 6.5768 1.0000
50.0939 12.6993 6.5817 1.0000
50.0939 13.0191 6.5919 1.0000
50.0940 -13.0238 6.5920 1.0000
50.0940 -12.8638 6.5869 1.0000
50.0940 -11.7501 6.5531 1.0000
50.0940 -11.5919 6.5485 1.0000
50.0940 -11.2762 6.5396 1.0000
50.0940 -11.1187 6.5352 1.0000
50.0940 -10.8043 6.5266 1.0000
50.0940 -10.4906 6.5183 1.0000
50.0940 -10.1778 6.5103 1.0000
50.0940 -10.0217 6.5063 1.0000
50.0940 -9.8657 6.5025 1.0000
50.0940 -9.2437 6.4876 1.0000
50.0940 -9.0887 6.4841 1.0000
50.0940 -8.9338 6.4806 1.0000
50.0940 -8.6245 6.4738 1.0000
50.0940 -8.4701 6.4705 1.0000
50.0940 -7.8540 6.4579 1.0000
50.0940 -7.7004 6.4549 1.0000
50.0939 -7.2403 6.4462 1.0000
50.0939 -6.9342 6.4407 1.0000
50.0939 -6.7814 6.4381 1.0000
50.0939 -6.1712 6.4281 1.0000
50.0939 -6.0189 6.4258 1.0000
50.0939 -5.8668 6.4235 1.0000
50.0939 -5.7147 6.4213 1.0000
50.0939 -5.1076 6.4130 1.0000
50.0939 -4.9560 6.4111 1.0000
50.0939 -4.3507 6.4039 1.0000
50.0939 -4.0485 6.4007 1.0000
50.0939 -3.8975 6.3992 1.0000
50.0939 -3.7466 6.3977 1.0000
50.0939 -3.5958 6.3963 1.0000
50.0939 -3.4450 6.3950 1.0000
50.0939 -2.9931 6.3913 1.0000
50.0939 -2.8425 6.3902 1.0000
50.0939 -2.3912 6.3872 1.0000
50.0939 -2.0905 6.3855 1.0000
50.0939 -1.9402 6.3847 1.0000
50.0939 -1.6398 6.3833 1.0000
50.0939 -1.1893 6.3817 1.0000
50.0939 -1.0392 6.3813 1.0000
50.0939 -0.8891 6.3809 1.0000
50.0939 -0.7390 6.3806 1.0000
50.0939 -0.5889 6.3804 1.0000
50.0939 -0.1389 6.3799 1.0000
50.0939 0.0112 6.3799 1.0000
50.0939 0.1612 6.3799 1.0000
50.0939 0.3113 6.3800 1.0000
50.0939 0.9115 6.3810 1.0000
50.0939 1.0616 6.3813 1.0000
50.0939 1.3618 6.3823 1.0000
50.0939 1.8124 6.3841 1.0000
50.0939 1.9627 6.3848 1.0000
50.0939 2.2632 6.3864 1.0000
50.0939 2.4136 6.3873 1.0000
50.0939 2.5640 6.3883 1.0000
50.0939 2.7145 6.3893 1.0000
50.0939 2.8650 6.3903 1.0000
50.0939 3.3168 6.3939 1.0000
50.0939 3.4675 6.3952 1.0000
50.0939 3.9200 6.3994 1.0000
50.0939 4.0711 6.4009 1.0000
50.0939 4.2221 6.4025 1.0000
50.0939 4.3732 6.4042 1.0000
50.0939 4.5245 6.4059 1.0000
50.0939 4.9786 6.4113 1.0000
50.0939 5.1302 6.4133 1.0000
50.0939 5.2818 6.4153 1.0000
50.0939 5.4336 6.4173 1.0000
50.0939 5.7374 6.4216 1.0000
50.0939 6.4987 6.4334 1.0000
50.0939 6.8041 6.4385 1.0000
50.0939 7.1100 6.4439 1.0000
50.0939 7.4163 6.4495 1.0000
50.0939 7.5697 6.4523 1.0000
50.0939 7.8769 6.4583 1.0000
50.0939 8.1847 6.4645 1.0000
50.0939 8.3388 6.4677 1.0000
50.0939 8.6475 6.4743 1.0000
50.0939 8.8021 6.4777 1.0000
50.0939 8.9568 6.4811 1.0000
50.0939 9.1118 6.4846 1.0000
50.0939 9.2668 6.4882 1.0000
50.0939 9.4221 6.4918 1.0000
50.0939 9.7332 6.4992 1.0000
50.0939 10.0449 6.5069 1.0000
50.0939 10.2011 6.5108 1.0000
50.0939 10.3574 6.5149 1.0000
50.0939 10.5139 6.5189 1.0000
50.0939 10.8277 6.5272 1.0000
50.0939 10.9848 6.5315 1.0000
50.0939 11.1421 6.5358 1.0000
50.0939 11.2997 6.5402 1.0000
50.0939 11.6154 6.5492 1.0000
50.0939 11.7737 6.5538 1.0000
50.0939 11.9321 6.5584 1.0000
50.0939 12.2496 6.5679 1.0000
50.0939 12.4088 6.5727 1.0000
50.0939 12.5681 6.5776 1.0000
50.0939 13.3686 6.6032 1.0000
50.0940 -13.1555 6.5963 1.0000
50.0940 -12.8352 6.5860 1.0000
50.0940 -12.6755 6.5810 1.0000
50.0940 -12.5160 6.5760 1.0000
50.0940 -12.1976 6.5663 1.0000
50.0940 -11.8802 6.5569 1.0000
50.0940 -11.5637 6.5477 1.0000
50.0940 -11.2481 6.5388 1.0000
50.0940 -11.0906 6.5344 1.0000
50.0940 -10.7762 6.5259 1.0000
50.0940 -10.6193 6.5217 1.0000
50.0940 -10.4627 6.5176 1.0000
50.0940 -10.3062 6.5135 1.0000
50.0940 -9.9938 6.5056 1.0000
50.0940 -9.0610 6.4835 1.0000
50.0940 -8.7514 6.4765 1.0000
50.0940 -8.5970 6.4732 1.0000
50.0940 -8.1343 6.4635 1.0000
50.0940 -7.9804 6.4604 1.0000
50.0940 -7.8266 6.4573 1.0000
50.0939 -7.3661 6.4485 1.0000
50.0939 -6.9069 6.4403 1.0000
50.0939 -6.7541 6.4376 1.0000
50.0939 -6.4488 6.4326 1.0000
50.0939 -6.2963 6.4301 1.0000
50.0939 -5.8396 6.4231 1.0000
50.0939 -5.5357 6.4187 1.0000
50.0939 -5.3839 6.4167 1.0000
50.0939 -4.9290 6.4107 1.0000
50.0939 -4.7775 6.4089 1.0000
50.0939 -4.3237 6.4036 1.0000
50.0939 -4.1726 6.4020 1.0000
50.0939 -4.0216 6.4004 1.0000
50.0939 -3.8706 6.3989 1.0000
50.0939 -3.4181 6.3947 1.0000
50.0939 -3.2674 6.3935 1.0000
50.0939 -2.3643 6.3870 1.0000
50.0939 -1.6129 6.3832 1.0000
50.0939 -1.3126 6.3821 1.0000
50.0939 -1.0124 6.3812 1.0000
50.0939 -0.8623 6.3809 1.0000
50.0939 0.0380 6.3799 1.0000
50.0939 0.1880 6.3800 1.0000
50.0939 0.3381 6.3801 1.0000
50.0939 0.4881 6.3802 1.0000
50.0939 0.6382 6.3804 1.0000
50.0939 1.0884 6.3814 1.0000
50.0939 1.8392 6.3842 1.0000
50.0939 2.1397 6.3857 1.0000
50.0939 2.2901 6.3866 1.0000
50.0939 2.7413 6.3895 1.0000
50.0939 2.8918 6.3905 1.0000
50.0939 4.6487 5.5456 1.0000
50.0939 4.8001 5.5471 1.0000
50.0939 4.9516 5.5488 1.0000
50.0939 5.4064 5.5539 1.0000
50.0939 5.5583 5.5557 1.0000
50.0939 5.7102 5.5576 1.0000
50.0939 5.8623 5.5595 1.0000
50.0939 6.0144 5.5615 1.0000
50.0939 6.7768 5.5722 1.0000
50.0939 6.9296 5.5744 1.0000
50.0939 7.0826 5.5768 1.0000
50.0939 7.2357 5.5792 1.0000
50.0939 7.5423 5.5841 1.0000
50.0939 7.6958 5.5866 1.0000
50.0939 8.1572 5.5946 1.0000
50.0939 8.3113 5.5973 1.0000
50.0939 8.4655 5.6001 1.0000
50.0939 8.6199 5.6030 1.0000
50.0939 9.2391 5.6150 1.0000
50.0939 9.3944 5.6181 1.0000
50.0939 9.5498 5.6213 1.0000
50.0939 9.7053 5.6245 1.0000
50.0939 10.0170 5.6312 1.0000
50.0939 10.3295 5.6380 1.0000
50.0939 10.4860 5.6415 1.0000
50.0939 10.7996 5.6487 1.0000
50.0939 10.9567 5.6524 1.0000
50.0939 11.1140 5.6561 1.0000
50.0939 11.5872 5.6677 1.0000
50.0939 12.2212 5.6838 1.0000
50.0939 12.3804 5.6880 1.0000
50.0939 12.5397 5.6922 1.0000
50.0939 12.8590 5.7009 1.0000
50.0939 13.1794 5.7098 1.0000
50.0939 13.3399 5.7143 1.0000
50.0939 -13.1841 5.7099 1.0000
50.0940 -13.0238 5.7054 1.0000
50.0939 -12.5444 5.6924 1.0000
50.0940 -12.3850 5.6881 1.0000
50.0939 -11.1187 5.6562 1.0000
50.0940 -10.8043 5.6488 1.0000
50.0939 -10.4906 5.6416 1.0000
50.0940 -10.3341 5.6381 1.0000
50.0940 -10.1778 5.6347 1.0000
50.0940 -10.0217 5.6313 1.0000
50.0939 -9.8657 5.6279 1.0000
50.0939 -9.5543 5.6214 1.0000
50.0940 -9.3989 5.6182 1.0000
50.0940 -9.2437 5.6151 1.0000
50.0940 -9.0887 5.6120 1.0000
50.0940 -8.7790 5.6060 1.0000
50.0940 -7.8540 5.5893 1.0000
50.0940 -7.7004 5.5867 1.0000
50.0939 -7.3935 5.5817 1.0000
50.0939 -7.2402 5.5792 1.0000
50.0939 -7.0871 5.5768 1.0000
50.0939 -6.9341 5.5745 1.0000
50.0939 -6.4760 5.5678 1.0000
50.0939 -6.3235 5.5657 1.0000
50.0939 -6.1712 5.5636 1.0000
50.0939 -6.0189 5.5616 1.0000
50.0939 -5.8667 5.5596 1.0000
50.0939 -5.5628 5.5558 1.0000
50.0939 -5.4109 5.5540 1.0000
50.0939 -4.9560 5.5488 1.0000
50.0939 -4.6532 5.5456 1.0000
50.0939 -4.5019 5.5441 1.0000
50.0939 -4.3507 5.5426 1.0000
50.0939 -4.1996 5.5412 1.0000
50.0939 -4.0485 5.5399 1.0000
50.0939 -3.5958 5.5361 1.0000
50.0939 -3.4450 5.5349 1.0000
50.0939 -2.9930 5.5317 1.0000
50.0939 -2.8425 5.5307 1.0000
50.0939 -2.6920 5.5298 1.0000
50.0939 -2.5415 5.5290 1.0000
50.0939 -2.3912 5.5281 1.0000
50.0939 -2.2408 5.5274 1.0000
50.0939 -1.9402 5.5260 1.0000
50.0939 -1.7900 5.5254 1.0000
50.0939 -1.6398 5.5248 1.0000
50.0939 -1.4896 5.5243 1.0000
50.0939 -1.3395 5.5238 1.0000
50.0939 -0.8891 5.5227 1.0000
50.0939 -0.5890 5.5222 1.0000
50.0939 -0.4389 5.5221 1.0000
50.0939 -0.2889 5.5219 1.0000
50.0939 -0.1388 5.5219 1.0000
50.0939 0.0112 5.5219 1.0000
50.0939 0.1612 5.5219 1.0000
50.0939 0.4613 5.5221 1.0000
50.0939 0.6113 5.5223 1.0000
50.0939 0.7614 5.5225 1.0000
50.0939 0.9114 5.5228 1.0000
50.0939 1.0616 5.5231 1.0000
50.0939 1.3618 5.5239 1.0000
50.0939 1.5120 5.5244 1.0000
50.0939 1.6621 5.5249 1.0000
50.0939 1.9626 5.5261 1.0000
50.0939 2.2632 5.5275 1.0000
50.0939 2.4136 5.5283 1.0000
50.0939 2.8649 5.5309 1.0000
50.0939 3.1661 5.5329 1.0000
50.0939 3.3168 5.5339 1.0000
50.0939 3.4675 5.5351 1.0000
50.0939 3.7691 5.5375 1.0000
50.0939 4.2221 5.5414 1.0000
50.0939 4.3732 5.5428 1.0000
50.0939 5.2818 5.5525 1.0000
50.0939 5.5854 5.5561 1.0000
50.0939 5.7373 5.5579 1.0000
50.0939 5.8894 5.5599 1.0000
50.0939 6.0416 5.5619 1.0000
50.0939 6.3462 5.5660 1.0000
50.0939 6.6513 5.5703 1.0000
50.0939 6.9570 5.5748 1.0000
50.0939 7.1100 5.5772 1.0000
50.0939 7.2630 5.5796 1.0000
50.0939 7.4163 5.5820 1.0000
50.0939 7.5697 5.5845 1.0000
50.0939 7.8769 5.5897 1.0000
50.0939 8.0307 5.5924 1.0000
50.0939 8.3388 5.5978 1.0000
50.0939 8.4931 5.6007 1.0000
50.0939 8.8021 5.6064 1.0000
50.0939 8.9568 5.6094 1.0000
50.0939 9.1118 5.6125 1.0000
50.0939 9.2669 5.6155 1.0000
50.0939 9.4221 5.6187 1.0000
50.0939 9.5775 5.6219 1.0000
50.0939 9.7331 5.6251 1.0000
50.0939 9.8889 5.6284 1.0000
50.0939 10.9848 5.6531 1.0000
50.0939 11.1421 5.6568 1.0000
50.0939 11.4575 5.6644 1.0000
50.0939 11.6155 5.6684 1.0000
50.0939 11.9321 5.6763 1.0000
50.0939 12.0908 5.6804 1.0000
50.0939 12.4087 5.6887 1.0000
50.0939 12.7277 5.6973 1.0000
50.0939 12.8876 5.7017 1.0000
50.0939 13.0477 5.7061 1.0000
50.0939 13.3686 5.7151 1.0000
50.0940 -12.9952 5.7046 1.0000
50.0940 -12.1976 5.6832 1.0000
50.0940 -12.0388 5.6791 1.0000
50.0939 -11.7218 5.6710 1.0000
50.0940 -11.0906 5.6556 1.0000
50.0940 -10.9333 5.6518 1.0000
50.0940 -10.7762 5.6482 1.0000
50.0939 -10.4627 5.6410 1.0000
50.0940 -9.8379 5.6273 1.0000
50.0940 -9.6821 5.6241 1.0000
50.0939 -9.3712 5.6176 1.0000
50.0940 -9.2161 5.6145 1.0000
50.0940 -8.7514 5.6055 1.0000
50.0939 -8.5969 5.6026 1.0000
50.0939 -8.4425 5.5997 1.0000
50.0940 -8.2883 5.5969 1.0000
50.0939 -7.9804 5.5915 1.0000
50.0939 -7.8266 5.5888 1.0000
50.0940 -7.5195 5.5837 1.0000
50.0939 -7.3661 5.5812 1.0000
50.0939 -7.2129 5.5788 1.0000
50.0939 -7.0598 5.5764 1.0000
50.0939 -5.9917 5.5612 1.0000
50.0939 -5.8396 5.5592 1.0000
50.0939 -5.0805 5.5502 1.0000
50.0939 -4.9289 5.5485 1.0000
50.0939 -4.7775 5.5469 1.0000
50.0939 -4.3237 5.5424 1.0000
50.0939 -4.1726 5.5410 1.0000
50.0939 -3.7197 5.5371 1.0000
50.0939 -3.5689 5.5359 1.0000
50.0939 -3.2674 5.5336 1.0000
50.0939 -2.6652 5.5297 1.0000
50.0939 -2.5147 5.5288 1.0000
50.0939 -2.3643 5.5280 1.0000
50.0939 -2.2140 5.5272 1.0000
50.0939 -1.9134 5.5259 1.0000
50.0939 -1.7631 5.5253 1.0000
50.0939 -1.6130 5.5247 1.0000
50.0939 -1.4628 5.5242 1.0000
50.0939 -1.0124 5.5230 1.0000
50.0939 -0.8623 5.5227 1.0000
50.0939 -0.5622 5.5222 1.0000
50.0939 -0.4122 5.5220 1.0000
50.0939 -0.2621 5.5219 1.0000
50.0939 -0.1121 5.5219 1.0000
50.0939 0.0380 5.5219 1.0000
50.0939 0.3380 5.5220 1.0000
50.0939 0.4880 5.5221 1.0000
50.0939 0.6381 5.5223 1.0000
50.0939 0.7882 5.5225 1.0000
50.0939 1.3886 5.5240 1.0000
50.0939 1.5388 5.5245 1.0000
50.0939 1.8392 5.5256 1.0000
50.0939 1.9895 5.5262 1.0000
50.0939 2.2900 5.5276 1.0000
50.0939 2.5908 5.5292 1.0000
50.0939 2.8918 5.5310 1.0000
50.0939 4.9515 4.6897 1.0000
50.0939 5.1031 4.6911 1.0000
50.0939 5.2547 4.6926 1.0000
50.0939 5.4064 4.6941 1.0000
50.0939 5.7102 4.6972 1.0000
50.0939 6.0144 4.7005 1.0000
50.0939 6.7768 4.7095 1.0000
50.0939 6.9296 4.7114 1.0000
50.0939 7.0826 4.7134 1.0000
50.0939 7.3889 4.7175 1.0000
50.0939 7.5423 4.7196 1.0000
50.0939 8.1572 4.7285 1.0000
50.0939 8.3113 4.7308 1.0000
50.0939 8.6199 4.7356 1.0000
50.0939 8.7745 4.7380 1.0000
50.0939 9.0841 4.7431 1.0000
50.0939 9.2391 4.7457 1.0000
50.0939 9.3943 4.7483 1.0000
50.0939 9.5497 4.7510 1.0000
50.0939 9.7054 4.7538 1.0000
50.0939 10.1732 4.7622 1.0000
50.0939 10.3295 4.7652 1.0000
50.0939 10.4860 4.7681 1.0000
50.0939 10.7996 4.7742 1.0000
50.0939 11.2715 4.7837 1.0000
50.0939 11.4293 4.7869 1.0000
50.0939 11.5872 4.7902 1.0000
50.0939 11.9038 4.7969 1.0000
50.0939 12.2212 4.8039 1.0000
50.0939 12.5396 4.8110 1.0000
50.0939 12.6992 4.8146 1.0000
50.0939 13.0190 4.8220 1.0000
50.0939 13.1793 4.8258 1.0000
50.0939 -13.3446 4.8297 1.0000
50.0939 -12.8637 4.8184 1.0000
50.0939 -12.7039 4.8147 1.0000
50.0939 -12.5444 4.8111 1.0000
50.0939 -12.2260 4.8040 1.0000
50.0939 -11.7501 4.7937 1.0000
50.0939 -11.5919 4.7903 1.0000
50.0939 -11.1187 4.7806 1.0000
50.0939 -10.9613 4.7774 1.0000
50.0939 -10.3341 4.7653 1.0000
50.0939 -9.3989 4.7484 1.0000
50.0939 -8.6245 4.7356 1.0000
50.0939 -8.4701 4.7332 1.0000
50.0939 -8.3159 4.7309 1.0000
50.0939 -8.0078 4.7262 1.0000
50.0939 -7.8540 4.7240 1.0000
50.0938 -7.2402 4.7155 1.0000
50.0938 -7.0871 4.7135 1.0000
50.0938 -6.9341 4.7115 1.0000
50.0938 -6.6286 4.7077 1.0000
50.0938 -6.1712 4.7023 1.0000
50.0938 -5.4109 4.6941 1.0000
50.0938 -5.2592 4.6926 1.0000
50.0938 -4.9560 4.6898 1.0000
50.0938 -4.5019 4.6858 1.0000
50.0938 -4.3507 4.6845 1.0000
50.0938 -3.5958 4.6790 1.0000
50.0938 -3.2943 4.6771 1.0000
50.0938 -3.1437 4.6762 1.0000
50.0938 -2.6920 4.6737 1.0000
50.0938 -2.5416 4.6730 1.0000
50.0939 -2.3912 4.6723 1.0000
50.0938 -2.2408 4.6716 1.0000
50.0939 -1.9402 4.6705 1.0000
50.0939 -1.7900 4.6700 1.0000
50.0939 -1.6398 4.6695 1.0000
50.0939 -1.4896 4.6690 1.0000
50.0939 -1.3394 4.6686 1.0000
50.0939 -1.1893 4.6683 1.0000
50.0939 -0.8891 4.6677 1.0000
50.0939 -0.7390 4.6675 1.0000
50.0939 -0.5890 4.6673 1.0000
50.0939 -0.4389 4.6672 1.0000
50.0939 -0.1389 4.6670 1.0000
50.0939 0.0112 4.6670 1.0000
50.0939 0.1612 4.6670 1.0000
50.0939 0.3113 4.6671 1.0000
50.0939 0.4613 4.6672 1.0000
50.0939 0.6113 4.6673 1.0000
50.0939 0.7614 4.6675 1.0000
50.0939 0.9115 4.6678 1.0000
50.0939 1.5120 4.6691 1.0000
50.0939 1.8124 4.6700 1.0000
50.0939 2.1129 4.6711 1.0000
50.0939 2.2632 4.6717 1.0000
50.0939 2.4136 4.6724 1.0000
50.0939 2.7144 4.6738 1.0000
50.0939 3.4675 4.6781 1.0000
50.0939 3.6182 4.6791 1.0000
50.0939 4.3732 4.6847 1.0000
50.0939 4.8271 4.6886 1.0000
50.0939 4.9786 4.6900 1.0000
50.0939 5.4336 4.6944 1.0000
50.0939 5.8894 4.6991 1.0000
50.0939 6.3462 4.7043 1.0000
50.0939 6.8041 4.7098 1.0000
50.0939 6.9570 4.7118 1.0000
50.0939 7.1100 4.7138 1.0000
50.0939 7.8769 4.7243 1.0000
50.0939 8.0307 4.7266 1.0000
50.0939 8.1847 4.7289 1.0000
50.0939 8.6475 4.7360 1.0000
50.0939 8.9568 4.7410 1.0000
50.0939 9.2668 4.7462 1.0000
50.0939 9.5775 4.7515 1.0000
50.0939 9.7331 4.7543 1.0000
50.0939 10.8276 4.7748 1.0000
50.0939 10.9847 4.7779 1.0000
50.0939 11.2996 4.7842 1.0000
50.0939 11.6154 4.7908 1.0000
50.0939 11.7736 4.7942 1.0000
50.0939 11.9321 4.7975 1.0000
50.0939 12.2496 4.8045 1.0000
50.0939 12.5681 4.8116 1.0000
50.0939 12.7277 4.8153 1.0000
50.0939 12.8875 4.8190 1.0000
50.0939 13.3686 4.8303 1.0000
50.0939 -12.9952 4.8215 1.0000
50.0939 -12.5159 4.8104 1.0000
50.0939 -12.1976 4.8033 1.0000
50.0939 -11.7218 4.7931 1.0000
50.0939 -11.5637 4.7897 1.0000
50.0939 -10.7762 4.7738 1.0000
50.0939 -10.6193 4.7707 1.0000
50.0939 -10.4627 4.7677 1.0000
50.0939 -9.8379 4.7561 1.0000
50.0939 -9.6821 4.7534 1.0000
50.0939 -9.5266 4.7506 1.0000
50.0939 -9.3712 4.7479 1.0000
50.0939 -9.0610 4.7427 1.0000
50.0939 -8.9061 4.7402 1.0000
50.0939 -8.5970 4.7352 1.0000
50.0939 -8.4425 4.7328 1.0000
50.0939 -8.2883 4.7304 1.0000
50.0939 -8.1343 4.7281 1.0000
50.0939 -7.9803 4.7258 1.0000
50.0939 -7.6729 4.7214 1.0000
50.0939 -7.5195 4.7193 1.0000
50.0938 -7.3661 4.7172 1.0000
50.0938 -7.2129 4.7151 1.0000
50.0938 -6.9069 4.7111 1.0000
50.0938 -6.7541 4.7092 1.0000
50.0938 -6.4488 4.7055 1.0000
50.0938 -6.2962 4.7037 1.0000
50.0938 -5.6876 4.6970 1.0000
50.0938 -5.3838 4.6939 1.0000
50.0938 -4.9290 4.6895 1.0000
50.0938 -4.6262 4.6868 1.0000
50.0938 -4.4749 4.6856 1.0000
50.0938 -4.3237 4.6843 1.0000
50.0938 -4.0216 4.6820 1.0000
50.0938 -3.8706 4.6809 1.0000
50.0938 -3.5688 4.6788 1.0000
50.0938 -3.4181 4.6778 1.0000
50.0938 -3.2674 4.6769 1.0000
50.0938 -3.1168 4.6760 1.0000
50.0938 -2.6652 4.6736 1.0000
50.0939 -2.3643 4.6722 1.0000
50.0939 -2.0636 4.6709 1.0000
50.0939 -1.9134 4.6704 1.0000
50.0939 -1.7632 4.6699 1.0000
50.0939 -1.6130 4.6694 1.0000
50.0939 -1.3127 4.6686 1.0000
50.0939 -1.1625 4.6682 1.0000
50.0939 -0.8623 4.6677 1.0000
50.0939 -0.7122 4.6675 1.0000
50.0939 -0.5622 4.6673 1.0000
50.0939 -0.2621 4.6670 1.0000
50.0939 0.0380 4.6670 1.0000
50.0939 0.1880 4.6670 1.0000
50.0939 0.4881 4.6672 1.0000
50.0939 0.6381 4.6674 1.0000
50.0939 0.7882 4.6676 1.0000
50.0939 0.9382 4.6678 1.0000
50.0939 1.0884 4.6681 1.0000
50.0939 1.2385 4.6684 1.0000
50.0939 2.5908 4.6732 1.0000
50.0939 2.8918 4.6747 1.0000
50.0939 5.1031 3.8345 1.0000
50.0939 5.2548 3.8357 1.0000
50.0939 5.4064 3.8369 1.0000
50.0939 5.5583 3.8382 1.0000
50.0939 5.8622 3.8408 1.0000
50.0939 6.9296 3.8511 1.0000
50.0939 7.3890 3.8561 1.0000
50.0939 7.5423 3.8578 1.0000
50.0939 7.6959 3.8596 1.0000
50.0939 8.0032 3.8632 1.0000
50.0939 8.1572 3.8650 1.0000
50.0939 8.3113 3.8669 1.0000
50.0939 8.7745 3.8729 1.0000
50.0939 9.2392 3.8791 1.0000
50.0939 9.7054 3.8857 1.0000
50.0939 10.1732 3.8927 1.0000
50.0939 10.3295 3.8950 1.0000
50.0939 10.4860 3.8975 1.0000
50.0939 10.7996 3.9024 1.0000
50.0939 10.9567 3.9050 1.0000
50.0939 11.1140 3.9075 1.0000
50.0939 11.5873 3.9155 1.0000
50.0939 11.7454 3.9183 1.0000
50.0939 11.9038 3.9210 1.0000
50.0939 12.5396 3.9325 1.0000
50.0939 12.6993 3.9355 1.0000
50.0939 -13.3446 3.9478 1.0000
50.0939 -13.1841 3.9447 1.0000
50.0939 -12.8637 3.9386 1.0000
50.0939 -12.7039 3.9356 1.0000
50.0939 -12.3850 3.9297 1.0000
50.0939 -11.4339 3.9129 1.0000
50.0939 -11.2762 3.9103 1.0000
50.0939 -10.9613 3.9051 1.0000
50.0939 -10.6473 3.9000 1.0000
50.0939 -10.4906 3.8975 1.0000
50.0939 -10.1778 3.8927 1.0000
50.0939 -9.8657 3.8881 1.0000
50.0939 -9.3989 3.8814 1.0000
50.0939 -9.2437 3.8792 1.0000
50.0939 -9.0887 3.8771 1.0000
50.0939 -8.9338 3.8750 1.0000
50.0939 -8.6245 3.8709 1.0000
50.0939 -7.8540 3.8614 1.0000
50.0939 -7.7004 3.8596 1.0000
50.0939 -7.5468 3.8579 1.0000
50.0938 -7.2402 3.8544 1.0000
50.0938 -6.7813 3.8496 1.0000
50.0938 -6.6286 3.8480 1.0000
50.0938 -6.4760 3.8465 1.0000
50.0938 -6.3235 3.8451 1.0000
50.0938 -6.0189 3.8422 1.0000
50.0938 -5.8667 3.8409 1.0000
50.0938 -5.5627 3.8382 1.0000
50.0938 -5.4110 3.8370 1.0000
50.0938 -5.2592 3.8358 1.0000
50.0938 -5.1075 3.8346 1.0000
50.0938 -4.8046 3.8323 1.0000
50.0938 -4.6532 3.8312 1.0000
50.0938 -4.5019 3.8302 1.0000
50.0938 -4.3507 3.8292 1.0000
50.0938 -4.1996 3.8282 1.0000
50.0938 -4.0485 3.8272 1.0000
50.0938 -3.7466 3.8254 1.0000
50.0938 -3.5957 3.8246 1.0000
50.0938 -2.9931 3.8216 1.0000
50.0938 -2.3912 3.8191 1.0000
50.0939 -2.2407 3.8186 1.0000
50.0939 -1.9402 3.8177 1.0000
50.0939 -1.6397 3.8168 1.0000
50.0939 -1.4896 3.8165 1.0000
50.0939 -0.8891 3.8154 1.0000
50.0939 -0.5889 3.8151 1.0000
50.0939 -0.4389 3.8149 1.0000
50.0939 0.0112 3.8148 1.0000
50.0939 0.1612 3.8148 1.0000
50.0939 0.3113 3.8149 1.0000
50.0939 0.4613 3.8150 1.0000
50.0939 0.6114 3.8151 1.0000
50.0939 0.7614 3.8152 1.0000
50.0939 0.9115 3.8154 1.0000
50.0939 1.2117 3.8159 1.0000
50.0939 1.3618 3.8162 1.0000
50.0939 1.5120 3.8165 1.0000
50.0939 1.9627 3.8177 1.0000
50.0939 2.1129 3.8182 1.0000
50.0939 2.2632 3.8187 1.0000
50.0939 2.4136 3.8192 1.0000
50.0939 2.5640 3.8198 1.0000
50.0939 2.7145 3.8204 1.0000
50.0939 3.0155 3.8217 1.0000
50.0939 3.3168 3.8231 1.0000
50.0939 3.4675 3.8239 1.0000
50.0939 3.6183 3.8247 1.0000
50.0939 3.9200 3.8265 1.0000
50.0939 4.2221 3.8283 1.0000
50.0939 4.3732 3.8293 1.0000
50.0939 4.5245 3.8303 1.0000
50.0939 4.6757 3.8314 1.0000
50.0939 4.8271 3.8325 1.0000
50.0939 5.2818 3.8359 1.0000
50.0939 5.7374 3.8397 1.0000
50.0939 5.8894 3.8411 1.0000
50.0939 6.0416 3.8424 1.0000
50.0939 6.6514 3.8483 1.0000
50.0939 7.2631 3.8547 1.0000
50.0939 7.7232 3.8599 1.0000
50.0939 7.8769 3.8617 1.0000
50.0939 8.0307 3.8635 1.0000
50.0939 8.1847 3.8654 1.0000
50.0939 8.3388 3.8673 1.0000
50.0939 8.9568 3.8753 1.0000
50.0939 9.1118 3.8774 1.0000
50.0939 9.2668 3.8795 1.0000
50.0939 9.5775 3.8839 1.0000
50.0939 9.7331 3.8861 1.0000
50.0939 10.3574 3.8955 1.0000
50.0939 11.1421 3.9080 1.0000
50.0939 11.4575 3.9133 1.0000
50.0939 11.9321 3.9215 1.0000
50.0939 12.4088 3.9301 1.0000
50.0939 12.5681 3.9330 1.0000
50.0939 12.7277 3.9360 1.0000
50.0939 12.8875 3.9390 1.0000
50.0939 13.0477 3.9421 1.0000
50.0939 13.2080 3.9452 1.0000
50.0939 13.3686 3.9483 1.0000
50.0939 -12.6754 3.9350 1.0000
50.0939 -12.5159 3.9321 1.0000
50.0939 -12.3566 3.9291 1.0000
50.0939 -12.1976 3.9263 1.0000
50.0939 -12.0388 3.9234 1.0000
50.0939 -11.8802 3.9206 1.0000
50.0939 -11.4057 3.9124 1.0000
50.0939 -11.2481 3.9098 1.0000
50.0939 -10.9333 3.9046 1.0000
50.0939 -10.6193 3.8996 1.0000
50.0939 -10.4627 3.8971 1.0000
50.0939 -10.3062 3.8947 1.0000
50.0939 -9.9938 3.8900 1.0000
50.0939 -9.8379 3.8877 1.0000
50.0939 -9.3712 3.8810 1.0000
50.0939 -9.0610 3.8767 1.0000
50.0939 -8.4425 3.8686 1.0000
50.0939 -8.1343 3.8648 1.0000
50.0939 -7.6729 3.8593 1.0000
50.0938 -7.2129 3.8541 1.0000
50.0938 -7.0598 3.8525 1.0000
50.0938 -6.7540 3.8493 1.0000
50.0938 -6.6013 3.8478 1.0000
50.0938 -6.4488 3.8463 1.0000
50.0938 -6.2963 3.8448 1.0000
50.0938 -5.9917 3.8420 1.0000
50.0938 -5.8396 3.8406 1.0000
50.0938 -5.6875 3.8393 1.0000
50.0938 -5.5357 3.8380 1.0000
50.0938 -4.7775 3.8321 1.0000
50.0938 -4.4749 3.8300 1.0000
50.0938 -4.1725 3.8280 1.0000
50.0938 -3.7197 3.8253 1.0000
50.0938 -3.5689 3.8245 1.0000
50.0938 -3.2674 3.8229 1.0000
50.0938 -2.9662 3.8215 1.0000
50.0938 -2.8156 3.8208 1.0000
50.0938 -2.5147 3.8196 1.0000
50.0939 -2.2139 3.8185 1.0000
50.0939 -1.9133 3.8176 1.0000
50.0939 -1.7631 3.8172 1.0000
50.0939 -1.1625 3.8158 1.0000
50.0939 -0.7122 3.8152 1.0000
50.0939 -0.5621 3.8150 1.0000
50.0939 -0.4121 3.8149 1.0000
50.0939 0.1880 3.8148 1.0000
50.0939 0.3381 3.8149 1.0000
50.0939 0.4882 3.8150 1.0000
50.0939 0.6382 3.8151 1.0000
50.0939 0.7882 3.8153 1.0000
50.0939 1.3887 3.8163 1.0000
50.0939 1.6890 3.8170 1.0000
50.0939 1.8392 3.8174 1.0000
50.0939 2.2901 3.8188 1.0000
50.0939 2.5909 3.8199 1.0000
50.0939 2.7413 3.8205 1.0000
50.0939 2.8918 3.8212 1.0000
50.0939 4.4974 2.9767 1.0000
50.0939 4.6487 2.9775 1.0000
50.0939 4.9516 2.9792 1.0000
50.0939 5.1031 2.9801 1.0000
50.0939 5.4064 2.9820 1.0000
50.0939 5.5583 2.9830 1.0000
50.0939 5.7102 2.9840 1.0000
50.0939 5.8623 2.9850 1.0000
50.0939 6.0144 2.9861 1.0000
50.0939 6.1666 2.9872 1.0000
50.0939 6.3190 2.9883 1.0000
50.0939 6.6241 2.9906 1.0000
50.0939 6.7768 2.9918 1.0000
50.0939 6.9296 2.9930 1.0000
50.0939 7.0826 2.9943 1.0000
50.0939 7.2357 2.9956 1.0000
50.0939 7.3889 2.9969 1.0000
50.0939 7.5423 2.9982 1.0000
50.0939 7.6958 2.9996 1.0000
50.0939 7.8495 3.0010 1.0000
50.0939 8.0032 3.0024 1.0000
50.0939 8.3112 3.0053 1.0000
50.0939 8.6199 3.0084 1.0000
50.0939 8.7745 3.0099 1.0000
50.0939 8.9292 3.0115 1.0000
50.0939 9.2391 3.0148 1.0000
50.0939 9.7053 3.0199 1.0000
50.0939 10.0170 3.0235 1.0000
50.0939 10.3295 3.0272 1.0000
50.0939 10.9567 3.0349 1.0000
50.0939 11.2716 3.0389 1.0000
50.0939 11.4293 3.0410 1.0000
50.0939 11.7454 3.0452 1.0000
50.0939 11.9038 3.0474 1.0000
50.0939 12.3803 3.0540 1.0000
