ply
format ascii 1.0
element vertex 1593
property float32 x
property float32 y
property float32 z
property float32 I
end_header
50.0938 9.3300 -0.4303 1.0000
50.0938 9.6408 -0.4308 1.0000
50.0938 9.7964 -0.4311 1.0000
50.0938 9.9522 -0.4313 1.0000
50.0938 10.1082 -0.4316 1.0000
50.0938 10.2645 -0.4319 1.0000
50.0938 10.4209 -0.4321 1.0000
50.0938 10.5775 -0.4324 1.0000
50.0938 10.7343 -0.4327 1.0000
50.0938 11.3635 -0.4338 1.0000
50.0938 11.5214 -0.4341 1.0000
50.0938 11.9962 -0.4350 1.0000
50.0938 12.1549 -0.4353 1.0000
50.0938 12.3139 -0.4357 1.0000
50.0938 12.7921 -0.4366 1.0000
50.0938 12.9521 -0.4370 1.0000
50.0938 -13.0909 -0.4373 1.0000
50.0938 -12.4518 -0.4359 1.0000
50.0938 -12.2927 -0.4356 1.0000
50.0938 -12.1337 -0.4353 1.0000
50.0938 -11.9750 -0.4350 1.0000
50.0938 -11.6583 -0.4344 1.0000
50.0938 -11.5003 -0.4341 1.0000
50.0938 -11.0275 -0.4332 1.0000
50.0938 -10.8703 -0.4329 1.0000
50.0938 -10.0874 -0.4316 1.0000
50.0938 -9.9314 -0.4313 1.0000
50.0938 -9.7756 -0.4310 1.0000
50.0938 -9.6200 -0.4308 1.0000
50.0938 -9.3093 -0.4303 1.0000
50.0938 -8.8445 -0.4296 1.0000
50.0938 -8.6898 -0.4294 1.0000
50.0938 -8.3811 -0.4289 1.0000
50.0938 -8.2270 -0.4287 1.0000
50.0938 -7.7655 -0.4281 1.0000
50.0938 -7.6120 -0.4279 1.0000
50.0938 -7.3052 -0.4275 1.0000
50.0938 -6.9991 -0.4272 1.0000
50.0938 -6.8463 -0.4270 1.0000
50.0938 -6.2360 -0.4263 1.0000
50.0938 -6.0837 -0.4262 1.0000
50.0938 -5.9315 -0.4260 1.0000
50.0938 -5.7795 -0.4259 1.0000
50.0938 -5.6275 -0.4257 1.0000
50.0938 -5.4757 -0.4256 1.0000
50.0938 -5.1723 -0.4253 1.0000
24.9490 -2.4251 -0.2117 1.0000
24.9429 -2.2738 -0.2115 1.0000
24.9416 -2.1984 -0.2115 1.0000
24.9445 -1.8978 -0.2113 1.0000
24.8236 -1.7392 -0.2102 1.0000
25.2591 -1.6937 -0.2138 1.0000
24.8243 -1.5898 -0.2101 1.0000
24.8266 -1.5154 -0.2101 1.0000
24.8312 -1.3664 -0.2100 1.0000
24.8335 -1.2920 -0.2100 1.0000
24.8353 -1.2175 -0.2100 1.0000
24.8296 -0.9937 -0.2099 1.0000
24.8227 -0.7702 -0.2097 1.0000
24.8735 -0.6972 -0.2101 1.0000
24.9351 -0.6242 -0.2107 1.0000
24.9939 -0.4759 -0.2111 1.0000
24.9967 -0.4011 -0.2111 1.0000
25.0000 -0.3263 -0.2112 1.0000
25.0065 -0.1766 -0.2112 1.0000
25.0131 -0.0268 -0.2112 1.0000
25.0164 0.0481 -0.2113 1.0000
25.0197 0.1230 -0.2113 1.0000
25.0296 0.3480 -0.2114 1.0000
25.0329 0.4230 -0.2114 1.0000
25.0362 0.4981 -0.2115 1.0000
25.0429 0.6482 -0.2116 1.0000
25.1999 0.8034 -0.2129 1.0000
24.9656 1.0205 -0.2110 1.0000
24.9679 1.0955 -0.2111 1.0000
24.9748 1.3207 -0.2112 1.0000
24.9770 1.3958 -0.2113 1.0000
24.9783 1.4709 -0.2113 1.0000
24.9764 1.5459 -0.2113 1.0000
24.9741 1.6208 -0.2114 1.0000
24.9718 1.6958 -0.2114 1.0000
24.9695 1.7707 -0.2114 1.0000
25.1852 1.9377 -0.2133 1.0000
25.0343 2.0015 -0.2121 1.0000
25.0657 2.0796 -0.2124 1.0000
24.9980 2.1494 -0.2119 1.0000
24.9980 2.2248 -0.2119 1.0000
24.9980 2.3003 -0.2120 1.0000
24.9980 2.4514 -0.2121 1.0000
25.0743 2.5346 -0.2128 1.0000
50.0938 5.2154 -0.4253 1.0000
50.0938 5.3671 -0.4255 1.0000
50.0938 5.5189 -0.4256 1.0000
50.0938 5.6707 -0.4258 1.0000
50.0938 6.5843 -0.4267 1.0000
50.0938 6.8898 -0.4270 1.0000
50.0938 7.0426 -0.4272 1.0000
50.0938 7.5022 -0.4278 1.0000
50.0938 7.6556 -0.4280 1.0000
50.0938 7.8092 -0.4282 1.0000
50.0938 8.2708 -0.4288 1.0000
50.0938 8.7338 -0.4294 1.0000
50.0938 8.8885 -0.4297 1.0000
50.0938 9.0433 -0.4299 1.0000
50.0938 9.5087 -0.4306 1.0000
50.0938 10.1319 -0.4316 1.0000
50.0938 10.2881 -0.4319 1.0000
50.0938 10.6011 -0.4324 1.0000
50.0938 10.9150 -0.4330 1.0000
50.0938 11.2297 -0.4336 1.0000
50.0938 11.7033 -0.4345 1.0000
50.0938 12.0201 -0.4351 1.0000
50.0938 12.1789 -0.4354 1.0000
50.0938 12.4971 -0.4360 1.0000
50.0938 12.6566 -0.4363 1.0000
50.0938 12.9763 -0.4370 1.0000
50.0938 13.1365 -0.4374 1.0000
50.0938 13.2969 -0.4377 1.0000
50.0938 -13.3876 -0.4379 1.0000
50.0938 -13.2270 -0.4376 1.0000
50.0938 -13.0666 -0.4372 1.0000
50.0938 -12.9066 -0.4369 1.0000
50.0938 -12.5871 -0.4362 1.0000
50.0938 -12.1097 -0.4352 1.0000
50.0938 -11.9511 -0.4349 1.0000
50.0938 -10.8466 -0.4329 1.0000
50.0938 -10.6897 -0.4326 1.0000
50.0938 -10.5329 -0.4323 1.0000
50.0938 -10.3764 -0.4320 1.0000
50.0938 -10.2200 -0.4318 1.0000
50.0938 -9.9079 -0.4313 1.0000
50.0938 -9.5965 -0.4308 1.0000
50.0938 -9.4411 -0.4305 1.0000
50.0938 -8.9759 -0.4298 1.0000
50.0938 -8.6665 -0.4293 1.0000
50.0938 -8.3578 -0.4289 1.0000
50.0938 -7.5887 -0.4279 1.0000
50.0938 -7.4354 -0.4277 1.0000
50.0938 -6.9761 -0.4271 1.0000
50.0938 -6.8232 -0.4270 1.0000
50.0938 -6.3653 -0.4265 1.0000
50.0938 -6.0607 -0.4261 1.0000
50.0938 -5.6046 -0.4257 1.0000
50.0938 -5.4527 -0.4256 1.0000
50.0938 -5.3010 -0.4254 1.0000
24.9455 -2.3380 -0.2116 1.0000
24.9417 -2.1870 -0.2114 1.0000
24.9432 -2.0367 -0.2114 1.0000
24.9439 -1.9616 -0.2113 1.0000
24.9446 -1.8865 -0.2113 1.0000
24.8245 -1.5786 -0.2101 1.0000
24.8269 -1.5041 -0.2101 1.0000
24.8338 -1.1316 -0.2099 1.0000
24.8316 -1.0570 -0.2099 1.0000
24.8292 -0.9825 -0.2099 1.0000
24.8246 -0.8334 -0.2098 1.0000
24.8698 -0.6859 -0.2101 1.0000
24.9812 -0.6141 -0.2110 1.0000
24.9915 -0.5394 -0.2111 1.0000
24.9944 -0.4646 -0.2111 1.0000
25.0005 -0.3149 -0.2112 1.0000
25.0070 -0.1652 -0.2112 1.0000
25.0136 -0.0155 -0.2112 1.0000
25.0169 0.0594 -0.2113 1.0000
25.0235 0.2093 -0.2113 1.0000
25.0301 0.3593 -0.2114 1.0000
25.0400 0.5845 -0.2115 1.0000
24.8237 -1.3027 -0.6299 1.0000
24.8241 -1.2282 -0.6298 1.0000
24.8235 -1.0792 -0.6296 1.0000
24.8226 -1.0047 -0.6295 1.0000
27.6883 -0.6228 -0.7018 1.0000
27.6903 -0.5398 -0.7018 1.0000
27.6919 -0.4570 -0.7018 1.0000
27.6960 -0.1252 -0.7018 1.0000
27.6964 -0.0423 -0.7018 1.0000
27.6966 0.1236 -0.7019 1.0000
27.6962 0.2066 -0.7019 1.0000
27.6956 0.2895 -0.7019 1.0000
27.6946 0.3725 -0.7019 1.0000
27.6937 0.4554 -0.7019 1.0000
27.6924 0.5382 -0.7019 1.0000
27.6907 0.6212 -0.7019 1.0000
27.6819 0.9529 -0.7019 1.0000
27.6691 1.2845 -0.7019 1.0000
27.6652 1.3673 -0.7019 1.0000
24.9662 1.3089 -0.6335 1.0000
24.9666 1.3839 -0.6336 1.0000
24.9671 1.4589 -0.6338 1.0000
27.6315 1.9470 -0.7019 1.0000
27.6257 2.0297 -0.7019 1.0000
27.6135 2.1951 -0.7020 1.0000
27.6068 2.2778 -0.7020 1.0000
27.5780 2.6084 -0.7020 1.0000
27.5702 2.6909 -0.7020 1.0000
27.5623 2.7735 -0.7020 1.0000
27.5278 3.1036 -0.7020 1.0000
27.5185 3.1859 -0.7020 1.0000
27.4992 3.3508 -0.7020 1.0000
27.4891 3.4331 -0.7020 1.0000
27.4789 3.5155 -0.7020 1.0000
27.4684 3.5978 -0.7020 1.0000
27.4239 3.9266 -0.7020 1.0000
27.3879 4.1729 -0.7020 1.0000
27.3627 4.3368 -0.7020 1.0000
27.3497 4.4189 -0.7021 1.0000
27.3365 4.5006 -0.7021 1.0000
27.3230 4.5825 -0.7021 1.0000
27.2812 4.8279 -0.7021 1.0000
27.2667 4.9096 -0.7021 1.0000
27.2371 5.0729 -0.7021 1.0000
27.2220 5.1545 -0.7021 1.0000
27.2066 5.2359 -0.7021 1.0000
27.1907 5.3174 -0.7021 1.0000
27.1090 5.7241 -0.7021 1.0000
27.0919 5.8054 -0.7021 1.0000
27.0745 5.8865 -0.7021 1.0000
27.0567 5.9675 -0.7021 1.0000
27.0389 6.0485 -0.7021 1.0000
27.0209 6.1295 -0.7021 1.0000
26.9838 6.2913 -0.7021 1.0000
26.8873 6.6948 -0.7021 1.0000
26.8672 6.7752 -0.7022 1.0000
26.8471 6.8558 -0.7022 1.0000
26.7847 7.0967 -0.7022 1.0000
26.7621 -7.0794 -0.7015 1.0000
26.8043 -6.9191 -0.7015 1.0000
26.8457 -6.7585 -0.7015 1.0000
26.8660 -6.6781 -0.7015 1.0000
26.9058 -6.5172 -0.7015 1.0000
26.9447 -6.3561 -0.7015 1.0000
27.0195 -6.0329 -0.7016 1.0000
27.0555 -5.8710 -0.7016 1.0000
27.1245 -5.5468 -0.7016 1.0000
27.1739 -5.3030 -0.7016 1.0000
27.2208 -5.0587 -0.7016 1.0000
27.2360 -4.9772 -0.7016 1.0000
27.2509 -4.8956 -0.7016 1.0000
27.2655 -4.8139 -0.7016 1.0000
27.3219 -4.4872 -0.7016 1.0000
27.4345 -3.7495 -0.7017 1.0000
27.4456 -3.6674 -0.7017 1.0000
27.4674 -3.5030 -0.7017 1.0000
27.4881 -3.3384 -0.7017 1.0000
27.4983 -3.2561 -0.7017 1.0000
27.5176 -3.0915 -0.7017 1.0000
27.5776 -2.5140 -0.7017 1.0000
27.5924 -2.3488 -0.7017 1.0000
27.6062 -2.1836 -0.7017 1.0000
27.6127 -2.1009 -0.7018 1.0000
27.6252 -1.9354 -0.7018 1.0000
24.8233 -1.3660 -0.6300 1.0000
27.6757 -1.0246 -0.7018 1.0000
27.6787 -0.9418 -0.7018 1.0000
27.6841 -0.7761 -0.7018 1.0000
27.6866 -0.6932 -0.7018 1.0000
27.6886 -0.6103 -0.7018 1.0000
27.6905 -0.5273 -0.7018 1.0000
27.6922 -0.4444 -0.7018 1.0000
27.6935 -0.3615 -0.7018 1.0000
27.6945 -0.2785 -0.7018 1.0000
27.6955 -0.1956 -0.7018 1.0000
27.6961 -0.1126 -0.7018 1.0000
27.6964 -0.0297 -0.7019 1.0000
27.6955 0.3020 -0.7019 1.0000
27.6885 0.7167 -0.7019 1.0000
27.6842 0.8825 -0.7019 1.0000
27.6786 1.0483 -0.7019 1.0000
27.6755 1.1311 -0.7019 1.0000
27.6722 1.2140 -0.7019 1.0000
27.6684 1.2969 -0.7019 1.0000
24.9666 1.5453 -0.6339 1.0000
27.6306 1.9595 -0.7019 1.0000
27.6248 2.0421 -0.7019 1.0000
27.6187 2.1250 -0.7019 1.0000
27.6126 2.2077 -0.7020 1.0000
27.5918 2.4556 -0.7020 1.0000
27.5770 2.6209 -0.7020 1.0000
27.5529 2.8686 -0.7020 1.0000
27.5355 3.0335 -0.7020 1.0000
27.5171 3.1983 -0.7020 1.0000
27.4977 3.3632 -0.7020 1.0000
27.4876 3.4456 -0.7020 1.0000
27.4773 3.5279 -0.7020 1.0000
27.4668 3.6102 -0.7020 1.0000
27.4450 3.7746 -0.7020 1.0000
27.4337 3.8568 -0.7020 1.0000
27.4221 3.9389 -0.7020 1.0000
27.4104 4.0211 -0.7020 1.0000
27.3984 4.1033 -0.7020 1.0000
27.3860 4.1852 -0.7020 1.0000
27.3735 4.2672 -0.7020 1.0000
27.3608 4.3492 -0.7020 1.0000
27.3477 4.4311 -0.7021 1.0000
27.3209 4.5949 -0.7021 1.0000
27.3072 4.6767 -0.7021 1.0000
27.2934 4.7586 -0.7021 1.0000
27.2791 4.8403 -0.7021 1.0000
27.2645 4.9220 -0.7021 1.0000
27.2499 5.0036 -0.7021 1.0000
27.2349 5.0852 -0.7021 1.0000
27.2197 5.1667 -0.7021 1.0000
27.2042 5.2482 -0.7021 1.0000
27.1399 5.5739 -0.7021 1.0000
27.1232 5.6553 -0.7021 1.0000
27.0893 5.8176 -0.7021 1.0000
27.0361 6.0608 -0.7021 1.0000
27.0181 6.1418 -0.7021 1.0000
26.9810 6.3035 -0.7021 1.0000
26.9042 6.6263 -0.7021 1.0000
26.8440 6.8679 -0.7022 1.0000
26.8024 7.0286 -0.7022 1.0000
26.7439 -7.1474 -0.7015 1.0000
26.7655 -7.0673 -0.7015 1.0000
26.7866 -6.9871 -0.7015 1.0000
26.8075 -6.9070 -0.7015 1.0000
26.8489 -6.7464 -0.7015 1.0000
26.8891 -6.5855 -0.7015 1.0000
26.9089 -6.5050 -0.7015 1.0000
26.9284 -6.4243 -0.7015 1.0000
26.9666 -6.2631 -0.7015 1.0000
27.0040 -6.1015 -0.7016 1.0000
27.0403 -5.9398 -0.7016 1.0000
27.0758 -5.7779 -0.7016 1.0000
27.0930 -5.6968 -0.7016 1.0000
27.1271 -5.5345 -0.7016 1.0000
27.1436 -5.4532 -0.7016 1.0000
27.1762 -5.2907 -0.7016 1.0000
27.2232 -5.0464 -0.7016 1.0000
27.2383 -4.9648 -0.7016 1.0000
27.2677 -4.8016 -0.7016 1.0000
27.2965 -4.6384 -0.7016 1.0000
27.3103 -4.5567 -0.7016 1.0000
27.3239 -4.4748 -0.7016 1.0000
27.3376 -4.3929 -0.7016 1.0000
27.3635 -4.2293 -0.7016 1.0000
27.3888 -4.0654 -0.7017 1.0000
27.4009 -3.9834 -0.7017 1.0000
27.4691 -3.4904 -0.7017 1.0000
27.4795 -3.4082 -0.7017 1.0000
27.5191 -3.0789 -0.7017 1.0000
27.5372 -2.9141 -0.7017 1.0000
27.5628 -2.6667 -0.7017 1.0000
27.5862 -2.4190 -0.7017 1.0000
27.5934 -2.3363 -0.7017 1.0000
27.6004 -2.2537 -0.7017 1.0000
27.6072 -2.1711 -0.7017 1.0000
27.6201 -2.0058 -0.7018 1.0000
27.6261 -1.9230 -0.7018 1.0000
27.6319 -1.8403 -0.7018 1.0000
27.6374 -1.7575 -0.7018 1.0000
24.8234 -1.3548 -0.6300 1.0000
27.6728 -1.0950 -0.7018 1.0000
27.6762 -1.0123 -0.7018 1.0000
27.6791 -0.9293 -0.7018 1.0000
27.6820 -0.8464 -0.7018 1.0000
27.6870 -0.6807 -0.7018 1.0000
27.6923 -0.4319 -0.7018 1.0000
27.6936 -0.3490 -0.7018 1.0000
27.6947 -0.2661 -0.7018 1.0000
27.6963 -0.1002 -0.7018 1.0000
27.6964 -0.0173 -0.7019 1.0000
27.6965 0.1487 -0.7019 1.0000
27.6954 0.3146 -0.7019 1.0000
27.6945 0.3975 -0.7019 1.0000
27.6919 0.5633 -0.7019 1.0000
16.5825 -0.8703 -0.7016 1.0000
16.5851 -0.8206 -0.7016 1.0000
16.5875 -0.7710 -0.7016 1.0000
16.5920 -0.6716 -0.7016 1.0000
16.5939 -0.6220 -0.7016 1.0000
16.5975 -0.5225 -0.7016 1.0000
16.5990 -0.4728 -0.7016 1.0000
16.6028 -0.3237 -0.7016 1.0000
16.6037 -0.2739 -0.7016 1.0000
16.6046 -0.2244 -0.7016 1.0000
16.6053 -0.1745 -0.7016 1.0000
16.6057 -0.1248 -0.7016 1.0000
16.6061 -0.0751 -0.7016 1.0000
16.6063 -0.0253 -0.7016 1.0000
16.6059 0.1239 -0.7016 1.0000
16.6056 0.1735 -0.7016 1.0000
16.6051 0.2232 -0.7016 1.0000
16.6044 0.2730 -0.7016 1.0000
16.6035 0.3227 -0.7016 1.0000
16.6014 0.4222 -0.7016 1.0000
16.6001 0.4719 -0.7017 1.0000
16.5987 0.5216 -0.7017 1.0000
16.5954 0.6211 -0.7017 1.0000
16.5935 0.6706 -0.7017 1.0000
16.5915 0.7204 -0.7017 1.0000
16.5870 0.8198 -0.7017 1.0000
16.5845 0.8695 -0.7017 1.0000
16.5791 0.9687 -0.7017 1.0000
16.5762 1.0185 -0.7017 1.0000
16.5731 1.0680 -0.7017 1.0000
16.5699 1.1177 -0.7017 1.0000
16.5665 1.1672 -0.7017 1.0000
16.5630 1.2169 -0.7017 1.0000
16.5593 1.2665 -0.7017 1.0000
16.5555 1.3161 -0.7017 1.0000
16.5295 1.6132 -0.7017 1.0000
16.5145 1.7618 -0.7017 1.0000
16.5038 1.8606 -0.7017 1.0000
16.4679 2.1568 -0.7017 1.0000
16.4549 2.2554 -0.7017 1.0000
16.4268 2.4524 -0.7017 1.0000
16.4043 2.6000 -0.7017 1.0000
16.3886 2.6982 -0.7018 1.0000
16.3722 2.7964 -0.7018 1.0000
16.3553 2.8943 -0.7018 1.0000
16.3288 3.0412 -0.7018 1.0000
16.3104 3.1390 -0.7018 1.0000
16.3009 3.1878 -0.7018 1.0000
16.2308 3.5288 -0.7018 1.0000
16.2202 3.5773 -0.7018 1.0000
16.2095 3.6259 -0.7018 1.0000
16.1986 3.6745 -0.7018 1.0000
16.1764 3.7715 -0.7018 1.0000
16.1651 3.8200 -0.7018 1.0000
16.1537 3.8682 -0.7018 1.0000
16.1303 3.9650 -0.7018 1.0000
16.1184 4.0133 -0.7018 1.0000
16.1064 4.0616 -0.7018 1.0000
16.0941 4.1098 -0.7018 1.0000
16.0818 4.1580 -0.7018 1.0000
16.0693 4.2062 -0.7018 1.0000
16.0493 -4.2456 -0.7014 1.0000
16.0870 -4.1012 -0.7014 1.0000
16.1469 -3.8599 -0.7014 1.0000
16.1584 -3.8116 -0.7014 1.0000
16.1698 -3.7632 -0.7014 1.0000
16.2031 -3.6179 -0.7015 1.0000
16.2139 -3.5693 -0.7015 1.0000
16.2246 -3.5208 -0.7015 1.0000
16.2352 -3.4722 -0.7015 1.0000
16.2557 -3.3749 -0.7015 1.0000
16.2758 -3.2774 -0.7015 1.0000
16.2856 -3.2287 -0.7015 1.0000
16.2953 -3.1799 -0.7015 1.0000
16.3413 -2.9358 -0.7015 1.0000
16.3587 -2.8378 -0.7015 1.0000
16.3672 -2.7887 -0.7015 1.0000
16.3837 -2.6907 -0.7015 1.0000
16.4298 -2.3960 -0.7015 1.0000
16.4369 -2.3469 -0.7015 1.0000
16.4439 -2.2976 -0.7015 1.0000
16.4508 -2.2483 -0.7015 1.0000
16.4641 -2.1498 -0.7015 1.0000
16.4705 -2.1005 -0.7015 1.0000
16.4830 -2.0018 -0.7015 1.0000
16.4890 -1.9525 -0.7015 1.0000
16.5004 -1.8536 -0.7015 1.0000
16.5166 -1.7055 -0.7015 1.0000
16.5216 -1.6560 -0.7015 1.0000
16.5266 -1.6066 -0.7016 1.0000
16.5314 -1.5571 -0.7016 1.0000
16.5361 -1.5075 -0.7016 1.0000
16.5531 -1.3093 -0.7016 1.0000
16.5571 -1.2598 -0.7016 1.0000
16.5608 -1.2102 -0.7016 1.0000
16.5644 -1.1606 -0.7016 1.0000
16.5802 -0.9124 -0.7016 1.0000
16.5879 -0.7635 -0.7016 1.0000
16.5923 -0.6641 -0.7016 1.0000
16.5943 -0.6145 -0.7016 1.0000
16.5977 -0.5150 -0.7016 1.0000
16.6007 -0.4156 -0.7016 1.0000
16.6029 -0.3162 -0.7016 1.0000
16.6039 -0.2665 -0.7016 1.0000
16.6058 -0.1174 -0.7016 1.0000
16.6061 -0.0676 -0.7016 1.0000
16.6063 -0.0179 -0.7016 1.0000
16.6059 0.1313 -0.7016 1.0000
16.6050 0.2307 -0.7016 1.0000
16.6034 0.3301 -0.7016 1.0000
16.6012 0.4297 -0.7016 1.0000
16.5969 0.5788 -0.7017 1.0000
16.5912 0.7280 -0.7017 1.0000
16.5890 0.7776 -0.7017 1.0000
16.5866 0.8273 -0.7017 1.0000
16.5786 0.9762 -0.7017 1.0000
16.5726 1.0755 -0.7017 1.0000
16.5694 1.1251 -0.7017 1.0000
16.5625 1.2244 -0.7017 1.0000
16.5549 1.3236 -0.7017 1.0000
16.5510 1.3731 -0.7017 1.0000
16.5468 1.4227 -0.7017 1.0000
16.5425 1.4722 -0.7017 1.0000
16.5335 1.5712 -0.7017 1.0000
16.5288 1.6208 -0.7017 1.0000
16.5239 1.6703 -0.7017 1.0000
16.5137 1.7692 -0.7017 1.0000
16.5083 1.8186 -0.7017 1.0000
16.5030 1.8681 -0.7017 1.0000
16.4916 1.9669 -0.7017 1.0000
16.4796 2.0657 -0.7017 1.0000
16.4734 2.1150 -0.7017 1.0000
16.4670 2.1644 -0.7017 1.0000
16.4605 2.2137 -0.7017 1.0000
16.4539 2.2630 -0.7017 1.0000
16.4471 2.3121 -0.7017 1.0000
16.4401 2.3615 -0.7017 1.0000
16.4330 2.4107 -0.7017 1.0000
16.4258 2.4599 -0.7017 1.0000
16.4108 2.5582 -0.7017 1.0000
16.4032 2.6073 -0.7017 1.0000
16.3953 2.6566 -0.7017 1.0000
16.3874 2.7056 -0.7018 1.0000
16.3625 2.8527 -0.7018 1.0000
16.3540 2.9018 -0.7018 1.0000
16.3453 2.9507 -0.7018 1.0000
16.3364 2.9997 -0.7018 1.0000
16.3274 3.0486 -0.7018 1.0000
16.3090 3.1464 -0.7018 1.0000
16.2995 3.1952 -0.7018 1.0000
16.2899 3.2440 -0.7018 1.0000
16.2702 3.3414 -0.7018 1.0000
16.2500 3.4388 -0.7018 1.0000
16.2397 3.4875 -0.7018 1.0000
16.2187 3.5847 -0.7018 1.0000
16.2079 3.6333 -0.7018 1.0000
16.1859 3.7304 -0.7018 1.0000
16.1519 3.8757 -0.7018 1.0000
16.1166 4.0206 -0.7018 1.0000
16.0639 -4.1902 -0.7014 1.0000
16.0765 -4.1421 -0.7014 1.0000
16.1251 -3.9493 -0.7014 1.0000
16.1370 -3.9011 -0.7014 1.0000
16.1601 -3.8044 -0.7014 1.0000
16.1715 -3.7559 -0.7014 1.0000
16.1938 -3.6591 -0.7014 1.0000
16.2262 -3.5134 -0.7015 1.0000
16.2674 -3.3188 -0.7015 1.0000
16.2871 -3.2214 -0.7015 1.0000
16.2967 -3.1726 -0.7015 1.0000
16.3062 -3.1238 -0.7015 1.0000
16.3247 -3.0261 -0.7015 1.0000
16.3338 -2.9773 -0.7015 1.0000
16.3600 -2.8304 -0.7015 1.0000
16.3685 -2.7814 -0.7015 1.0000
16.3769 -2.7323 -0.7015 1.0000
16.3850 -2.6834 -0.7015 1.0000
16.3930 -2.6343 -0.7015 1.0000
16.4008 -2.5852 -0.7015 1.0000
16.4086 -2.5361 -0.7015 1.0000
16.4162 -2.4870 -0.7015 1.0000
16.4518 -2.2409 -0.7015 1.0000
16.4585 -2.1916 -0.7015 1.0000
16.4714 -2.0931 -0.7015 1.0000
16.4777 -2.0437 -0.7015 1.0000
16.4898 -1.9450 -0.7015 1.0000
16.4955 -1.8956 -0.7015 1.0000
16.5121 -1.7473 -0.7015 1.0000
16.5174 -1.6980 -0.7015 1.0000
16.5224 -1.6485 -0.7015 1.0000
16.5274 -1.5991 -0.7016 1.0000
16.5321 -1.5495 -0.7016 1.0000
16.5413 -1.4505 -0.7016 1.0000
16.5497 -1.3514 -0.7016 1.0000
16.5614 -1.2027 -0.7016 1.0000
16.5649 -1.1532 -0.7016 1.0000
16.5684 -1.1035 -0.7016 1.0000
16.5717 -1.0539 -0.7016 1.0000
16.5807 -0.9049 -0.7016 1.0000
16.5834 -0.8553 -0.7016 1.0000
16.5858 -0.8057 -0.7016 1.0000
16.5926 -0.6566 -0.7016 1.0000
16.5946 -0.6070 -0.7016 1.0000
16.5980 -0.5075 -0.7016 1.0000
16.5995 -0.4579 -0.7016 1.0000
16.6008 -0.4081 -0.7016 1.0000
16.6021 -0.3584 -0.7016 1.0000
16.6048 -0.2092 -0.7016 1.0000
16.6058 -0.1098 -0.7016 1.0000
16.6061 -0.0600 -0.7016 1.0000
16.6063 -0.0103 -0.7016 1.0000
16.6063 0.0394 -0.7016 1.0000
16.6059 0.1389 -0.7016 1.0000
16.6049 0.2384 -0.7016 1.0000
16.6041 0.2880 -0.7016 1.0000
11.8345 -0.6566 -0.7015 1.0000
11.8365 -0.6212 -0.7015 1.0000
11.8432 -0.4795 -0.7015 1.0000
11.8459 -0.4085 -0.7015 1.0000
11.8482 -0.3374 -0.7015 1.0000
11.8508 -0.2311 -0.7015 1.0000
11.8515 -0.1956 -0.7015 1.0000
11.8532 -0.0181 -0.7015 1.0000
11.8532 0.0529 -0.7015 1.0000
11.8527 0.1239 -0.7015 1.0000
11.8523 0.1593 -0.7015 1.0000
11.8512 0.2304 -0.7015 1.0000
11.8487 0.3368 -0.7015 1.0000
11.8477 0.3723 -0.7015 1.0000
11.8453 0.4431 -0.7016 1.0000
11.8425 0.5142 -0.7016 1.0000
11.8392 0.5851 -0.7016 1.0000
11.8375 0.6206 -0.7016 1.0000
11.8336 0.6914 -0.7016 1.0000
11.8293 0.7623 -0.7016 1.0000
11.8246 0.8331 -0.7016 1.0000
11.8221 0.8685 -0.7016 1.0000
11.8194 0.9039 -0.7016 1.0000
11.8167 0.9394 -0.7016 1.0000
11.8139 0.9748 -0.7016 1.0000
11.8109 1.0101 -0.7016 1.0000
11.8079 1.0456 -0.7016 1.0000
11.8014 1.1161 -0.7016 1.0000
11.7946 1.1868 -0.7016 1.0000
11.7873 1.2574 -0.7016 1.0000
11.7836 1.2927 -0.7016 1.0000
11.7796 1.3279 -0.7016 1.0000
11.7630 1.4691 -0.7016 1.0000
11.7586 1.5043 -0.7016 1.0000
11.7494 1.5747 -0.7016 1.0000
11.7447 1.6099 -0.7016 1.0000
11.7398 1.6450 -0.7016 1.0000
11.7349 1.6802 -0.7016 1.0000
11.7246 1.7504 -0.7016 1.0000
11.7029 1.8907 -0.7016 1.0000
11.6973 1.9258 -0.7016 1.0000
11.6795 2.0308 -0.7016 1.0000
11.6672 2.1008 -0.7016 1.0000
11.6609 2.1356 -0.7016 1.0000
11.6545 2.1706 -0.7016 1.0000
11.6480 2.2055 -0.7016 1.0000
11.6346 2.2752 -0.7016 1.0000
11.6277 2.3101 -0.7016 1.0000
11.6138 2.3797 -0.7016 1.0000
11.6066 2.4145 -0.7016 1.0000
11.5920 2.4839 -0.7016 1.0000
11.5846 2.5187 -0.7016 1.0000
11.5770 2.5532 -0.7016 1.0000
11.5536 2.6572 -0.7017 1.0000
11.5376 2.7264 -0.7017 1.0000
11.5293 2.7609 -0.7017 1.0000
11.5041 2.8644 -0.7017 1.0000
11.4955 2.8989 -0.7017 1.0000
11.4868 2.9333 -0.7017 1.0000
11.4780 2.9676 -0.7017 1.0000
11.4691 3.0020 -0.7017 1.0000
11.4601 3.0364 -0.7017 1.0000
11.4475 -3.0649 -0.7014 1.0000
11.4567 -3.0306 -0.7014 1.0000
11.4923 -2.8933 -0.7014 1.0000
11.5009 -2.8588 -0.7014 1.0000
11.5094 -2.8244 -0.7014 1.0000
11.5179 -2.7899 -0.7014 1.0000
11.5262 -2.7554 -0.7014 1.0000
11.5506 -2.6518 -0.7014 1.0000
11.5663 -2.5826 -0.7014 1.0000
11.5740 -2.5479 -0.7014 1.0000
11.5816 -2.5133 -0.7014 1.0000
11.5965 -2.4438 -0.7014 1.0000
11.6038 -2.4091 -0.7014 1.0000
11.6251 -2.3049 -0.7014 1.0000
11.6520 -2.1654 -0.7014 1.0000
11.6649 -2.0956 -0.7014 1.0000
11.6950 -1.9208 -0.7014 1.0000
11.7007 -1.8857 -0.7014 1.0000
11.7119 -1.8156 -0.7014 1.0000
11.7278 -1.7104 -0.7014 1.0000
11.7379 -1.6401 -0.7015 1.0000
11.7428 -1.6049 -0.7015 1.0000
11.7476 -1.5697 -0.7015 1.0000
11.7523 -1.5345 -0.7015 1.0000
11.7613 -1.4641 -0.7015 1.0000
11.7657 -1.4289 -0.7015 1.0000
11.7781 -1.3232 -0.7015 1.0000
11.7859 -1.2526 -0.7015 1.0000
11.7896 -1.2174 -0.7015 1.0000
11.8035 -1.0761 -0.7015 1.0000
11.8211 -0.8638 -0.7015 1.0000
11.8236 -0.8285 -0.7015 1.0000
11.8260 -0.7931 -0.7015 1.0000
11.8284 -0.7576 -0.7015 1.0000
11.8348 -0.6513 -0.7015 1.0000
11.8434 -0.4741 -0.7015 1.0000
11.8448 -0.4386 -0.7015 1.0000
11.8472 -0.3677 -0.7015 1.0000
11.8502 -0.2612 -0.7015 1.0000
11.8529 -0.0837 -0.7015 1.0000
11.8531 -0.0482 -0.7015 1.0000
11.8533 0.0228 -0.7015 1.0000
11.8532 0.0582 -0.7015 1.0000
11.8529 0.0938 -0.7015 1.0000
11.8526 0.1292 -0.7015 1.0000
11.8517 0.2001 -0.7015 1.0000
11.8511 0.2357 -0.7015 1.0000
11.8486 0.3422 -0.7015 1.0000
11.8475 0.3776 -0.7016 1.0000
11.8463 0.4131 -0.7016 1.0000
11.8452 0.4486 -0.7016 1.0000
11.8407 0.5550 -0.7016 1.0000
11.8390 0.5905 -0.7016 1.0000
11.8372 0.6259 -0.7016 1.0000
11.8353 0.6613 -0.7016 1.0000
11.8333 0.6968 -0.7016 1.0000
11.8312 0.7321 -0.7016 1.0000
11.8242 0.8385 -0.7016 1.0000
11.8217 0.8739 -0.7016 1.0000
11.8190 0.9093 -0.7016 1.0000
11.8135 0.9801 -0.7016 1.0000
11.7940 1.1922 -0.7016 1.0000
11.7905 1.2274 -0.7016 1.0000
11.7751 1.3686 -0.7016 1.0000
11.7667 1.4392 -0.7016 1.0000
11.7624 1.4743 -0.7016 1.0000
11.7534 1.5448 -0.7016 1.0000
11.7487 1.5799 -0.7016 1.0000
11.7439 1.6151 -0.7016 1.0000
11.7391 1.6503 -0.7016 1.0000
11.7238 1.7557 -0.7016 1.0000
11.6906 1.9662 -0.7016 1.0000
11.6847 2.0012 -0.7016 1.0000
11.6787 2.0360 -0.7016 1.0000
11.6599 2.1409 -0.7016 1.0000
11.6535 2.1759 -0.7016 1.0000
11.6470 2.2108 -0.7016 1.0000
11.6335 2.2804 -0.7016 1.0000
11.6267 2.3154 -0.7016 1.0000
11.6198 2.3500 -0.7016 1.0000
11.6127 2.3848 -0.7016 1.0000
11.6055 2.4197 -0.7016 1.0000
11.5834 2.5238 -0.7016 1.0000
11.5681 2.5932 -0.7016 1.0000
11.5524 2.6624 -0.7017 1.0000
11.5444 2.6970 -0.7017 1.0000
11.5197 2.8006 -0.7017 1.0000
11.5113 2.8351 -0.7017 1.0000
11.4855 2.9385 -0.7017 1.0000
11.4678 3.0072 -0.7017 1.0000
11.4489 -3.0598 -0.7014 1.0000
11.4671 -2.9912 -0.7014 1.0000
11.4849 -2.9224 -0.7014 1.0000
11.4936 -2.8882 -0.7014 1.0000
11.5021 -2.8536 -0.7014 1.0000
11.5192 -2.7847 -0.7014 1.0000
11.5356 -2.7157 -0.7014 1.0000
11.5518 -2.6466 -0.7014 1.0000
11.5752 -2.5427 -0.7014 1.0000
11.5828 -2.5081 -0.7014 1.0000
11.5903 -2.4733 -0.7014 1.0000
11.5976 -2.4386 -0.7014 1.0000
11.6121 -2.3692 -0.7014 1.0000
11.6191 -2.3344 -0.7014 1.0000
11.6262 -2.2995 -0.7014 1.0000
11.6398 -2.2299 -0.7014 1.0000
11.6720 -2.0554 -0.7014 1.0000
11.6842 -1.9854 -0.7014 1.0000
11.7016 -1.8804 -0.7014 1.0000
11.7127 -1.8103 -0.7014 1.0000
11.7234 -1.7402 -0.7014 1.0000
11.7336 -1.6700 -0.7015 1.0000
11.7386 -1.6347 -0.7015 1.0000
11.7483 -1.5644 -0.7015 1.0000
11.7529 -1.5293 -0.7015 1.0000
11.7575 -1.4940 -0.7015 1.0000
11.7620 -1.4589 -0.7015 1.0000
11.7663 -1.4236 -0.7015 1.0000
11.7864 -1.2473 -0.7015 1.0000
11.7902 -1.2121 -0.7015 1.0000
11.7937 -1.1767 -0.7015 1.0000
11.8007 -1.1060 -0.7015 1.0000
11.8071 -1.0354 -0.7015 1.0000
11.8102 -1.0000 -0.7015 1.0000
11.8160 -0.9293 -0.7015 1.0000
11.8215 -0.8585 -0.7015 1.0000
11.8264 -0.7876 -0.7015 1.0000
11.8310 -0.7168 -0.7015 1.0000
11.8331 -0.6815 -0.7015 1.0000
11.8370 -0.6105 -0.7015 1.0000
11.8388 -0.5751 -0.7015 1.0000
11.8421 -0.5043 -0.7015 1.0000
11.8436 -0.4688 -0.7015 1.0000
11.8474 -0.3624 -0.7015 1.0000
11.8485 -0.3267 -0.7015 1.0000
11.8511 -0.2204 -0.7015 1.0000
11.8526 -0.1140 -0.7015 1.0000
11.8532 -0.0429 -0.7015 1.0000
11.8529 0.0991 -0.7015 1.0000
11.8516 0.2056 -0.7015 1.0000
9.1985 -0.4828 -0.7015 1.0000
9.2025 -0.4001 -0.7015 1.0000
9.2037 -0.3725 -0.7015 1.0000
9.2048 -0.3450 -0.7015 1.0000
9.2058 -0.3175 -0.7015 1.0000
9.2076 -0.2623 -0.7015 1.0000
9.2084 -0.2347 -0.7015 1.0000
9.2102 -0.1520 -0.7015 1.0000
9.2106 -0.1245 -0.7015 1.0000
9.2112 -0.0692 -0.7015 1.0000
9.2115 0.0135 -0.7015 1.0000
9.2114 0.0411 -0.7015 1.0000
9.2112 0.0687 -0.7015 1.0000
9.2110 0.0962 -0.7015 1.0000
9.2107 0.1239 -0.7015 1.0000
9.2104 0.1515 -0.7015 1.0000
9.2093 0.2066 -0.7015 1.0000
9.2079 0.2618 -0.7015 1.0000
9.2052 0.3445 -0.7015 1.0000
9.2031 0.3996 -0.7015 1.0000
9.2019 0.4271 -0.7015 1.0000
9.1961 0.5373 -0.7015 1.0000
9.1928 0.5924 -0.7015 1.0000
9.1891 0.6475 -0.7015 1.0000
9.1851 0.7024 -0.7015 1.0000
9.1807 0.7575 -0.7015 1.0000
9.1711 0.8674 -0.7015 1.0000
9.1657 0.9223 -0.7015 1.0000
9.1629 0.9497 -0.7015 1.0000
9.1601 0.9771 -0.7015 1.0000
9.1446 1.1142 -0.7015 1.0000
9.1412 1.1416 -0.7015 1.0000
9.1377 1.1690 -0.7015 1.0000
9.1341 1.1964 -0.7015 1.0000
9.1269 1.2510 -0.7015 1.0000
9.1231 1.2784 -0.7015 1.0000
9.1192 1.3057 -0.7015 1.0000
9.1030 1.4148 -0.7015 1.0000
9.0988 1.4421 -0.7015 1.0000
9.0762 1.5781 -0.7016 1.0000
9.0715 1.6054 -0.7016 1.0000
9.0667 1.6324 -0.7016 1.0000
9.0516 1.7139 -0.7016 1.0000
9.0413 1.7681 -0.7016 1.0000
9.0250 1.8492 -0.7016 1.0000
9.0195 1.8762 -0.7016 1.0000
9.0139 1.9033 -0.7016 1.0000
8.9905 2.0111 -0.7016 1.0000
8.9844 2.0380 -0.7016 1.0000
8.9783 2.0650 -0.7016 1.0000
8.9529 2.1723 -0.7016 1.0000
8.9398 2.2258 -0.7016 1.0000
8.9331 2.2526 -0.7016 1.0000
8.9264 2.2794 -0.7016 1.0000
8.9195 2.3061 -0.7016 1.0000
8.8966 -2.3820 -0.7014 1.0000
8.9037 -2.3553 -0.7014 1.0000
8.9177 -2.3020 -0.7014 1.0000
8.9314 -2.2485 -0.7014 1.0000
8.9380 -2.2218 -0.7014 1.0000
8.9512 -2.1682 -0.7014 1.0000
8.9577 -2.1414 -0.7014 1.0000
8.9828 -2.0341 -0.7014 1.0000
9.0123 -1.8993 -0.7014 1.0000
9.0236 -1.8452 -0.7014 1.0000
9.0345 -1.7912 -0.7014 1.0000
9.0451 -1.7371 -0.7014 1.0000
9.0604 -1.6557 -0.7014 1.0000
9.0653 -1.6286 -0.7014 1.0000
9.0702 -1.6014 -0.7014 1.0000
9.0843 -1.5200 -0.7014 1.0000
9.0888 -1.4927 -0.7014 1.0000
9.1019 -1.4110 -0.7014 1.0000
9.1102 -1.3565 -0.7014 1.0000
9.1142 -1.3292 -0.7014 1.0000
9.1182 -1.3019 -0.7014 1.0000
9.1221 -1.2746 -0.7014 1.0000
9.1258 -1.2472 -0.7014 1.0000
9.1296 -1.2199 -0.7014 1.0000
9.1332 -1.1927 -0.7014 1.0000
9.1469 -1.0832 -0.7014 1.0000
9.1501 -1.0558 -0.7014 1.0000
9.1532 -1.0284 -0.7014 1.0000
9.1593 -0.9735 -0.7014 1.0000
9.1622 -0.9461 -0.7014 1.0000
9.1650 -0.9186 -0.7014 1.0000
9.1729 -0.8363 -0.7014 1.0000
9.1778 -0.7813 -0.7014 1.0000
9.1823 -0.7263 -0.7014 1.0000
9.1845 -0.6988 -0.7014 1.0000
9.1865 -0.6713 -0.7014 1.0000
9.1886 -0.6437 -0.7014 1.0000
9.1905 -0.6163 -0.7015 1.0000
9.1940 -0.5612 -0.7015 1.0000
9.1972 -0.5062 -0.7015 1.0000
9.1987 -0.4786 -0.7015 1.0000
9.2002 -0.4511 -0.7015 1.0000
9.2050 -0.3409 -0.7015 1.0000
9.2069 -0.2857 -0.7015 1.0000
9.2091 -0.2030 -0.7015 1.0000
9.2097 -0.1755 -0.7015 1.0000
9.2110 -0.0927 -0.7015 1.0000
9.2114 -0.0099 -0.7015 1.0000
9.2114 0.0453 -0.7015 1.0000
9.2110 0.1004 -0.7015 1.0000
9.2107 0.1280 -0.7015 1.0000
9.2103 0.1555 -0.7015 1.0000
9.2098 0.1832 -0.7015 1.0000
9.2078 0.2659 -0.7015 1.0000
9.2070 0.2935 -0.7015 1.0000
9.2051 0.3486 -0.7015 1.0000
9.2040 0.3761 -0.7015 1.0000
9.1989 0.4864 -0.7015 1.0000
9.1974 0.5140 -0.7015 1.0000
9.1959 0.5415 -0.7015 1.0000
9.1942 0.5691 -0.7015 1.0000
9.1868 0.6791 -0.7015 1.0000
9.1847 0.7066 -0.7015 1.0000
9.1826 0.7341 -0.7015 1.0000
9.1804 0.7616 -0.7015 1.0000
9.1781 0.7891 -0.7015 1.0000
9.1732 0.8440 -0.7015 1.0000
9.1707 0.8715 -0.7015 1.0000
9.1681 0.8990 -0.7015 1.0000
9.1625 0.9539 -0.7015 1.0000
9.1596 0.9813 -0.7015 1.0000
9.1567 1.0087 -0.7015 1.0000
9.1505 1.0636 -0.7015 1.0000
9.1440 1.1183 -0.7015 1.0000
9.1336 1.2004 -0.7015 1.0000
9.1300 1.2278 -0.7015 1.0000
9.1225 1.2825 -0.7015 1.0000
9.1147 1.3371 -0.7015 1.0000
9.1107 1.3645 -0.7015 1.0000
9.1066 1.3916 -0.7015 1.0000
9.1024 1.4189 -0.7015 1.0000
9.0981 1.4462 -0.7015 1.0000
9.0802 1.5551 -0.7015 1.0000
9.0707 1.6094 -0.7016 1.0000
9.0659 1.6366 -0.7016 1.0000
9.0610 1.6637 -0.7016 1.0000
9.0560 1.6908 -0.7016 1.0000
9.0457 1.7450 -0.7016 1.0000
9.0351 1.7992 -0.7016 1.0000
9.0242 1.8533 -0.7016 1.0000
9.0186 1.8802 -0.7016 1.0000
9.0130 1.9073 -0.7016 1.0000
9.0072 1.9343 -0.7016 1.0000
8.9896 2.0152 -0.7016 1.0000
8.9835 2.0421 -0.7016 1.0000
8.9585 2.1496 -0.7016 1.0000
8.9520 2.1763 -0.7016 1.0000
8.9321 2.2567 -0.7016 1.0000
8.9253 2.2835 -0.7016 1.0000
8.8977 -2.3778 -0.7014 1.0000
8.9047 -2.3514 -0.7014 1.0000
8.9188 -2.2980 -0.7014 1.0000
8.9587 -2.1374 -0.7014 1.0000
8.9713 -2.0837 -0.7014 1.0000
8.9775 -2.0569 -0.7014 1.0000
8.9898 -2.0030 -0.7014 1.0000
9.0016 -1.9492 -0.7014 1.0000
9.0074 -1.9221 -0.7014 1.0000
9.0132 -1.8952 -0.7014 1.0000
9.0188 -1.8682 -0.7014 1.0000
9.0353 -1.7871 -0.7014 1.0000
9.0459 -1.7330 -0.7014 1.0000
9.0561 -1.6787 -0.7014 1.0000
9.0611 -1.6517 -0.7014 1.0000
9.0661 -1.6245 -0.7014 1.0000
9.0709 -1.5974 -0.7014 1.0000
9.0803 -1.5430 -0.7014 1.0000
9.0938 -1.4614 -0.7014 1.0000
9.1108 -1.3524 -0.7014 1.0000
9.1148 -1.3250 -0.7014 1.0000
9.1188 -1.2978 -0.7014 1.0000
9.1227 -1.2705 -0.7014 1.0000
9.1264 -1.2431 -0.7014 1.0000
9.1302 -1.2158 -0.7014 1.0000
9.1337 -1.1885 -0.7014 1.0000
9.1441 -1.1064 -0.7014 1.0000
9.1506 -1.0516 -0.7014 1.0000
9.1537 -1.0242 -0.7014 1.0000
9.1568 -0.9968 -0.7014 1.0000
9.1597 -0.9694 -0.7014 1.0000
9.1626 -0.9419 -0.7014 1.0000
9.1681 -0.8871 -0.7014 1.0000
9.1733 -0.8321 -0.7014 1.0000
9.1781 -0.7771 -0.7014 1.0000
9.1848 -0.6946 -0.7014 1.0000
9.1868 -0.6672 -0.7014 1.0000
9.1889 -0.6398 -0.7014 1.0000
9.1943 -0.5571 -0.7015 1.0000
9.1975 -0.5020 -0.7015 1.0000
9.1990 -0.4745 -0.7015 1.0000
9.2003 -0.4470 -0.7015 1.0000
9.2061 -0.3091 -0.7015 1.0000
9.2078 -0.2540 -0.7015 1.0000
9.2092 -0.1988 -0.7015 1.0000
9.2103 -0.1437 -0.7015 1.0000
9.2110 -0.0885 -0.7015 1.0000
9.2112 -0.0609 -0.7015 1.0000
9.2115 0.0219 -0.7015 1.0000
9.2114 0.0494 -0.7015 1.0000
9.2106 0.1322 -0.7015 1.0000
9.2102 0.1598 -0.7015 1.0000
9.2097 0.1873 -0.7015 1.0000
7.5186 -0.3946 -0.7014 1.0000
7.5208 -0.3495 -0.7014 1.0000
7.5219 -0.3271 -0.7014 1.0000
7.5228 -0.3045 -0.7014 1.0000
7.5260 -0.2144 -0.7014 1.0000
7.5266 -0.1919 -0.7014 1.0000
7.5276 -0.1468 -0.7014 1.0000
7.5280 -0.1243 -0.7014 1.0000
7.5291 0.0110 -0.7014 1.0000
7.5290 0.0336 -0.7014 1.0000
7.5289 0.0561 -0.7014 1.0000
7.5287 0.0787 -0.7014 1.0000
7.5285 0.1012 -0.7015 1.0000
7.5273 0.1688 -0.7015 1.0000
7.5262 0.2139 -0.7015 1.0000
7.5232 0.3041 -0.7015 1.0000
7.5212 0.3491 -0.7015 1.0000
7.5201 0.3716 -0.7015 1.0000
7.5190 0.3941 -0.7015 1.0000
7.5178 0.4166 -0.7015 1.0000
7.5123 0.5067 -0.7015 1.0000
7.5057 0.5966 -0.7015 1.0000
7.5039 0.6190 -0.7015 1.0000
7.5021 0.6415 -0.7015 1.0000
7.5001 0.6641 -0.7015 1.0000
7.4960 0.7089 -0.7015 1.0000
7.4938 0.7314 -0.7015 1.0000
7.4871 0.7987 -0.7015 1.0000
7.4821 0.8435 -0.7015 1.0000
7.4796 0.8659 -0.7015 1.0000
7.4770 0.8883 -0.7015 1.0000
7.4743 0.9108 -0.7015 1.0000
7.4687 0.9554 -0.7015 1.0000
7.4658 0.9778 -0.7015 1.0000
7.4598 1.0224 -0.7015 1.0000
7.4568 1.0449 -0.7015 1.0000
7.4504 1.0895 -0.7015 1.0000
7.4471 1.1117 -0.7015 1.0000
7.4222 1.2676 -0.7015 1.0000
7.4146 1.3120 -0.7015 1.0000
7.4105 1.3344 -0.7015 1.0000
7.4066 1.3565 -0.7015 1.0000
7.4025 1.3787 -0.7015 1.0000
7.3983 1.4009 -0.7015 1.0000
7.3899 1.4451 -0.7015 1.0000
7.3855 1.4673 -0.7015 1.0000
7.3766 1.5114 -0.7015 1.0000
7.3674 1.5556 -0.7015 1.0000
7.3580 1.5997 -0.7015 1.0000
7.3532 1.6217 -0.7015 1.0000
7.3332 1.7097 -0.7015 1.0000
7.3281 1.7316 -0.7015 1.0000
7.3229 1.7536 -0.7015 1.0000
7.3069 1.8194 -0.7015 1.0000
7.3014 1.8412 -0.7015 1.0000
7.2959 1.8630 -0.7015 1.0000
7.3058 -1.8160 -0.7014 1.0000
7.3166 -1.7723 -0.7014 1.0000
7.3219 -1.7504 -0.7014 1.0000
7.3271 -1.7284 -0.7014 1.0000
7.3323 -1.7065 -0.7014 1.0000
7.3373 -1.6845 -0.7014 1.0000
7.3424 -1.6625 -0.7014 1.0000
7.3473 -1.6405 -0.7014 1.0000
7.3522 -1.6186 -0.7014 1.0000
7.4058 -1.3534 -0.7014 1.0000
7.4177 -1.2867 -0.7014 1.0000
7.4252 -1.2424 -0.7014 1.0000
7.4289 -1.2202 -0.7014 1.0000
7.4326 -1.1979 -0.7014 1.0000
7.4396 -1.1534 -0.7014 1.0000
7.4464 -1.1089 -0.7014 1.0000
7.4498 -1.0864 -0.7014 1.0000
7.4652 -0.9749 -0.7014 1.0000
7.4710 -0.9301 -0.7014 1.0000
7.4764 -0.8853 -0.7014 1.0000
7.4977 -0.6836 -0.7014 1.0000
7.4997 -0.6611 -0.7014 1.0000
7.5036 -0.6162 -0.7014 1.0000
7.5071 -0.5712 -0.7014 1.0000
7.5104 -0.5263 -0.7014 1.0000
7.5120 -0.5037 -0.7014 1.0000
7.5135 -0.4812 -0.7014 1.0000
7.5149 -0.4587 -0.7014 1.0000
7.5162 -0.4363 -0.7014 1.0000
7.5175 -0.4137 -0.7014 1.0000
7.5188 -0.3912 -0.7014 1.0000
7.5199 -0.3687 -0.7014 1.0000
7.5229 -0.3011 -0.7014 1.0000
7.5238 -0.2786 -0.7014 1.0000
7.5246 -0.2560 -0.7014 1.0000
7.5261 -0.2110 -0.7014 1.0000
7.5281 -0.1208 -0.7014 1.0000
7.5287 -0.0757 -0.7014 1.0000
7.5290 -0.0307 -0.7014 1.0000
7.5291 -0.0081 -0.7014 1.0000
7.5289 0.0595 -0.7014 1.0000
7.5285 0.1045 -0.7015 1.0000
7.5281 0.1271 -0.7015 1.0000
7.5277 0.1497 -0.7015 1.0000
7.5261 0.2173 -0.7015 1.0000
7.5254 0.2398 -0.7015 1.0000
7.5238 0.2849 -0.7015 1.0000
7.5220 0.3300 -0.7015 1.0000
7.5188 0.3976 -0.7015 1.0000
7.5176 0.4200 -0.7015 1.0000
7.5163 0.4426 -0.7015 1.0000
7.5150 0.4651 -0.7015 1.0000
7.5121 0.5101 -0.7015 1.0000
7.5105 0.5326 -0.7015 1.0000
7.5089 0.5550 -0.7015 1.0000
7.5054 0.6001 -0.7015 1.0000
7.4890 0.7796 -0.7015 1.0000
7.4818 0.8470 -0.7015 1.0000
7.4766 0.8917 -0.7015 1.0000
7.4738 0.9140 -0.7015 1.0000
7.4624 1.0035 -0.7015 1.0000
7.4563 1.0482 -0.7015 1.0000
7.4499 1.0928 -0.7015 1.0000
7.4466 1.1152 -0.7015 1.0000
7.4432 1.1375 -0.7015 1.0000
7.4398 1.1597 -0.7015 1.0000
7.4363 1.1820 -0.7015 1.0000
7.4291 1.2265 -0.7015 1.0000
7.4217 1.2711 -0.7015 1.0000
7.4178 1.2933 -0.7015 1.0000
7.4139 1.3155 -0.7015 1.0000
7.4060 1.3598 -0.7015 1.0000
7.4019 1.3820 -0.7015 1.0000
7.3935 1.4263 -0.7015 1.0000
7.3892 1.4485 -0.7015 1.0000
7.3804 1.4927 -0.7015 1.0000
7.3713 1.5368 -0.7015 1.0000
7.3475 1.6471 -0.7015 1.0000
7.3325 1.7130 -0.7015 1.0000
7.2950 1.8663 -0.7015 1.0000
7.2780 1.9318 -0.7015 1.0000
7.2729 -1.9437 -0.7013 1.0000
7.3012 -1.8346 -0.7014 1.0000
7.3331 -1.7032 -0.7014 1.0000
7.3481 -1.6372 -0.7014 1.0000
7.3529 -1.6152 -0.7014 1.0000
7.3578 -1.5931 -0.7014 1.0000
7.3853 -1.4608 -0.7014 1.0000
7.3897 -1.4386 -0.7014 1.0000
7.3939 -1.4165 -0.7014 1.0000
7.3981 -1.3944 -0.7014 1.0000
7.4104 -1.3278 -0.7014 1.0000
7.4144 -1.3056 -0.7014 1.0000
7.4182 -1.2834 -0.7014 1.0000
7.4502 -1.0830 -0.7014 1.0000
7.4597 -1.0162 -0.7014 1.0000
7.4627 -0.9938 -0.7014 1.0000
7.4686 -0.9491 -0.7014 1.0000
7.4714 -0.9268 -0.7014 1.0000
7.4768 -0.8819 -0.7014 1.0000
7.4795 -0.8596 -0.7014 1.0000
7.4820 -0.8372 -0.7014 1.0000
7.4845 -0.8147 -0.7014 1.0000
7.4869 -0.7924 -0.7014 1.0000
7.4938 -0.7251 -0.7014 1.0000
7.5000 -0.6577 -0.7014 1.0000
7.5056 -0.5903 -0.7014 1.0000
7.5074 -0.5678 -0.7014 1.0000
7.5090 -0.5453 -0.7014 1.0000
7.5137 -0.4779 -0.7014 1.0000
7.5164 -0.4329 -0.7014 1.0000
7.5177 -0.4103 -0.7014 1.0000
7.5200 -0.3653 -0.7014 1.0000
7.5231 -0.2978 -0.7014 1.0000
7.5239 -0.2752 -0.7014 1.0000
7.5262 -0.2076 -0.7014 1.0000
7.5273 -0.1625 -0.7014 1.0000
7.5285 -0.0950 -0.7014 1.0000
7.5289 -0.0499 -0.7014 1.0000
7.5290 -0.0272 -0.7014 1.0000
7.5291 0.0178 -0.7014 1.0000
7.5290 0.0404 -0.7014 1.0000
7.5284 0.1080 -0.7015 1.0000
7.5280 0.1306 -0.7015 1.0000
7.5277 0.1531 -0.7015 1.0000
7.5271 0.1756 -0.7015 1.0000
6.3533 -0.3526 -0.7014 1.0000
6.3554 -0.3145 -0.7014 1.0000
6.3563 -0.2955 -0.7014 1.0000
6.3571 -0.2764 -0.7014 1.0000
6.3580 -0.2574 -0.7014 1.0000
6.3600 -0.2003 -0.7014 1.0000
6.3606 -0.1812 -0.7014 1.0000
6.3612 -0.1622 -0.7014 1.0000
6.3616 -0.1431 -0.7014 1.0000
6.3623 -0.1050 -0.7014 1.0000
6.3629 -0.0669 -0.7014 1.0000
6.3631 -0.0478 -0.7014 1.0000
6.3632 -0.0097 -0.7014 1.0000
6.3632 0.0093 -0.7014 1.0000
6.3632 0.0284 -0.7014 1.0000
6.3631 0.0474 -0.7014 1.0000
6.3627 0.0855 -0.7014 1.0000
6.3617 0.1427 -0.7014 1.0000
6.3613 0.1617 -0.7014 1.0000
6.3596 0.2189 -0.7014 1.0000
6.3589 0.2379 -0.7014 1.0000
6.3556 0.3141 -0.7014 1.0000
6.3547 0.3331 -0.7014 1.0000
6.3537 0.3521 -0.7014 1.0000
6.3514 0.3902 -0.7014 1.0000
6.3478 0.4472 -0.7014 1.0000
6.3463 0.4662 -0.7014 1.0000
6.3450 0.4852 -0.7014 1.0000
6.3435 0.5043 -0.7014 1.0000
6.3387 0.5612 -0.7014 1.0000
6.3296 0.6561 -0.7015 1.0000
6.3277 0.6750 -0.7015 1.0000
6.3256 0.6939 -0.7015 1.0000
6.3214 0.7319 -0.7015 1.0000
6.3191 0.7507 -0.7015 1.0000
6.3121 0.8075 -0.7015 1.0000
6.3097 0.8264 -0.7015 1.0000
6.3072 0.8453 -0.7015 1.0000
6.2994 0.9019 -0.7015 1.0000
6.2967 0.9208 -0.7015 1.0000
6.2939 0.9396 -0.7015 1.0000
6.2882 0.9773 -0.7015 1.0000
6.2822 1.0149 -0.7015 1.0000
6.2760 1.0526 -0.7015 1.0000
6.2596 1.1464 -0.7015 1.0000
6.2562 1.1651 -0.7015 1.0000
6.2527 1.1839 -0.7015 1.0000
6.2491 1.2025 -0.7015 1.0000
6.2418 1.2400 -0.7015 1.0000
6.2381 1.2588 -0.7015 1.0000
6.2305 1.2961 -0.7015 1.0000
6.2265 1.3147 -0.7015 1.0000
6.2145 1.3705 -0.7015 1.0000
6.2104 1.3892 -0.7015 1.0000
6.2062 1.4078 -0.7015 1.0000
6.2020 1.4264 -0.7015 1.0000
6.1889 1.4820 -0.7015 1.0000
6.1754 1.5376 -0.7015 1.0000
6.1613 1.5929 -0.7015 1.0000
6.1565 1.6114 -0.7015 1.0000
6.1517 1.6299 -0.7015 1.0000
6.1461 -1.6456 -0.7013 1.0000
6.1510 -1.6271 -0.7013 1.0000
6.1558 -1.6087 -0.7013 1.0000
6.1606 -1.5904 -0.7013 1.0000
6.1793 -1.5165 -0.7013 1.0000
6.1883 -1.4794 -0.7013 1.0000
6.1971 -1.4423 -0.7014 1.0000
6.2013 -1.4237 -0.7014 1.0000
6.2056 -1.4052 -0.7014 1.0000
6.2139 -1.3679 -0.7014 1.0000
6.2220 -1.3308 -0.7014 1.0000
6.2413 -1.2374 -0.7014 1.0000
6.2449 -1.2187 -0.7014 1.0000
6.2486 -1.2001 -0.7014 1.0000
6.2521 -1.1813 -0.7014 1.0000
6.2557 -1.1626 -0.7014 1.0000
6.2592 -1.1438 -0.7014 1.0000
6.2659 -1.1064 -0.7014 1.0000
6.2756 -1.0500 -0.7014 1.0000
6.2818 -1.0124 -0.7014 1.0000
6.2848 -0.9936 -0.7014 1.0000
6.2877 -0.9748 -0.7014 1.0000
6.2963 -0.9182 -0.7014 1.0000
6.2990 -0.8993 -0.7014 1.0000
6.3017 -0.8806 -0.7014 1.0000
6.3043 -0.8617 -0.7014 1.0000
6.3118 -0.8050 -0.7014 1.0000
6.3142 -0.7861 -0.7014 1.0000
6.3165 -0.7672 -0.7014 1.0000
6.3232 -0.7104 -0.7014 1.0000
6.3253 -0.6914 -0.7014 1.0000
6.3273 -0.6725 -0.7014 1.0000
6.3293 -0.6535 -0.7014 1.0000
6.3313 -0.6346 -0.7014 1.0000
6.3332 -0.6156 -0.7014 1.0000
6.3350 -0.5966 -0.7014 1.0000
6.3367 -0.5776 -0.7014 1.0000
6.3385 -0.5587 -0.7014 1.0000
6.3417 -0.5207 -0.7014 1.0000
6.3462 -0.4638 -0.7014 1.0000
6.3501 -0.4067 -0.7014 1.0000
6.3512 -0.3878 -0.7014 1.0000
6.3524 -0.3688 -0.7014 1.0000
6.3535 -0.3497 -0.7014 1.0000
6.3545 -0.3307 -0.7014 1.0000
6.3555 -0.3116 -0.7014 1.0000
6.3573 -0.2735 -0.7014 1.0000
6.3588 -0.2355 -0.7014 1.0000
6.3595 -0.2165 -0.7014 1.0000
6.3612 -0.1593 -0.7014 1.0000
6.3617 -0.1402 -0.7014 1.0000
6.3621 -0.1212 -0.7014 1.0000
6.3624 -0.1021 -0.7014 1.0000
6.3627 -0.0831 -0.7014 1.0000
6.3629 -0.0640 -0.7014 1.0000
6.3631 -0.0450 -0.7014 1.0000
6.3632 -0.0260 -0.7014 1.0000
6.3633 -0.0069 -0.7014 1.0000
6.3633 0.0122 -0.7014 1.0000
6.3632 0.0312 -0.7014 1.0000
6.3627 0.0884 -0.7014 1.0000
6.3624 0.1075 -0.7014 1.0000
6.3602 0.2027 -0.7014 1.0000
6.3595 0.2217 -0.7014 1.0000
6.3581 0.2598 -0.7014 1.0000
6.3564 0.2979 -0.7014 1.0000
6.3536 0.3550 -0.7014 1.0000
6.3524 0.3740 -0.7014 1.0000
6.3489 0.4311 -0.7014 1.0000
6.3475 0.4501 -0.7014 1.0000
6.3462 0.4692 -0.7014 1.0000
6.3417 0.5261 -0.7014 1.0000
6.3401 0.5450 -0.7014 1.0000
6.3367 0.5830 -0.7014 1.0000
6.3350 0.6021 -0.7014 1.0000
6.3313 0.6399 -0.7015 1.0000
6.3273 0.6779 -0.7015 1.0000
6.3253 0.6968 -0.7015 1.0000
6.3232 0.7157 -0.7015 1.0000
6.3165 0.7725 -0.7015 1.0000
6.3142 0.7914 -0.7015 1.0000
6.3069 0.8481 -0.7015 1.0000
6.3043 0.8671 -0.7015 1.0000
6.2990 0.9047 -0.7015 1.0000
6.2963 0.9236 -0.7015 1.0000
6.2935 0.9424 -0.7015 1.0000
6.2878 0.9801 -0.7015 1.0000
6.2659 1.1116 -0.7015 1.0000
6.2625 1.1305 -0.7015 1.0000
6.2591 1.1493 -0.7015 1.0000
6.2557 1.1679 -0.7015 1.0000
6.2521 1.1867 -0.7015 1.0000
6.2375 1.2614 -0.7015 1.0000
6.2179 1.3549 -0.7015 1.0000
6.2097 1.3921 -0.7015 1.0000
6.1970 1.4477 -0.7015 1.0000
6.1792 1.5219 -0.7015 1.0000
6.1746 1.5404 -0.7015 1.0000
6.1700 1.5588 -0.7015 1.0000
6.1606 1.5958 -0.7015 1.0000
6.1509 1.6326 -0.7015 1.0000
6.1468 -1.6429 -0.7013 1.0000
6.1517 -1.6244 -0.7013 1.0000
6.1566 -1.6060 -0.7013 1.0000
6.1661 -1.5690 -0.7013 1.0000
6.1708 -1.5507 -0.7013 1.0000
6.1754 -1.5321 -0.7013 1.0000
6.1800 -1.5135 -0.7013 1.0000
6.1844 -1.4951 -0.7013 1.0000
6.1977 -1.4395 -0.7014 1.0000
6.2062 -1.4024 -0.7014 1.0000
6.2265 -1.3093 -0.7014 1.0000
6.2304 -1.2906 -0.7014 1.0000
6.2343 -1.2720 -0.7014 1.0000
6.2381 -1.2533 -0.7014 1.0000
6.2491 -1.1972 -0.7014 1.0000
6.2527 -1.1785 -0.7014 1.0000
6.2562 -1.1597 -0.7014 1.0000
6.2630 -1.1222 -0.7014 1.0000
6.2664 -1.1035 -0.7014 1.0000
6.2696 -1.0847 -0.7014 1.0000
6.2729 -1.0660 -0.7014 1.0000
6.2791 -1.0283 -0.7014 1.0000
6.2822 -1.0096 -0.7014 1.0000
6.2853 -0.9907 -0.7014 1.0000
6.2939 -0.9342 -0.7014 1.0000
6.2967 -0.9155 -0.7014 1.0000
6.2994 -0.8966 -0.7014 1.0000
6.3021 -0.8777 -0.7014 1.0000
6.3047 -0.8588 -0.7014 1.0000
6.3072 -0.8399 -0.7014 1.0000
6.3169 -0.7643 -0.7014 1.0000
6.3192 -0.7454 -0.7014 1.0000
6.3213 -0.7264 -0.7014 1.0000
6.3235 -0.7076 -0.7014 1.0000
6.3316 -0.6317 -0.7014 1.0000
6.3334 -0.6128 -0.7014 1.0000
6.3353 -0.5938 -0.7014 1.0000
6.3387 -0.5559 -0.7014 1.0000
6.3404 -0.5368 -0.7014 1.0000
6.3419 -0.5179 -0.7014 1.0000
6.3435 -0.4989 -0.7014 1.0000
6.3464 -0.4609 -0.7014 1.0000
6.3490 -0.4229 -0.7014 1.0000
6.3526 -0.3659 -0.7014 1.0000
6.3537 -0.3469 -0.7014 1.0000
6.3547 -0.3279 -0.7014 1.0000
6.3582 -0.2516 -0.7014 1.0000
6.3589 -0.2325 -0.7014 1.0000
6.3596 -0.2136 -0.7014 1.0000
6.3613 -0.1565 -0.7014 1.0000
6.3617 -0.1374 -0.7014 1.0000
6.3625 -0.0993 -0.7014 1.0000
6.3631 -0.0421 -0.7014 1.0000
6.3632 0.0341 -0.7014 1.0000
6.3629 0.0721 -0.7014 1.0000
6.3627 0.0913 -0.7014 1.0000
6.3623 0.1103 -0.7014 1.0000
5.5021 -0.2393 -0.7014 1.0000
5.5028 -0.2229 -0.7014 1.0000
5.5039 -0.1898 -0.7014 1.0000
5.5045 -0.1734 -0.7014 1.0000
5.5054 -0.1403 -0.7014 1.0000
5.5062 -0.1073 -0.7014 1.0000
5.5065 -0.0909 -0.7014 1.0000
5.5068 -0.0744 -0.7014 1.0000
5.5073 -0.0085 -0.7014 1.0000
5.5073 0.0080 -0.7014 1.0000
5.5072 0.0411 -0.7014 1.0000
5.5070 0.0576 -0.7014 1.0000
5.5069 0.0740 -0.7014 1.0000
5.5063 0.1070 -0.7014 1.0000
5.5060 0.1235 -0.7014 1.0000
5.5056 0.1400 -0.7014 1.0000
5.5052 0.1565 -0.7014 1.0000
5.5041 0.1894 -0.7014 1.0000
5.5035 0.2059 -0.7014 1.0000
5.5029 0.2224 -0.7014 1.0000
5.5022 0.2388 -0.7014 1.0000
5.5007 0.2718 -0.7014 1.0000
5.4998 0.2883 -0.7014 1.0000
5.4971 0.3377 -0.7014 1.0000
5.4950 0.3706 -0.7014 1.0000
5.4927 0.4035 -0.7014 1.0000
5.4888 0.4528 -0.7014 1.0000
5.4875 0.4692 -0.7014 1.0000
5.4861 0.4856 -0.7014 1.0000
5.4846 0.5021 -0.7014 1.0000
5.4782 0.5678 -0.7014 1.0000
5.4729 0.6170 -0.7014 1.0000
5.4710 0.6334 -0.7014 1.0000
5.4691 0.6498 -0.7014 1.0000
5.4566 0.7479 -0.7014 1.0000
5.4543 0.7643 -0.7014 1.0000
5.4496 0.7969 -0.7014 1.0000
5.4472 0.8132 -0.7014 1.0000
5.4448 0.8295 -0.7014 1.0000
5.4423 0.8458 -0.7014 1.0000
5.4397 0.8621 -0.7014 1.0000
5.4371 0.8784 -0.7014 1.0000
5.4318 0.9110 -0.7014 1.0000
5.4234 0.9597 -0.7014 1.0000
5.4205 0.9760 -0.7014 1.0000
5.4146 1.0083 -0.7015 1.0000
5.4084 1.0409 -0.7015 1.0000
5.4021 1.0732 -0.7015 1.0000
5.3989 1.0893 -0.7015 1.0000
5.3854 1.1539 -0.7015 1.0000
5.3563 1.2827 -0.7015 1.0000
5.3525 1.2987 -0.7015 1.0000
5.3406 1.3468 -0.7015 1.0000
5.3365 1.3627 -0.7015 1.0000
5.3237 -1.4083 -0.7013 1.0000
5.3278 -1.3924 -0.7013 1.0000
5.3361 -1.3604 -0.7013 1.0000
5.3402 -1.3444 -0.7013 1.0000
5.3442 -1.3285 -0.7013 1.0000
5.3481 -1.3124 -0.7013 1.0000
5.3559 -1.2804 -0.7013 1.0000
5.3598 -1.2643 -0.7013 1.0000
5.3672 -1.2323 -0.7013 1.0000
5.3745 -1.2001 -0.7013 1.0000
5.3781 -1.1839 -0.7013 1.0000
5.3851 -1.1517 -0.7013 1.0000
5.3885 -1.1356 -0.7013 1.0000
5.3919 -1.1195 -0.7013 1.0000
5.3952 -1.1033 -0.7014 1.0000
5.4017 -1.0710 -0.7014 1.0000
5.4081 -1.0387 -0.7014 1.0000
5.4202 -0.9738 -0.7014 1.0000
5.4231 -0.9575 -0.7014 1.0000
5.4342 -0.8925 -0.7014 1.0000
5.4420 -0.8437 -0.7014 1.0000
5.4445 -0.8273 -0.7014 1.0000
5.4541 -0.7621 -0.7014 1.0000
5.4563 -0.7458 -0.7014 1.0000
5.4688 -0.6476 -0.7014 1.0000
5.4745 -0.5985 -0.7014 1.0000
5.4762 -0.5821 -0.7014 1.0000
5.4797 -0.5493 -0.7014 1.0000
5.4829 -0.5164 -0.7014 1.0000
5.4844 -0.5000 -0.7014 1.0000
5.4859 -0.4836 -0.7014 1.0000
5.4873 -0.4671 -0.7014 1.0000
5.4900 -0.4343 -0.7014 1.0000
5.4925 -0.4014 -0.7014 1.0000
5.4937 -0.3849 -0.7014 1.0000
5.4970 -0.3355 -0.7014 1.0000
5.4979 -0.3191 -0.7014 1.0000
5.4989 -0.3027 -0.7014 1.0000
5.5014 -0.2533 -0.7014 1.0000
5.5022 -0.2368 -0.7014 1.0000
5.5041 -0.1874 -0.7014 1.0000
5.5051 -0.1544 -0.7014 1.0000
5.5055 -0.1379 -0.7014 1.0000
5.5063 -0.1049 -0.7014 1.0000
5.5072 -0.0390 -0.7014 1.0000
5.5073 -0.0060 -0.7014 1.0000
5.5073 0.0106 -0.7014 1.0000
5.5073 0.0271 -0.7014 1.0000
5.5068 0.0765 -0.7014 1.0000
5.5063 0.1094 -0.7014 1.0000
5.5056 0.1424 -0.7014 1.0000
5.5046 0.1754 -0.7014 1.0000
5.5041 0.1919 -0.7014 1.0000
5.5021 0.2413 -0.7014 1.0000
5.5014 0.2578 -0.7014 1.0000
5.4979 0.3236 -0.7014 1.0000
5.4959 0.3567 -0.7014 1.0000
5.4948 0.3731 -0.7014 1.0000
5.4913 0.4225 -0.7014 1.0000
5.4858 0.4882 -0.7014 1.0000
5.4843 0.5046 -0.7014 1.0000
5.4828 0.5211 -0.7014 1.0000
5.4812 0.5374 -0.7014 1.0000
5.4762 0.5866 -0.7014 1.0000
5.4744 0.6031 -0.7014 1.0000
5.4726 0.6194 -0.7014 1.0000
5.4707 0.6358 -0.7014 1.0000
5.4668 0.6686 -0.7014 1.0000
5.4627 0.7014 -0.7014 1.0000
5.4606 0.7176 -0.7014 1.0000
5.4540 0.7667 -0.7014 1.0000
5.4493 0.7993 -0.7014 1.0000
5.4469 0.8156 -0.7014 1.0000
5.4444 0.8320 -0.7014 1.0000
5.4419 0.8483 -0.7014 1.0000
5.4367 0.8809 -0.7014 1.0000
5.4341 0.8972 -0.7014 1.0000
5.4313 0.9134 -0.7014 1.0000
5.4258 0.9459 -0.7014 1.0000
5.4171 0.9946 -0.7014 1.0000
5.4141 1.0109 -0.7015 1.0000
5.4111 1.0271 -0.7015 1.0000
5.4016 1.0756 -0.7015 1.0000
5.3951 1.1079 -0.7015 1.0000
5.3918 1.1241 -0.7015 1.0000
5.3815 1.1725 -0.7015 1.0000
5.3779 1.1886 -0.7015 1.0000
5.3707 1.2208 -0.7015 1.0000
5.3596 1.2690 -0.7015 1.0000
5.3557 1.2851 -0.7015 1.0000
5.3519 1.3011 -0.7015 1.0000
5.3480 1.3171 -0.7015 1.0000
5.3360 1.3651 -0.7015 1.0000
5.3235 1.4130 -0.7015 1.0000
5.3200 -1.4218 -0.7013 1.0000
5.3285 -1.3900 -0.7013 1.0000
5.3408 -1.3420 -0.7013 1.0000
5.3488 -1.3100 -0.7013 1.0000
5.3526 -1.2940 -0.7013 1.0000
5.3565 -1.2779 -0.7013 1.0000
5.3641 -1.2458 -0.7013 1.0000
5.3678 -1.2298 -0.7013 1.0000
5.3714 -1.2137 -0.7013 1.0000
5.3958 -1.1009 -0.7014 1.0000
5.3990 -1.0848 -0.7014 1.0000
5.4054 -1.0523 -0.7014 1.0000
5.4147 -1.0038 -0.7014 1.0000
5.4291 -0.9225 -0.7014 1.0000
5.4319 -0.9063 -0.7014 1.0000
5.4346 -0.8901 -0.7014 1.0000
5.4398 -0.8574 -0.7014 1.0000
5.4473 -0.8087 -0.7014 1.0000
5.4521 -0.7760 -0.7014 1.0000
5.4544 -0.7597 -0.7014 1.0000
5.4566 -0.7433 -0.7014 1.0000
5.4589 -0.7269 -0.7014 1.0000
5.4631 -0.6943 -0.7014 1.0000
5.4652 -0.6779 -0.7014 1.0000
5.4672 -0.6614 -0.7014 1.0000
5.4711 -0.6288 -0.7014 1.0000
5.4748 -0.5960 -0.7014 1.0000
5.4765 -0.5796 -0.7014 1.0000
5.4799 -0.5468 -0.7014 1.0000
5.4875 -0.4647 -0.7014 1.0000
5.4889 -0.4482 -0.7014 1.0000
5.4939 -0.3825 -0.7014 1.0000
5.4971 -0.3331 -0.7014 1.0000
5.4999 -0.2837 -0.7014 1.0000
5.5023 -0.2343 -0.7014 1.0000
5.5029 -0.2179 -0.7014 1.0000
5.5036 -0.2014 -0.7014 1.0000
5.5041 -0.1849 -0.7014 1.0000
5.5047 -0.1684 -0.7014 1.0000
5.5056 -0.1354 -0.7014 1.0000
5.5064 -0.1024 -0.7014 1.0000
5.5066 -0.0860 -0.7014 1.0000
5.5069 -0.0694 -0.7014 1.0000
5.5072 -0.0364 -0.7014 1.0000
5.5073 0.0295 -0.7014 1.0000
5.5071 0.0461 -0.7014 1.0000
5.5070 0.0625 -0.7014 1.0000
5.5068 0.0790 -0.7014 1.0000
5.5063 0.1120 -0.7014 1.0000
4.8443 -0.2688 -0.7014 1.0000
4.8459 -0.2398 -0.7014 1.0000
4.8465 -0.2253 -0.7014 1.0000
4.8472 -0.2108 -0.7014 1.0000
4.8484 -0.1818 -0.7014 1.0000
