ply
format ascii 1.0
element vertex 1592
property float32 x
property float32 y
property float32 z
property float32 I
end_header
50.0939 -9.8598 4.7565 1.0000
50.0939 -9.5486 4.7510 1.0000
50.0939 -9.2380 4.7457 1.0000
50.0939 -9.0830 4.7431 1.0000
50.0939 -8.7734 4.7380 1.0000
50.0939 -8.4645 4.7331 1.0000
50.0939 -7.8486 4.7239 1.0000
50.0939 -7.6950 4.7217 1.0000
50.0939 -7.5415 4.7196 1.0000
50.0938 -6.9289 4.7114 1.0000
50.0938 -5.6027 3.8386 1.0000
50.0938 -5.2992 3.8361 1.0000
50.0938 -5.1475 3.8349 1.0000
50.0938 -4.8445 3.8326 1.0000
50.0938 -4.5418 3.8304 1.0000
50.0938 -4.3907 3.8294 1.0000
50.0938 -4.2395 3.8284 1.0000
50.0938 -4.0885 3.8275 1.0000
50.0938 -3.6357 3.8248 1.0000
50.0938 -3.4850 3.8240 1.0000
50.0938 -3.1837 3.8225 1.0000
50.0938 -3.0331 3.8218 1.0000
50.0938 -2.8826 3.8211 1.0000
50.0938 -2.5817 3.8199 1.0000
50.0938 -2.4313 3.8193 1.0000
50.0939 -2.1306 3.8182 1.0000
50.0939 -1.9804 3.8178 1.0000
50.0939 -1.6800 3.8169 1.0000
50.0939 -1.5298 3.8166 1.0000
50.0939 -1.3796 3.8162 1.0000
50.0939 -0.7793 3.8153 1.0000
50.0939 -0.4793 3.8150 1.0000
50.0939 -0.1793 3.8148 1.0000
50.0939 -0.0292 3.8148 1.0000
50.0939 0.2708 3.8148 1.0000
50.0939 0.7209 3.8152 1.0000
50.0939 1.0210 3.8156 1.0000
50.0939 1.1711 3.8158 1.0000
50.0939 1.7716 3.8172 1.0000
50.0939 2.2223 3.8185 1.0000
50.0939 2.3727 3.8191 1.0000
50.0939 2.5230 3.8196 1.0000
50.0939 2.8239 3.8208 1.0000
50.0939 3.4262 3.8237 1.0000
50.0939 3.5770 3.8245 1.0000
50.0939 3.7278 3.8253 1.0000
50.0939 4.0296 3.8271 1.0000
50.0939 4.1806 3.8281 1.0000
50.0939 4.6341 3.8311 1.0000
50.0939 4.9369 3.8333 1.0000
50.0939 5.2400 3.8356 1.0000
50.0939 5.6954 3.8394 1.0000
50.0939 5.9995 3.8421 1.0000
50.0939 6.1517 3.8434 1.0000
50.0939 6.3040 3.8449 1.0000
50.0939 6.7617 3.8494 1.0000
50.0939 7.0675 3.8526 1.0000
50.0939 7.3737 3.8559 1.0000
50.0939 7.5270 3.8576 1.0000
50.0939 7.8341 3.8612 1.0000
50.0939 7.9879 3.8630 1.0000
50.0939 8.2958 3.8668 1.0000
50.0939 8.4500 3.8687 1.0000
50.0939 9.2234 3.8789 1.0000
50.0939 9.3786 3.8811 1.0000
50.0939 10.1571 3.8924 1.0000
50.0939 10.3134 3.8948 1.0000
50.0939 10.6265 3.8997 1.0000
50.0939 10.7834 3.9022 1.0000
50.0939 10.9404 3.9047 1.0000
50.0939 11.2551 3.9099 1.0000
50.0939 11.8872 3.9207 1.0000
50.0939 12.0458 3.9235 1.0000
50.0939 12.5229 3.9322 1.0000
50.0939 12.6824 3.9351 1.0000
50.0939 12.8421 3.9382 1.0000
50.0939 13.3229 3.9474 1.0000
50.0939 -13.3618 3.9482 1.0000
50.0939 -12.7211 3.9359 1.0000
50.0939 -11.9256 3.9214 1.0000
50.0939 -11.7672 3.9186 1.0000
50.0939 -11.6090 3.9159 1.0000
50.0939 -11.2933 3.9105 1.0000
50.0939 -10.8214 3.9028 1.0000
50.0939 -10.5078 3.8978 1.0000
50.0939 -10.3513 3.8954 1.0000
50.0939 -10.1950 3.8930 1.0000
50.0939 -10.0388 3.8906 1.0000
50.0939 -9.8829 3.8883 1.0000
50.0939 -9.5716 3.8838 1.0000
50.0939 -8.9511 3.8752 1.0000
50.0939 -8.6418 3.8711 1.0000
50.0939 -8.3331 3.8672 1.0000
50.0939 -7.7177 3.8598 1.0000
50.0939 -7.5642 3.8580 1.0000
50.0938 -7.2576 3.8546 1.0000
50.0938 -7.1045 3.8530 1.0000
50.0938 -6.9515 3.8513 1.0000
50.0938 -6.7987 3.8498 1.0000
50.0938 -6.4934 3.8467 1.0000
50.0938 -6.1886 3.8438 1.0000
50.0938 -5.7321 3.8397 1.0000
50.0938 -5.5803 3.8384 1.0000
50.0938 -4.8221 3.8324 1.0000
50.0938 -4.5195 3.8303 1.0000
50.0938 -4.0662 3.8273 1.0000
50.0938 -3.9152 3.8264 1.0000
50.0938 -3.6135 3.8247 1.0000
50.0938 -3.0109 3.8217 1.0000
50.0938 -2.8604 3.8210 1.0000
50.0938 -2.4090 3.8192 1.0000
50.0939 -2.1084 3.8182 1.0000
50.0939 -1.6578 3.8169 1.0000
50.0939 -1.0573 3.8156 1.0000
50.0939 -0.9072 3.8154 1.0000
50.0939 -0.4571 3.8150 1.0000
50.0939 -0.1571 3.8148 1.0000
50.0939 0.2930 3.8149 1.0000
50.0939 1.0432 3.8156 1.0000
50.0939 1.1932 3.8159 1.0000
50.0939 1.3433 3.8162 1.0000
50.0939 1.7938 3.8172 1.0000
50.0939 1.9440 3.8177 1.0000
50.0939 2.0943 3.8181 1.0000
50.0939 2.3949 3.8191 1.0000
50.0939 2.8461 3.8209 1.0000
50.0939 2.9967 3.8216 1.0000
50.0939 3.4486 3.8238 1.0000
50.0939 3.5993 3.8246 1.0000
50.0939 3.7501 3.8255 1.0000
50.0939 3.9010 3.8263 1.0000
50.0939 4.0519 3.8273 1.0000
50.0939 4.2029 3.8282 1.0000
50.0939 4.6565 3.8312 1.0000
50.0939 5.1107 3.8346 1.0000
50.0939 5.2624 3.8358 1.0000
50.0939 5.4141 3.8370 1.0000
50.0939 5.5659 3.8383 1.0000
50.0939 5.7179 3.8396 1.0000
50.0939 5.8699 3.8409 1.0000
50.0939 6.0220 3.8423 1.0000
50.0939 6.1742 3.8437 1.0000
50.0939 6.6316 3.8481 1.0000
50.0939 6.7843 3.8496 1.0000
50.0939 7.2432 3.8545 1.0000
50.0939 7.5497 3.8579 1.0000
50.0939 7.8568 3.8614 1.0000
50.0939 8.0106 3.8633 1.0000
50.0939 8.1645 3.8651 1.0000
50.0939 8.4728 3.8690 1.0000
50.0939 8.7817 3.8730 1.0000
50.0939 8.9364 3.8750 1.0000
50.0939 9.2463 3.8792 1.0000
50.0939 9.4015 3.8814 1.0000
50.0939 9.5569 3.8836 1.0000
50.0939 9.7125 3.8858 1.0000
50.0939 9.8682 3.8881 1.0000
50.0939 10.4930 3.8976 1.0000
50.0939 10.6497 3.9001 1.0000
50.0939 10.8066 3.9025 1.0000
50.0939 11.1209 3.9077 1.0000
50.0939 11.2785 3.9103 1.0000
50.0939 11.4361 3.9129 1.0000
50.0939 11.5941 3.9156 1.0000
50.0939 12.0692 3.9240 1.0000
50.0939 12.2281 3.9268 1.0000
50.0939 12.3871 3.9297 1.0000
50.0939 12.7060 3.9356 1.0000
50.0939 12.8657 3.9386 1.0000
50.0939 13.1861 3.9447 1.0000
50.0939 -13.1775 3.9446 1.0000
50.0939 -12.8572 3.9384 1.0000
50.0939 -12.6975 3.9354 1.0000
50.0939 -12.5379 3.9325 1.0000
50.0939 -12.3786 3.9295 1.0000
50.0939 -12.2196 3.9267 1.0000
50.0939 -12.0608 3.9238 1.0000
50.0939 -11.9021 3.9210 1.0000
50.0939 -11.7438 3.9182 1.0000
50.0939 -11.5857 3.9155 1.0000
50.0939 -11.4278 3.9128 1.0000
50.0939 -11.2700 3.9102 1.0000
50.0939 -10.7982 3.9024 1.0000
50.0939 -10.6413 3.8999 1.0000
50.0939 -10.3282 3.8950 1.0000
50.0939 -9.5486 3.8835 1.0000
50.0939 -9.3932 3.8813 1.0000
50.0939 -8.3104 3.8669 1.0000
50.0939 -8.0024 3.8632 1.0000
50.0939 -7.6950 3.8595 1.0000
50.0939 -7.5415 3.8578 1.0000
50.0938 -7.0818 3.8527 1.0000
50.0938 -5.7546 2.9843 1.0000
50.0938 -5.6027 2.9833 1.0000
50.0938 -5.4509 2.9823 1.0000
25.0528 -2.4229 1.4897 1.0000
25.0515 -2.1202 1.4880 1.0000
25.0511 -2.0446 1.4876 1.0000
25.0505 -1.8936 1.4868 1.0000
25.0504 -1.7428 1.4862 1.0000
25.0530 -1.5923 1.4857 1.0000
25.0547 -1.4417 1.4853 1.0000
25.0542 -1.3664 1.4850 1.0000
25.0537 -1.2912 1.4848 1.0000
25.0525 -1.1408 1.4843 1.0000
25.0519 -1.0656 1.4840 1.0000
25.0512 -0.9904 1.4838 1.0000
25.0511 -0.9153 1.4836 1.0000
25.0534 -0.7652 1.4835 1.0000
25.0596 -0.3899 1.4833 1.0000
25.0604 -0.2398 1.4833 1.0000
25.0611 -0.0897 1.4832 1.0000
25.0615 -0.0146 1.4833 1.0000
25.0619 0.0604 1.4833 1.0000
25.0623 0.1354 1.4833 1.0000
25.0630 0.2855 1.4834 1.0000
25.0638 0.4357 1.4836 1.0000
25.0653 0.7361 1.4841 1.0000
50.0939 1.7716 2.9667 1.0000
50.0939 1.9218 2.9670 1.0000
50.0939 2.3726 2.9681 1.0000
50.0939 2.6734 2.9690 1.0000
50.0939 2.8239 2.9695 1.0000
50.0939 2.9744 2.9700 1.0000
50.0939 3.2755 2.9711 1.0000
50.0939 3.4262 2.9717 1.0000
50.0939 3.7278 2.9730 1.0000
50.0939 4.0296 2.9744 1.0000
50.0939 4.1806 2.9751 1.0000
50.0939 4.3317 2.9759 1.0000
50.0939 4.4828 2.9766 1.0000
50.0939 4.7855 2.9783 1.0000
50.0939 5.2400 2.9810 1.0000
50.0939 5.5434 2.9829 1.0000
50.0939 5.8473 2.9849 1.0000
50.0939 6.1517 2.9871 1.0000
50.0939 6.3040 2.9882 1.0000
50.0939 6.4565 2.9893 1.0000
50.0939 6.6090 2.9905 1.0000
50.0939 6.7617 2.9917 1.0000
50.0939 7.3737 2.9967 1.0000
50.0939 7.8341 3.0008 1.0000
50.0939 7.9878 3.0023 1.0000
50.0939 8.6043 3.0082 1.0000
50.0939 8.7588 3.0098 1.0000
50.0939 8.9135 3.0114 1.0000
50.0939 9.0683 3.0130 1.0000
50.0939 9.2233 3.0146 1.0000
50.0939 9.3786 3.0163 1.0000
50.0939 9.5339 3.0180 1.0000
50.0939 10.3134 3.0270 1.0000
50.0939 10.4698 3.0289 1.0000
50.0939 10.7833 3.0327 1.0000
50.0939 11.0977 3.0367 1.0000
50.0939 11.2551 3.0387 1.0000
50.0939 11.4128 3.0408 1.0000
50.0939 11.8872 3.0471 1.0000
50.0939 12.0457 3.0493 1.0000
50.0939 12.2045 3.0515 1.0000
50.0939 12.8421 3.0607 1.0000
50.0939 13.0021 3.0630 1.0000
50.0939 13.1623 3.0654 1.0000
50.0939 -13.2012 3.0660 1.0000
50.0939 -12.8809 3.0612 1.0000
50.0939 -12.5615 3.0566 1.0000
50.0939 -11.7672 3.0455 1.0000
50.0939 -11.6091 3.0434 1.0000
50.0939 -11.4511 3.0413 1.0000
50.0939 -11.2933 3.0392 1.0000
50.0939 -11.1358 3.0372 1.0000
50.0939 -10.0388 3.0237 1.0000
50.0939 -9.5715 3.0184 1.0000
50.0939 -9.4162 3.0167 1.0000
50.0939 -9.1059 3.0134 1.0000
50.0939 -8.3331 3.0055 1.0000
50.0939 -8.1790 3.0041 1.0000
50.0938 -7.4108 2.9971 1.0000
50.0938 -6.9515 2.9932 1.0000
50.0938 -6.7987 2.9920 1.0000
50.0938 -6.3409 2.9885 1.0000
50.0938 -6.1886 2.9873 1.0000
50.0938 -6.0363 2.9862 1.0000
50.0938 -5.7322 2.9841 1.0000
50.0938 -5.4284 2.9822 1.0000
25.0527 -2.4116 1.4896 1.0000
25.0525 -2.3359 1.4892 1.0000
25.0518 -2.1846 1.4883 1.0000
25.0511 -2.0335 1.4875 1.0000
25.0507 -1.9579 1.4871 1.0000
25.0502 -1.8070 1.4864 1.0000
25.0532 -1.5811 1.4857 1.0000
25.0543 -1.5059 1.4855 1.0000
25.0546 -1.4306 1.4853 1.0000
25.0536 -1.2800 1.4847 1.0000
25.0531 -1.2049 1.4845 1.0000
25.0517 -1.0544 1.4840 1.0000
25.0511 -0.9792 1.4838 1.0000
25.0523 -0.8291 1.4835 1.0000
25.0563 -0.6039 1.4834 1.0000
25.0576 -0.5289 1.4834 1.0000
25.0589 -0.4539 1.4833 1.0000
25.0600 -0.3037 1.4833 1.0000
25.0611 -0.0786 1.4832 1.0000
25.0616 -0.0035 1.4833 1.0000
25.0620 0.0715 1.4833 1.0000
25.0623 0.1465 1.4833 1.0000
25.0630 0.2967 1.4835 1.0000
25.0634 0.3717 1.4835 1.0000
25.0642 0.5220 1.4837 1.0000
25.0646 0.5970 1.4839 1.0000
25.0650 0.6721 1.4840 1.0000
25.0654 0.7472 1.4841 1.0000
50.0939 1.9440 2.9670 1.0000
50.0939 2.0942 2.9674 1.0000
50.0939 2.3948 2.9682 1.0000
50.0939 2.5452 2.9686 1.0000
50.0939 3.4485 2.9718 1.0000
50.0939 3.5992 2.9724 1.0000
50.0939 4.2029 2.9752 1.0000
50.0939 4.5052 2.9768 1.0000
50.0939 4.8078 2.9784 1.0000
50.0939 5.1108 2.9802 1.0000
50.0939 5.7178 2.9841 1.0000
50.0939 6.1742 2.9872 1.0000
50.0939 6.3266 2.9884 1.0000
50.0939 6.4790 2.9895 1.0000
50.0939 6.6316 2.9907 1.0000
50.0939 6.7843 2.9919 1.0000
50.0939 6.9371 2.9931 1.0000
50.0939 7.2431 2.9956 1.0000
50.0939 7.8568 3.0010 1.0000
50.0939 8.7816 3.0100 1.0000
50.0939 9.0912 3.0132 1.0000
50.0939 9.4015 3.0166 1.0000
50.0939 9.8681 3.0218 1.0000
50.0939 10.6496 3.0311 1.0000
50.0939 10.8066 3.0330 1.0000
50.0939 11.2784 3.0390 1.0000
50.0939 11.7522 3.0453 1.0000
50.0939 11.9106 3.0475 1.0000
50.0939 12.0692 3.0496 1.0000
50.0939 12.2280 3.0519 1.0000
50.0939 12.3871 3.0541 1.0000
50.0939 13.1860 3.0658 1.0000
50.0939 13.3466 3.0682 1.0000
50.0939 -13.1775 3.0657 1.0000
50.0939 -13.0172 3.0633 1.0000
50.0939 -12.8572 3.0609 1.0000
50.0939 -12.5379 3.0563 1.0000
50.0939 -12.3786 3.0540 1.0000
50.0939 -12.2196 3.0517 1.0000
50.0939 -12.0608 3.0495 1.0000
50.0939 -11.9021 3.0473 1.0000
50.0939 -11.7438 3.0452 1.0000
50.0939 -11.5857 3.0431 1.0000
50.0939 -11.4277 3.0410 1.0000
50.0939 -11.2700 3.0389 1.0000
50.0939 -11.1125 3.0369 1.0000
50.0939 -10.9553 3.0349 1.0000
50.0939 -10.7982 3.0329 1.0000
50.0939 -10.4846 3.0290 1.0000
50.0939 -10.3282 3.0272 1.0000
50.0939 -10.1718 3.0253 1.0000
50.0939 -10.0158 3.0235 1.0000
50.0939 -9.8598 3.0217 1.0000
50.0939 -8.7735 3.0099 1.0000
50.0939 -8.4645 3.0068 1.0000
50.0939 -8.1563 3.0038 1.0000
50.0939 -8.0024 3.0024 1.0000
50.0939 -7.8486 3.0010 1.0000
50.0938 -7.3882 2.9969 1.0000
50.0938 -6.9289 2.9930 1.0000
50.0938 -5.6027 2.1297 1.0000
50.0938 -5.2991 2.1283 1.0000
50.0938 -4.9959 2.1270 1.0000
25.0072 -2.4184 1.0615 1.0000
25.0102 -2.1166 1.0605 1.0000
25.0114 -2.0413 1.0603 1.0000
25.0127 -1.9660 1.0601 1.0000
25.0154 -1.8156 1.0597 1.0000
25.0166 -1.7404 1.0595 1.0000
25.0193 -1.5901 1.0592 1.0000
25.0214 -1.4398 1.0589 1.0000
25.0223 -1.3647 1.0588 1.0000
25.0234 -1.1394 1.0584 1.0000
25.0254 -0.9893 1.0582 1.0000
25.0276 -0.8393 1.0580 1.0000
25.0302 -0.6894 1.0579 1.0000
25.0329 -0.5394 1.0579 1.0000
25.0342 -0.4645 1.0579 1.0000
25.0368 -0.3145 1.0579 1.0000
25.0395 -0.1646 1.0580 1.0000
25.0434 0.0604 1.0581 1.0000
25.0447 0.1354 1.0582 1.0000
25.0461 0.2104 1.0583 1.0000
25.0474 0.2854 1.0583 1.0000
25.0511 0.5105 1.0586 1.0000
25.0519 0.6607 1.0588 1.0000
25.0523 0.7357 1.0589 1.0000
25.2379 0.8169 1.0669 1.0000
25.2376 0.8925 1.0670 1.0000
25.2351 0.9681 1.0670 1.0000
25.2334 1.0437 1.0670 1.0000
25.2316 1.1194 1.0671 1.0000
25.2330 1.1951 1.0673 1.0000
25.2329 1.2708 1.0675 1.0000
25.2318 1.3466 1.0676 1.0000
25.2307 1.4223 1.0677 1.0000
25.2326 1.4982 1.0680 1.0000
25.2395 1.7262 1.0689 1.0000
25.2432 1.8785 1.0695 1.0000
25.2445 1.9546 1.0698 1.0000
25.2504 2.0311 1.0703 1.0000
24.8476 2.1486 1.0537 1.0000
25.2811 2.3387 1.0727 1.0000
25.2895 2.4923 1.0737 1.0000
25.2937 2.5693 1.0742 1.0000
50.0938 5.2400 2.1281 1.0000
50.0938 5.3917 2.1287 1.0000
50.0938 5.5435 2.1294 1.0000
50.0938 5.8474 2.1309 1.0000
50.0938 5.9995 2.1316 1.0000
50.0938 6.1517 2.1324 1.0000
50.0938 6.3040 2.1332 1.0000
50.0938 6.4564 2.1340 1.0000
50.0938 6.6090 2.1348 1.0000
50.0938 6.7617 2.1357 1.0000
50.0938 7.5270 2.1403 1.0000
50.0938 7.9878 2.1432 1.0000
50.0938 8.1417 2.1443 1.0000
50.0938 8.2957 2.1453 1.0000
50.0938 9.0683 2.1509 1.0000
50.0938 9.3786 2.1533 1.0000
50.0938 9.8451 2.1570 1.0000
50.0938 10.0010 2.1583 1.0000
50.0938 10.1571 2.1596 1.0000
50.0938 10.6265 2.1636 1.0000
50.0938 11.2551 2.1693 1.0000
50.0938 11.4128 2.1707 1.0000
50.0938 11.5707 2.1722 1.0000
50.0938 11.7288 2.1737 1.0000
50.0938 12.0457 2.1768 1.0000
50.0938 12.3636 2.1800 1.0000
50.0938 12.5228 2.1816 1.0000
50.0938 13.0021 2.1866 1.0000
50.0938 13.1623 2.1883 1.0000
50.0938 13.3228 2.1901 1.0000
50.0939 -13.2012 2.1888 1.0000
50.0939 -12.8809 2.1854 1.0000
50.0939 -12.7210 2.1837 1.0000
50.0939 -12.5615 2.1820 1.0000
50.0939 -12.4022 2.1804 1.0000
50.0939 -12.2430 2.1788 1.0000
50.0939 -11.6090 2.1726 1.0000
50.0939 -11.4511 2.1711 1.0000
50.0939 -11.2933 2.1696 1.0000
50.0939 -11.1358 2.1682 1.0000
50.0939 -10.9785 2.1667 1.0000
50.0939 -10.8214 2.1653 1.0000
50.0939 -10.1949 2.1599 1.0000
50.0939 -10.0388 2.1586 1.0000
50.0939 -9.1059 2.1512 1.0000
50.0939 -8.9510 2.1500 1.0000
50.0939 -8.6417 2.1478 1.0000
50.0939 -8.4873 2.1467 1.0000
50.0939 -8.3331 2.1456 1.0000
50.0938 -8.0251 2.1435 1.0000
50.0939 -7.8713 2.1425 1.0000
50.0939 -7.7177 2.1415 1.0000
50.0939 -7.5641 2.1405 1.0000
50.0938 -7.2576 2.1386 1.0000
50.0938 -6.6460 2.1350 1.0000
50.0938 -6.4934 2.1342 1.0000
50.0938 -6.3409 2.1334 1.0000
50.0938 -6.1886 2.1326 1.0000
50.0938 -5.7322 2.1303 1.0000
50.0938 -5.5803 2.1296 1.0000
50.0938 -5.4284 2.1289 1.0000
50.0938 -5.2767 2.1282 1.0000
50.0938 -5.1251 2.1275 1.0000
25.0072 -2.4072 1.0615 1.0000
25.0068 -2.3317 1.0611 1.0000
25.0077 -2.2562 1.0609 1.0000
25.0103 -2.1055 1.0604 1.0000
25.0116 -2.0302 1.0602 1.0000
25.0129 -1.9550 1.0600 1.0000
25.0207 -1.5039 1.0590 1.0000
25.0215 -1.4287 1.0589 1.0000
25.0225 -1.3536 1.0588 1.0000
25.0234 -1.2786 1.0586 1.0000
25.0235 -1.1283 1.0583 1.0000
25.0245 -1.0533 1.0582 1.0000
25.0255 -0.9782 1.0582 1.0000
25.0291 -0.7532 1.0580 1.0000
25.0304 -0.6783 1.0579 1.0000
25.0344 -0.4534 1.0579 1.0000
25.0357 -0.3784 1.0579 1.0000
25.0370 -0.3035 1.0579 1.0000
25.0397 -0.1535 1.0580 1.0000
25.0410 -0.0785 1.0580 1.0000
25.0423 -0.0035 1.0581 1.0000
25.0476 0.2965 1.0584 1.0000
25.0503 0.4466 1.0586 1.0000
25.0523 0.7469 1.0589 1.0000
25.2379 0.8281 1.0669 1.0000
25.2372 0.9037 1.0670 1.0000
25.2348 0.9793 1.0670 1.0000
25.2331 1.0549 1.0670 1.0000
25.2327 1.2821 1.0675 1.0000
25.2316 1.3578 1.0676 1.0000
25.2375 1.6614 1.0686 1.0000
25.2398 1.7375 1.0689 1.0000
25.2419 1.8136 1.0692 1.0000
25.2447 1.9659 1.0698 1.0000
24.8476 2.1596 1.0538 1.0000
25.2860 2.4268 1.0733 1.0000
25.2943 2.5806 1.0743 1.0000
50.0938 5.4141 2.1288 1.0000
50.0938 5.5659 2.1295 1.0000
50.0938 5.8699 2.1310 1.0000
50.0938 6.0220 2.1317 1.0000
50.0938 6.1742 2.1325 1.0000
50.0938 6.3265 2.1333 1.0000
50.0938 6.4790 2.1341 1.0000
50.0938 6.7843 2.1358 1.0000
50.0938 6.9371 2.1367 1.0000
50.0938 7.2431 2.1385 1.0000
50.0938 7.7031 2.1414 1.0000
50.0938 8.0105 2.1434 1.0000
50.0938 8.4728 2.1466 1.0000
50.0938 8.6271 2.1477 1.0000
50.0938 8.7817 2.1488 1.0000
50.0938 8.9364 2.1499 1.0000
50.0938 9.2463 2.1523 1.0000
50.0938 9.4014 2.1535 1.0000
50.0938 9.7124 2.1559 1.0000
50.0938 9.8682 2.1572 1.0000
50.0938 10.0241 2.1585 1.0000
50.0938 10.1802 2.1598 1.0000
50.0938 10.3365 2.1611 1.0000
50.0938 10.4929 2.1624 1.0000
50.0938 10.9636 2.1666 1.0000
50.0938 11.2784 2.1695 1.0000
50.0938 11.7522 2.1740 1.0000
50.0938 11.9106 2.1755 1.0000
50.0938 12.2280 2.1787 1.0000
50.0938 12.5464 2.1819 1.0000
50.0938 12.7059 2.1835 1.0000
50.0938 13.0257 2.1869 1.0000
50.0938 13.1860 2.1886 1.0000
50.0939 -13.3380 2.1902 1.0000
50.0939 -13.0172 2.1868 1.0000
50.0939 -12.8572 2.1851 1.0000
50.0939 -12.2196 2.1786 1.0000
50.0939 -12.0607 2.1770 1.0000
50.0939 -11.9022 2.1754 1.0000
50.0939 -11.5857 2.1724 1.0000
50.0939 -11.2700 2.1694 1.0000
50.0939 -10.7982 2.1651 1.0000
50.0939 -10.3282 2.1610 1.0000
50.0939 -10.0158 2.1584 1.0000
50.0939 -9.8598 2.1571 1.0000
50.0939 -9.7041 2.1559 1.0000
50.0939 -9.5486 2.1546 1.0000
50.0939 -9.2380 2.1522 1.0000
50.0939 -8.9281 2.1499 1.0000
50.0939 -8.7734 2.1487 1.0000
50.0939 -8.6189 2.1476 1.0000
50.0939 -8.3103 2.1454 1.0000
50.0939 -8.1563 2.1444 1.0000
50.0939 -7.8486 2.1423 1.0000
50.0939 -7.5415 2.1404 1.0000
50.0938 -7.3881 2.1394 1.0000
50.0938 -7.2349 2.1385 1.0000
50.0938 -5.7546 1.2778 1.0000
50.0938 -5.6027 1.2773 1.0000
50.0938 -5.4509 1.2769 1.0000
50.0938 -5.1475 1.2761 1.0000
50.0938 -4.9960 1.2757 1.0000
24.9719 -2.3395 0.6356 1.0000
24.9732 -2.2642 0.6354 1.0000
24.9758 -2.1137 0.6352 1.0000
24.9773 -2.0386 0.6350 1.0000
24.9797 -1.9635 0.6350 1.0000
24.9845 -1.8134 0.6348 1.0000
24.9917 -1.5884 0.6346 1.0000
24.9963 -1.4384 0.6345 1.0000
25.0002 -1.2884 0.6344 1.0000
25.0023 -1.1384 0.6342 1.0000
25.0056 -0.9886 0.6342 1.0000
25.0081 -0.9137 0.6341 1.0000
25.0128 -0.7639 0.6341 1.0000
25.0174 -0.6141 0.6342 1.0000
25.0197 -0.5392 0.6342 1.0000
25.0244 -0.3893 0.6342 1.0000
25.0266 -0.3144 0.6342 1.0000
25.0290 -0.2395 0.6343 1.0000
25.0313 -0.1646 0.6343 1.0000
25.0351 -0.0146 0.6344 1.0000
25.0364 0.0603 0.6344 1.0000
25.0389 0.2103 0.6345 1.0000
25.0402 0.2853 0.6346 1.0000
25.0452 0.5854 0.6348 1.0000
25.0464 0.6605 0.6349 1.0000
25.0477 0.7356 0.6350 1.0000
25.2095 0.8916 0.6392 1.0000
25.2047 1.1182 0.6393 1.0000
25.2028 1.2694 0.6395 1.0000
25.2006 1.4206 0.6396 1.0000
25.2014 1.4963 0.6397 1.0000
25.2044 1.6480 0.6401 1.0000
25.2058 1.7998 0.6404 1.0000
25.2082 1.9518 0.6407 1.0000
25.2112 2.0280 0.6409 1.0000
25.2183 2.1807 0.6414 1.0000
25.2216 2.2571 0.6417 1.0000
50.0938 5.3917 1.2767 1.0000
50.0938 5.6954 1.2776 1.0000
50.0938 5.9995 1.2785 1.0000
50.0938 6.1517 1.2790 1.0000
50.0938 6.4564 1.2799 1.0000
50.0938 7.0675 1.2820 1.0000
50.0938 7.5270 1.2837 1.0000
50.0938 7.6805 1.2842 1.0000
50.0938 8.2957 1.2867 1.0000
50.0938 8.4500 1.2873 1.0000
50.0938 8.7588 1.2887 1.0000
50.0938 8.9136 1.2894 1.0000
50.0938 9.2233 1.2908 1.0000
50.0938 9.6894 1.2929 1.0000
50.0938 9.8451 1.2937 1.0000
50.0938 10.0011 1.2945 1.0000
50.0938 10.4698 1.2968 1.0000
50.0938 10.6265 1.2977 1.0000
50.0938 10.7833 1.2985 1.0000
50.0938 10.9404 1.2993 1.0000
50.0938 11.2552 1.3011 1.0000
50.0938 11.4129 1.3019 1.0000
50.0938 11.5707 1.3028 1.0000
50.0938 11.7289 1.3038 1.0000
50.0938 12.3636 1.3075 1.0000
50.0938 12.5229 1.3085 1.0000
50.0938 13.0021 1.3115 1.0000
50.0938 13.1623 1.3125 1.0000
50.0938 13.3229 1.3135 1.0000
50.0938 -13.3618 1.3138 1.0000
50.0939 -13.2012 1.3128 1.0000
50.0939 -13.0409 1.3117 1.0000
50.0938 -12.7211 1.3097 1.0000
50.0939 -12.2431 1.3068 1.0000
50.0938 -12.0842 1.3058 1.0000
50.0939 -11.9257 1.3049 1.0000
50.0938 -11.7672 1.3040 1.0000
50.0939 -11.6090 1.3031 1.0000
50.0939 -11.2933 1.3013 1.0000
50.0939 -11.1358 1.3004 1.0000
50.0939 -10.8214 1.2987 1.0000
50.0939 -10.6645 1.2979 1.0000
50.0938 -10.0388 1.2947 1.0000
50.0939 -9.8829 1.2939 1.0000
50.0938 -9.7271 1.2931 1.0000
50.0938 -9.5716 1.2924 1.0000
50.0939 -9.1059 1.2902 1.0000
50.0938 -8.9510 1.2895 1.0000
50.0938 -7.7177 1.2844 1.0000
50.0938 -7.5642 1.2838 1.0000
50.0938 -7.4108 1.2832 1.0000
50.0938 -7.1045 1.2821 1.0000
50.0938 -6.7987 1.2811 1.0000
50.0938 -6.4934 1.2800 1.0000
50.0938 -6.1886 1.2791 1.0000
50.0938 -6.0364 1.2786 1.0000
50.0938 -5.5803 1.2773 1.0000
50.0938 -5.4285 1.2769 1.0000
24.9708 -2.4037 0.6357 1.0000
24.9734 -2.2531 0.6354 1.0000
24.9747 -2.1779 0.6353 1.0000
24.9760 -2.1027 0.6352 1.0000
24.9801 -1.9524 0.6349 1.0000
24.9825 -1.8773 0.6349 1.0000
24.9848 -1.8022 0.6348 1.0000
24.9873 -1.7273 0.6347 1.0000
24.9920 -1.5772 0.6346 1.0000
24.9945 -1.5023 0.6345 1.0000
24.9966 -1.4273 0.6345 1.0000
25.0004 -1.2773 0.6344 1.0000
25.0015 -1.2023 0.6343 1.0000
25.0025 -1.1273 0.6342 1.0000
25.0034 -1.0523 0.6342 1.0000
25.0059 -0.9775 0.6342 1.0000
25.0085 -0.9026 0.6341 1.0000
25.0154 -0.6779 0.6341 1.0000
25.0201 -0.5281 0.6342 1.0000
25.0294 -0.2284 0.6343 1.0000
25.0317 -0.1535 0.6343 1.0000
25.0340 -0.0785 0.6344 1.0000
25.0378 0.1464 0.6345 1.0000
25.0404 0.2964 0.6346 1.0000
25.0429 0.4464 0.6347 1.0000
25.0454 0.5966 0.6348 1.0000
25.0466 0.6716 0.6349 1.0000
25.2095 0.8271 0.6392 1.0000
25.2095 0.9027 0.6392 1.0000
25.2045 1.1293 0.6393 1.0000
25.2036 1.2049 0.6394 1.0000
25.2027 1.2805 0.6395 1.0000
25.2035 1.5834 0.6399 1.0000
25.2065 1.8870 0.6405 1.0000
25.2116 2.0393 0.6410 1.0000
25.2221 2.2684 0.6417 1.0000
25.2288 2.4214 0.6423 1.0000
25.2322 2.4979 0.6425 1.0000
25.2355 2.5746 0.6428 1.0000
50.0938 5.5659 1.2772 1.0000
50.0938 6.0220 1.2786 1.0000
50.0938 6.1742 1.2790 1.0000
50.0938 6.3266 1.2795 1.0000
50.0938 6.7843 1.2810 1.0000
50.0938 6.9371 1.2815 1.0000
50.0938 7.0900 1.2821 1.0000
50.0938 7.2431 1.2826 1.0000
50.0938 7.3964 1.2832 1.0000
50.0938 7.7032 1.2843 1.0000
50.0938 7.8568 1.2849 1.0000
50.0938 8.0106 1.2855 1.0000
50.0938 8.1645 1.2862 1.0000
50.0938 8.4728 1.2874 1.0000
50.0938 9.0913 1.2902 1.0000
50.0938 9.5569 1.2923 1.0000
50.0938 9.7125 1.2931 1.0000
50.0938 10.0241 1.2946 1.0000
50.0938 10.3365 1.2962 1.0000
50.0938 10.4930 1.2970 1.0000
50.0938 10.9637 1.2995 1.0000
50.0938 11.1209 1.3003 1.0000
50.0938 11.2785 1.3012 1.0000
50.0938 11.4362 1.3021 1.0000
50.0938 11.5941 1.3030 1.0000
50.0938 12.3871 1.3077 1.0000
50.0938 12.5464 1.3086 1.0000
50.0938 12.8657 1.3106 1.0000
50.0938 13.1861 1.3127 1.0000
50.0939 -13.3380 1.3136 1.0000
50.0939 -13.0172 1.3116 1.0000
50.0939 -12.3787 1.3076 1.0000
50.0938 -12.2196 1.3066 1.0000
50.0939 -12.0608 1.3057 1.0000
50.0938 -11.9021 1.3048 1.0000
50.0938 -11.7438 1.3038 1.0000
50.0939 -11.4278 1.3020 1.0000
50.0939 -11.2700 1.3011 1.0000
50.0939 -11.1125 1.3003 1.0000
50.0939 -10.6413 1.2977 1.0000
50.0939 -10.4846 1.2969 1.0000
50.0938 -10.3282 1.2961 1.0000
50.0938 -10.1718 1.2953 1.0000
50.0938 -9.7041 1.2930 1.0000
50.0938 -9.2380 1.2908 1.0000
50.0938 -9.0830 1.2901 1.0000
50.0938 -8.9281 1.2894 1.0000
50.0938 -8.7734 1.2887 1.0000
50.0938 -8.1563 1.2861 1.0000
50.0939 -7.8486 1.2849 1.0000
50.0939 -7.6950 1.2843 1.0000
50.0938 -7.0819 1.2820 1.0000
50.0938 -6.9289 1.2815 1.0000
50.0938 -5.6027 0.4257 1.0000
24.9380 -2.3364 0.2115 1.0000
24.9387 -2.2611 0.2115 1.0000
24.9396 -2.1859 0.2114 1.0000
24.9419 -1.9605 0.2113 1.0000
24.9427 -1.8854 0.2113 1.0000
24.8263 -1.5032 0.2101 1.0000
25.3291 -1.2293 0.2142 1.0000
25.3291 -1.0773 0.2141 1.0000
25.3291 -1.0014 0.2141 1.0000
24.8503 -0.8334 0.2100 1.0000
24.9806 -0.7629 0.2111 1.0000
24.9998 -0.6885 0.2112 1.0000
25.0022 -0.6137 0.2112 1.0000
25.0045 -0.5388 0.2112 1.0000
25.0068 -0.4640 0.2112 1.0000
25.0091 -0.3891 0.2112 1.0000
25.0116 -0.3142 0.2112 1.0000
25.0142 -0.2393 0.2113 1.0000
25.0167 -0.1644 0.2113 1.0000
25.0193 -0.0895 0.2113 1.0000
25.0294 0.2103 0.2114 1.0000
25.0345 0.3603 0.2114 1.0000
25.1985 0.8912 0.2129 1.0000
25.0969 1.0381 0.2121 1.0000
25.0905 1.1131 0.2121 1.0000
25.4498 1.2818 0.2152 1.0000
25.4498 1.5876 0.2154 1.0000
25.4499 1.6641 0.2154 1.0000
25.4499 1.7407 0.2154 1.0000
25.0391 1.7880 0.2120 1.0000
25.1955 1.9509 0.2134 1.0000
25.1991 2.0270 0.2135 1.0000
25.2027 2.1033 0.2136 1.0000
25.2062 2.1796 0.2137 1.0000
25.2170 2.4090 0.2139 1.0000
25.2205 2.4855 0.2140 1.0000
50.0938 5.3917 0.4255 1.0000
50.0938 5.5434 0.4256 1.0000
50.0938 5.6954 0.4258 1.0000
50.0938 6.1517 0.4262 1.0000
50.0938 6.3040 0.4264 1.0000
50.0938 6.4564 0.4266 1.0000
50.0938 6.7617 0.4269 1.0000
50.0938 7.2205 0.4274 1.0000
50.0938 7.3737 0.4276 1.0000
50.0938 7.5270 0.4278 1.0000
50.0938 7.9878 0.4284 1.0000
50.0938 8.1417 0.4286 1.0000
50.0938 8.6043 0.4293 1.0000
50.0938 8.9135 0.4297 1.0000
50.0938 9.0683 0.4299 1.0000
50.0938 9.2234 0.4302 1.0000
50.0938 9.3785 0.4304 1.0000
50.0938 9.5339 0.4307 1.0000
50.0938 9.8451 0.4311 1.0000
50.0938 10.0010 0.4314 1.0000
50.0938 10.1571 0.4317 1.0000
50.0938 10.4698 0.4322 1.0000
50.0938 10.6265 0.4325 1.0000
50.0938 10.7834 0.4328 1.0000
50.0938 10.9404 0.4330 1.0000
50.0938 11.2551 0.4336 1.0000
50.0938 11.5707 0.4342 1.0000
50.0938 11.7288 0.4345 1.0000
50.0938 11.8872 0.4348 1.0000
50.0938 12.5229 0.4361 1.0000
50.0938 12.6823 0.4364 1.0000
50.0938 13.0021 0.4371 1.0000
50.0938 13.1623 0.4374 1.0000
50.0938 13.3228 0.4378 1.0000
50.0938 -12.4021 0.4358 1.0000
50.0938 -12.2430 0.4355 1.0000
50.0939 -12.0842 0.4352 1.0000
50.0938 -11.9256 0.4349 1.0000
50.0939 -11.6090 0.4343 1.0000
50.0939 -11.4511 0.4340 1.0000
50.0939 -11.2933 0.4337 1.0000
50.0938 -10.8214 0.4328 1.0000
50.0939 -10.6645 0.4325 1.0000
50.0939 -9.8829 0.4312 1.0000
50.0938 -9.7271 0.4310 1.0000
50.0939 -9.5716 0.4307 1.0000
50.0938 -9.4161 0.4305 1.0000
50.0938 -9.2609 0.4302 1.0000
50.0938 -8.6417 0.4293 1.0000
50.0938 -8.1790 0.4287 1.0000
50.0939 -8.0251 0.4285 1.0000
50.0938 -7.8713 0.4283 1.0000
50.0939 -7.5642 0.4279 1.0000
50.0938 -7.2576 0.4275 1.0000
50.0938 -6.9515 0.4271 1.0000
50.0938 -6.1886 0.4263 1.0000
50.0938 -6.0363 0.4261 1.0000
50.0938 -5.8842 0.4260 1.0000
50.0938 -5.5803 0.4257 1.0000
50.0938 -5.4284 0.4255 1.0000
50.0938 -5.1251 0.4253 1.0000
24.9389 -2.2500 0.2115 1.0000
24.9397 -2.1748 0.2114 1.0000
24.9405 -2.0996 0.2114 1.0000
24.9412 -2.0245 0.2113 1.0000
24.9436 -1.7993 0.2112 1.0000
24.9444 -1.7243 0.2112 1.0000
24.8333 -1.5672 0.2101 1.0000
24.8266 -1.4921 0.2100 1.0000
25.3291 -1.2181 0.2142 1.0000
25.3291 -1.1421 0.2141 1.0000
25.3291 -1.0661 0.2141 1.0000
24.8480 -0.8968 0.2100 1.0000
24.9979 -0.7523 0.2112 1.0000
25.0002 -0.6775 0.2112 1.0000
25.0025 -0.6026 0.2112 1.0000
25.0048 -0.5277 0.2112 1.0000
25.0071 -0.4529 0.2112 1.0000
25.0145 -0.2282 0.2113 1.0000
25.0222 -0.0036 0.2113 1.0000
25.0247 0.0714 0.2113 1.0000
25.0298 0.2213 0.2114 1.0000
25.0323 0.2963 0.2114 1.0000
25.0348 0.3713 0.2115 1.0000
25.0374 0.4464 0.2115 1.0000
25.0399 0.5214 0.2115 1.0000
25.2032 0.8269 0.2130 1.0000
25.1977 0.9023 0.2129 1.0000
25.0960 1.0491 0.2121 1.0000
25.0895 1.1242 0.2121 1.0000
25.4499 1.2931 0.2152 1.0000
25.4499 1.4460 0.2153 1.0000
25.4499 1.5224 0.2153 1.0000
25.4498 1.7520 0.2154 1.0000
25.0398 1.7991 0.2120 1.0000
25.0455 1.8749 0.2121 1.0000
25.1996 2.0383 0.2135 1.0000
25.2032 2.1146 0.2136 1.0000
25.2103 2.2673 0.2138 1.0000
25.2174 2.4203 0.2139 1.0000
25.2211 2.4969 0.2140 1.0000
25.2246 2.5735 0.2141 1.0000
50.0938 5.2624 0.4254 1.0000
50.0938 5.4141 0.4255 1.0000
50.0938 5.5659 0.4257 1.0000
50.0938 5.8698 0.4259 1.0000
50.0938 6.1742 0.4263 1.0000
50.0938 6.3266 0.4264 1.0000
50.0938 6.4790 0.4266 1.0000
50.0938 6.6316 0.4268 1.0000
50.0938 6.9371 0.4271 1.0000
50.0938 7.7032 0.4280 1.0000
50.0938 8.1645 0.4286 1.0000
50.0938 8.3186 0.4289 1.0000
50.0938 8.7816 0.4295 1.0000
50.0938 8.9364 0.4297 1.0000
50.0938 9.2463 0.4302 1.0000
50.0938 9.4015 0.4304 1.0000
50.0938 10.0241 0.4314 1.0000
50.0938 10.4930 0.4322 1.0000
50.0938 10.8066 0.4328 1.0000
50.0938 10.9637 0.4331 1.0000
50.0938 11.1209 0.4334 1.0000
50.0938 11.2784 0.4336 1.0000
50.0938 11.4361 0.4339 1.0000
50.0938 11.5941 0.4342 1.0000
50.0938 11.7523 0.4345 1.0000
50.0938 12.0692 0.4352 1.0000
50.0938 12.5464 0.4361 1.0000
50.0938 12.7059 0.4365 1.0000
50.0938 -13.1774 0.4374 1.0000
50.0938 -12.5379 0.4361 1.0000
50.0939 -12.0607 0.4351 1.0000
50.0939 -11.9021 0.4348 1.0000
50.0939 -11.7438 0.4345 1.0000
50.0939 -11.4277 0.4339 1.0000
50.0938 -10.7982 0.4328 1.0000
50.0938 -10.6412 0.4325 1.0000
50.0938 -10.3281 0.4320 1.0000
50.0939 -10.1718 0.4317 1.0000
50.0939 -9.2380 0.4302 1.0000
50.0939 -8.9281 0.4297 1.0000
50.0939 -8.7734 0.4295 1.0000
50.0938 -8.6189 0.4293 1.0000
50.0938 -8.4645 0.4291 1.0000
50.0939 -8.3103 0.4288 1.0000
50.0939 -8.1563 0.4286 1.0000
50.0939 -7.8486 0.4282 1.0000
50.0938 -7.6950 0.4280 1.0000
50.0939 -7.5415 0.4278 1.0000
50.0938 -7.2349 0.4274 1.0000
50.0938 -7.0819 0.4273 1.0000
50.0938 -6.9289 0.4271 1.0000
50.0938 -5.7546 -0.4258 1.0000
50.0938 -5.6027 -0.4257 1.0000
50.0938 -5.2991 -0.4254 1.0000
50.0938 -4.9959 -0.4252 1.0000
24.9450 -2.3370 -0.2116 1.0000
24.9420 -2.2614 -0.2115 1.0000
24.9423 -2.1109 -0.2114 1.0000
24.9430 -2.0357 -0.2114 1.0000
24.9127 -1.8082 -0.2109 1.0000
25.3291 -1.6859 -0.2144 1.0000
24.8246 -1.5777 -0.2101 1.0000
24.8270 -1.5032 -0.2101 1.0000
24.8293 -1.4288 -0.2100 1.0000
24.8316 -1.3543 -0.2100 1.0000
24.8338 -1.1308 -0.2099 1.0000
24.8315 -1.0561 -0.2099 1.0000
24.8269 -0.9070 -0.2098 1.0000
24.8245 -0.8325 -0.2098 1.0000
24.9825 -0.7629 -0.2111 1.0000
24.8694 -0.6849 -0.2101 1.0000
24.9972 -0.3889 -0.2111 1.0000
25.0071 -0.1644 -0.2112 1.0000
25.0203 0.1352 -0.2113 1.0000
25.0236 0.2102 -0.2113 1.0000
25.0302 0.3602 -0.2114 1.0000
25.0334 0.4352 -0.2114 1.0000
25.0368 0.5103 -0.2115 1.0000
25.0400 0.5854 -0.2115 1.0000
25.1990 0.8156 -0.2129 1.0000
25.1100 0.8880 -0.2122 1.0000
25.4498 0.9763 -0.2151 1.0000
24.9659 1.0327 -0.2110 1.0000
24.9705 1.1827 -0.2111 1.0000
24.9728 1.2578 -0.2112 1.0000
24.9752 1.3329 -0.2112 1.0000
24.9760 1.5580 -0.2113 1.0000
24.9737 1.6330 -0.2114 1.0000
24.9667 1.8579 -0.2114 1.0000
25.0374 1.9386 -0.2121 1.0000
25.0338 2.0138 -0.2121 1.0000
25.0400 2.0898 -0.2122 1.0000
24.9980 2.1616 -0.2119 1.0000
24.9980 2.3125 -0.2120 1.0000
25.1123 2.5509 -0.2132 1.0000
50.0938 5.3917 -0.4255 1.0000
50.0938 5.5435 -0.4256 1.0000
50.0938 5.6954 -0.4258 1.0000
50.0938 5.8474 -0.4259 1.0000
50.0938 7.0674 -0.4272 1.0000
50.0938 7.2205 -0.4274 1.0000
50.0938 7.3737 -0.4276 1.0000
50.0938 7.5270 -0.4278 1.0000
50.0938 7.6805 -0.4280 1.0000
50.0938 7.8340 -0.4282 1.0000
50.0938 7.9878 -0.4284 1.0000
50.0938 8.2957 -0.4288 1.0000
50.0938 8.4500 -0.4290 1.0000
50.0938 8.6043 -0.4293 1.0000
50.0938 8.7588 -0.4295 1.0000
50.0938 8.9135 -0.4297 1.0000
50.0938 9.0683 -0.4299 1.0000
50.0938 9.2233 -0.4302 1.0000
50.0938 9.3785 -0.4304 1.0000
50.0938 9.5339 -0.4307 1.0000
50.0938 9.8451 -0.4311 1.0000
50.0938 10.3134 -0.4319 1.0000
50.0938 10.4698 -0.4322 1.0000
50.0938 10.9404 -0.4330 1.0000
50.0938 11.2551 -0.4336 1.0000
50.0938 11.5707 -0.4342 1.0000
50.0938 12.3636 -0.4358 1.0000
50.0938 12.5229 -0.4361 1.0000
50.0938 13.0021 -0.4371 1.0000
50.0938 13.3228 -0.4378 1.0000
50.0938 -13.2011 -0.4375 1.0000
50.0938 -12.8808 -0.4368 1.0000
50.0938 -12.0842 -0.4352 1.0000
50.0938 -11.6090 -0.4343 1.0000
50.0938 -11.4510 -0.4340 1.0000
50.0938 -10.8214 -0.4328 1.0000
50.0938 -10.3512 -0.4320 1.0000
50.0938 -10.1949 -0.4317 1.0000
50.0938 -10.0388 -0.4315 1.0000
50.0938 -9.5715 -0.4307 1.0000
50.0938 -9.4162 -0.4305 1.0000
50.0938 -9.2609 -0.4302 1.0000
50.0938 -8.9510 -0.4298 1.0000
50.0938 -8.6417 -0.4293 1.0000
50.0938 -8.3330 -0.4289 1.0000
50.0938 -8.1790 -0.4287 1.0000
50.0938 -8.0251 -0.4285 1.0000
50.0938 -7.8713 -0.4282 1.0000
50.0938 -7.5641 -0.4279 1.0000
50.0938 -7.4108 -0.4277 1.0000
50.0938 -7.2575 -0.4275 1.0000
50.0938 -7.1045 -0.4273 1.0000
50.0938 -6.7987 -0.4269 1.0000
50.0938 -6.1885 -0.4263 1.0000
50.0938 -6.0363 -0.4261 1.0000
50.0938 -5.2767 -0.4254 1.0000
24.9445 -2.3258 -0.2116 1.0000
24.9416 -2.1750 -0.2114 1.0000
24.9424 -2.0998 -0.2114 1.0000
24.9431 -2.0246 -0.2113 1.0000
24.9439 -1.9496 -0.2113 1.0000
24.9446 -1.8745 -0.2113 1.0000
24.8359 -1.7915 -0.2103 1.0000
24.8250 -1.5667 -0.2101 1.0000
24.8273 -1.4922 -0.2101 1.0000
24.8296 -1.4177 -0.2100 1.0000
24.8342 -1.2689 -0.2100 1.0000
24.8353 -1.1944 -0.2100 1.0000
24.8312 -1.0452 -0.2099 1.0000
24.8265 -0.8961 -0.2098 1.0000
24.8242 -0.8215 -0.2098 1.0000
24.8657 -0.6738 -0.2101 1.0000
24.9891 -0.6023 -0.2111 1.0000
24.9948 -0.4527 -0.2111 1.0000
24.9977 -0.3779 -0.2111 1.0000
25.0009 -0.3030 -0.2112 1.0000
25.0043 -0.2282 -0.2112 1.0000
25.0076 -0.1533 -0.2112 1.0000
25.0109 -0.0784 -0.2112 1.0000
25.0175 0.0714 -0.2113 1.0000
25.0208 0.1463 -0.2113 1.0000
25.0273 0.2962 -0.2114 1.0000
25.0306 0.3713 -0.2114 1.0000
25.0340 0.4463 -0.2115 1.0000
25.0372 0.5214 -0.2115 1.0000
25.1982 0.8268 -0.2129 1.0000
25.4498 0.9877 -0.2151 1.0000
24.9685 1.1187 -0.2111 1.0000
24.9732 1.2689 -0.2112 1.0000
24.9776 1.4191 -0.2113 1.0000
24.9756 1.5691 -0.2113 1.0000
24.9733 1.6441 -0.2114 1.0000
24.9664 1.8690 -0.2114 1.0000
25.0368 1.9497 -0.2121 1.0000
25.1683 2.0358 -0.2132 1.0000
25.0179 2.0990 -0.2120 1.0000
24.9980 2.4748 -0.2121 1.0000
50.0938 5.2624 -0.4254 1.0000
50.0938 5.4141 -0.4255 1.0000
50.0938 5.5659 -0.4257 1.0000
50.0938 5.7179 -0.4258 1.0000
50.0938 6.1742 -0.4263 1.0000
50.0938 6.3265 -0.4264 1.0000
50.0938 6.9371 -0.4271 1.0000
50.0938 7.5496 -0.4278 1.0000
50.0938 8.4728 -0.4291 1.0000
50.0938 9.0912 -0.4300 1.0000
50.0938 9.7124 -0.4309 1.0000
50.0938 10.1802 -0.4317 1.0000
50.0938 10.4930 -0.4322 1.0000
50.0938 10.8065 -0.4328 1.0000
50.0938 10.9636 -0.4331 1.0000
50.0938 11.1209 -0.4334 1.0000
50.0938 11.4361 -0.4339 1.0000
50.0938 11.5941 -0.4342 1.0000
50.0938 11.7522 -0.4345 1.0000
50.0938 11.9106 -0.4348 1.0000
50.0938 12.3871 -0.4358 1.0000
50.0938 12.5464 -0.4361 1.0000
50.0938 12.7059 -0.4365 1.0000
50.0938 12.8657 -0.4368 1.0000
50.0938 13.0257 -0.4371 1.0000
50.0938 13.3466 -0.4378 1.0000
50.0938 -13.3379 -0.4378 1.0000
50.0938 -12.8572 -0.4368 1.0000
50.0938 -12.6974 -0.4364 1.0000
50.0938 -12.5379 -0.4361 1.0000
50.0938 -12.0607 -0.4351 1.0000
50.0938 -11.9021 -0.4348 1.0000
50.0938 -11.7437 -0.4345 1.0000
50.0938 -11.5856 -0.4342 1.0000
50.0938 -11.4277 -0.4339 1.0000
50.0938 -10.7981 -0.4328 1.0000
50.0938 -10.4846 -0.4322 1.0000
50.0938 -10.1718 -0.4317 1.0000
50.0938 -9.7041 -0.4309 1.0000
50.0938 -9.5486 -0.4307 1.0000
50.0938 -9.2380 -0.4302 1.0000
50.0938 -9.0830 -0.4300 1.0000
50.0938 -8.9281 -0.4297 1.0000
50.0938 -8.7734 -0.4295 1.0000
50.0938 -8.4645 -0.4291 1.0000
50.0938 -8.3103 -0.4288 1.0000
50.0938 -8.0023 -0.4284 1.0000
50.0938 -7.6950 -0.4280 1.0000
50.0938 -7.3881 -0.4276 1.0000
50.0938 -7.2349 -0.4274 1.0000
50.0938 -7.0818 -0.4273 1.0000
27.5284 -2.9955 -0.7017 1.0000
27.5462 -2.8307 -0.7017 1.0000
27.5547 -2.7481 -0.7017 1.0000
27.5709 -2.5831 -0.7017 1.0000
27.6137 -2.0874 -0.7018 1.0000
27.6262 -1.9220 -0.7018 1.0000
27.6478 -1.5909 -0.7018 1.0000
24.8234 -1.3538 -0.6300 1.0000
24.8239 -1.2793 -0.6299 1.0000
24.8244 -1.2048 -0.6298 1.0000
24.8234 -1.0558 -0.6296 1.0000
27.6729 -1.0940 -0.7018 1.0000
27.6762 -1.0112 -0.7018 1.0000
27.6821 -0.8454 -0.7018 1.0000
27.6870 -0.6796 -0.7018 1.0000
27.6937 -0.3480 -0.7018 1.0000
27.6947 -0.2650 -0.7018 1.0000
27.6963 -0.0992 -0.7018 1.0000
27.6964 -0.0163 -0.7019 1.0000
27.6965 0.0667 -0.7019 1.0000
27.6964 0.1497 -0.7019 1.0000
27.6960 0.2325 -0.7019 1.0000
27.6953 0.3155 -0.7019 1.0000
27.6944 0.3985 -0.7019 1.0000
27.6934 0.4814 -0.7019 1.0000
27.6901 0.6472 -0.7019 1.0000
27.6881 0.7302 -0.7019 1.0000
27.6862 0.8130 -0.7019 1.0000
27.6809 0.9789 -0.7019 1.0000
27.6750 1.1447 -0.7019 1.0000
27.6678 1.3104 -0.7019 1.0000
24.9655 1.2574 -0.6334 1.0000
24.9664 1.3324 -0.6336 1.0000
24.9666 1.5574 -0.6339 1.0000
27.6177 2.1383 -0.7020 1.0000
27.5907 2.4691 -0.7020 1.0000
27.5834 2.5516 -0.7020 1.0000
27.5679 2.7168 -0.7020 1.0000
27.5516 2.8820 -0.7020 1.0000
27.5429 2.9644 -0.7020 1.0000
27.5249 3.1294 -0.7020 1.0000
27.5155 3.2118 -0.7020 1.0000
27.5059 3.2942 -0.7020 1.0000
27.4960 3.3765 -0.7020 1.0000
27.4651 3.6235 -0.7020 1.0000
27.4542 3.7058 -0.7020 1.0000
27.4319 3.8701 -0.7020 1.0000
27.3715 4.2805 -0.7020 1.0000
27.3587 4.3625 -0.7020 1.0000
27.3325 4.5263 -0.7021 1.0000
27.3051 4.6900 -0.7021 1.0000
27.2911 4.7718 -0.7021 1.0000
27.2324 5.0984 -0.7021 1.0000
27.2172 5.1799 -0.7021 1.0000
27.1857 5.3429 -0.7021 1.0000
27.1537 5.5057 -0.7021 1.0000
27.1205 5.6682 -0.7021 1.0000
27.0864 5.8307 -0.7021 1.0000
27.0332 6.0739 -0.7021 1.0000
26.9967 6.2357 -0.7021 1.0000
26.9779 6.3164 -0.7021 1.0000
26.9400 6.4781 -0.7021 1.0000
26.9206 6.5588 -0.7021 1.0000
26.8809 6.7198 -0.7022 1.0000
26.8609 6.8004 -0.7022 1.0000
26.8407 6.8809 -0.7022 1.0000
26.8200 6.9612 -0.7022 1.0000
26.7780 7.1218 -0.7022 1.0000
26.7475 -7.1345 -0.7015 1.0000
26.7900 -6.9742 -0.7015 1.0000
26.8109 -6.8941 -0.7015 1.0000
26.8317 -6.8137 -0.7015 1.0000
26.9120 -6.4921 -0.7015 1.0000
26.9506 -6.3308 -0.7015 1.0000
27.0070 -6.0886 -0.7016 1.0000
27.0432 -5.9268 -0.7016 1.0000
27.0610 -5.8458 -0.7016 1.0000
27.0785 -5.7648 -0.7016 1.0000
27.0957 -5.6836 -0.7016 1.0000
27.1130 -5.6025 -0.7016 1.0000
27.1788 -5.2776 -0.7016 1.0000
27.2102 -5.1147 -0.7016 1.0000
27.2555 -4.8702 -0.7016 1.0000
27.2702 -4.7886 -0.7016 1.0000
27.2987 -4.6253 -0.7016 1.0000
27.3124 -4.5435 -0.7016 1.0000
27.3261 -4.4617 -0.7016 1.0000
27.3397 -4.3799 -0.7016 1.0000
27.3527 -4.2980 -0.7016 1.0000
27.3655 -4.2161 -0.7016 1.0000
27.3908 -4.0523 -0.7017 1.0000
27.4028 -3.9702 -0.7017 1.0000
27.4265 -3.8061 -0.7017 1.0000
27.4491 -3.6418 -0.7017 1.0000
27.4600 -3.5595 -0.7017 1.0000
27.4812 -3.3951 -0.7017 1.0000
27.4914 -3.3129 -0.7017 1.0000
27.5012 -3.2305 -0.7017 1.0000
27.5111 -3.1481 -0.7017 1.0000
27.5205 -3.0657 -0.7017 1.0000
27.5297 -2.9832 -0.7017 1.0000
27.5475 -2.8184 -0.7017 1.0000
27.5559 -2.7359 -0.7017 1.0000
27.5641 -2.6534 -0.7017 1.0000
27.5720 -2.5708 -0.7017 1.0000
27.5798 -2.4884 -0.7017 1.0000
27.5945 -2.3231 -0.7017 1.0000
27.6016 -2.2405 -0.7017 1.0000
27.6082 -2.1578 -0.7017 1.0000
27.6211 -1.9925 -0.7018 1.0000
27.6270 -1.9097 -0.7018 1.0000
27.6436 -1.6615 -0.7018 1.0000
24.8234 -1.3428 -0.6300 1.0000
24.8237 -1.1193 -0.6297 1.0000
27.6766 -0.9989 -0.7018 1.0000
27.6927 -0.4186 -0.7018 1.0000
27.6948 -0.2528 -0.7018 1.0000
27.6957 -0.1698 -0.7018 1.0000
27.6963 -0.0869 -0.7018 1.0000
27.6964 -0.0040 -0.7019 1.0000
27.6964 0.0790 -0.7019 1.0000
27.6952 0.3277 -0.7019 1.0000
27.6931 0.4936 -0.7019 1.0000
27.6879 0.7424 -0.7019 1.0000
27.6805 0.9911 -0.7019 1.0000
27.6710 1.2398 -0.7019 1.0000
27.6673 1.3226 -0.7019 1.0000
24.9658 1.2685 -0.6335 1.0000
24.9670 1.4185 -0.6337 1.0000
24.9670 1.4935 -0.6338 1.0000
24.9666 1.5686 -0.6339 1.0000
27.6289 1.9850 -0.7019 1.0000
27.6230 2.0679 -0.7019 1.0000
27.6169 2.1505 -0.7020 1.0000
27.6037 2.3159 -0.7020 1.0000
27.5968 2.3986 -0.7020 1.0000
27.5896 2.4813 -0.7020 1.0000
27.5746 2.6465 -0.7020 1.0000
27.5587 2.8116 -0.7020 1.0000
27.5141 3.2239 -0.7020 1.0000
27.5045 3.3064 -0.7020 1.0000
27.4742 3.5534 -0.7020 1.0000
27.4635 3.6357 -0.7020 1.0000
27.4415 3.8001 -0.7020 1.0000
27.4066 4.0466 -0.7020 1.0000
27.3945 4.1286 -0.7020 1.0000
27.3822 4.2107 -0.7020 1.0000
27.3695 4.2926 -0.7020 1.0000
27.3568 4.3746 -0.7021 1.0000
27.3437 4.4564 -0.7021 1.0000
27.2746 4.8656 -0.7021 1.0000
27.2599 4.9472 -0.7021 1.0000
27.2452 5.0288 -0.7021 1.0000
27.1994 5.2735 -0.7021 1.0000
27.1836 5.3548 -0.7021 1.0000
27.1512 5.5176 -0.7021 1.0000
27.0839 5.8426 -0.7021 1.0000
27.0663 5.9237 -0.7021 1.0000
27.0485 6.0048 -0.7021 1.0000
27.0305 6.0858 -0.7021 1.0000
26.9562 6.4093 -0.7021 1.0000
26.9177 6.5706 -0.7021 1.0000
26.8980 6.6512 -0.7021 1.0000
26.8377 6.8928 -0.7022 1.0000
26.7750 7.1337 -0.7022 1.0000
26.7720 -7.0425 -0.7015 1.0000
26.8347 -6.8019 -0.7015 1.0000
26.8752 -6.6411 -0.7015 1.0000
26.8952 -6.5607 -0.7015 1.0000
26.9343 -6.3995 -0.7015 1.0000
26.9534 -6.3188 -0.7015 1.0000
26.9725 -6.2382 -0.7015 1.0000
26.9912 -6.1574 -0.7015 1.0000
27.0096 -6.0766 -0.7016 1.0000
27.0277 -5.9957 -0.7016 1.0000
27.1155 -5.5906 -0.7016 1.0000
27.1486 -5.4281 -0.7016 1.0000
27.1969 -5.1842 -0.7016 1.0000
27.2124 -5.1027 -0.7016 1.0000
27.2278 -5.0213 -0.7016 1.0000
27.2575 -4.8581 -0.7016 1.0000
27.3007 -4.6132 -0.7016 1.0000
27.3281 -4.4496 -0.7016 1.0000
27.3415 -4.3677 -0.7016 1.0000
27.3802 -4.1221 -0.7017 1.0000
27.4046 -3.9581 -0.7017 1.0000
27.4164 -3.8760 -0.7017 1.0000
27.4395 -3.7118 -0.7017 1.0000
16.5013 -1.8455 -0.7015 1.0000
16.5069 -1.7962 -0.7015 1.0000
16.5174 -1.6973 -0.7015 1.0000
16.5225 -1.6479 -0.7015 1.0000
16.5368 -1.4995 -0.7016 1.0000
16.5413 -1.4499 -0.7016 1.0000
16.5456 -1.4003 -0.7016 1.0000
16.5497 -1.3509 -0.7016 1.0000
16.5577 -1.2517 -0.7016 1.0000
16.5650 -1.1524 -0.7016 1.0000
16.5717 -1.0532 -0.7016 1.0000
16.5859 -0.8051 -0.7016 1.0000
16.5905 -0.7058 -0.7016 1.0000
16.5926 -0.6560 -0.7016 1.0000
16.5946 -0.6064 -0.7016 1.0000
16.5980 -0.5070 -0.7016 1.0000
16.6048 -0.2087 -0.7016 1.0000
16.6061 -0.0595 -0.7016 1.0000
16.6063 -0.0097 -0.7016 1.0000
16.6063 0.0400 -0.7016 1.0000
16.6062 0.0897 -0.7016 1.0000
16.6059 0.1395 -0.7016 1.0000
16.6041 0.2887 -0.7016 1.0000
16.6022 0.3880 -0.7016 1.0000
16.6010 0.4378 -0.7016 1.0000
16.5997 0.4875 -0.7017 1.0000
16.5982 0.5371 -0.7017 1.0000
16.5966 0.5869 -0.7017 1.0000
16.5929 0.6863 -0.7017 1.0000
16.5908 0.7360 -0.7017 1.0000
16.5887 0.7856 -0.7017 1.0000
16.5863 0.8354 -0.7017 1.0000
16.5810 0.9347 -0.7017 1.0000
16.5753 1.0340 -0.7017 1.0000
16.5689 1.1332 -0.7017 1.0000
16.5618 1.2324 -0.7017 1.0000
16.5418 1.4802 -0.7017 1.0000
16.5374 1.5298 -0.7017 1.0000
16.5327 1.5793 -0.7017 1.0000
16.5280 1.6288 -0.7017 1.0000
16.5181 1.7278 -0.7017 1.0000
16.5128 1.7773 -0.7017 1.0000
16.5020 1.8761 -0.7017 1.0000
16.4906 1.9750 -0.7017 1.0000
16.4846 2.0243 -0.7017 1.0000
16.4594 2.2216 -0.7017 1.0000
16.4528 2.2710 -0.7017 1.0000
16.4318 2.4186 -0.7017 1.0000
16.4096 2.5662 -0.7017 1.0000
16.4019 2.6153 -0.7017 1.0000
16.3940 2.6646 -0.7017 1.0000
16.3696 2.8116 -0.7018 1.0000
16.3611 2.8607 -0.7018 1.0000
16.3526 2.9097 -0.7018 1.0000
16.3439 2.9586 -0.7018 1.0000
16.3167 3.1053 -0.7018 1.0000
16.3074 3.1543 -0.7018 1.0000
16.2686 3.3494 -0.7018 1.0000
16.2586 3.3981 -0.7018 1.0000
16.2483 3.4467 -0.7018 1.0000
16.2275 3.5440 -0.7018 1.0000
16.2169 3.5926 -0.7018 1.0000
16.2061 3.6411 -0.7018 1.0000
16.1952 3.6896 -0.7018 1.0000
16.1729 3.7866 -0.7018 1.0000
16.1500 3.8834 -0.7018 1.0000
16.1266 3.9801 -0.7018 1.0000
16.0903 4.1249 -0.7018 1.0000
16.0654 4.2211 -0.7018 1.0000
16.0533 -4.2306 -0.7014 1.0000
16.0659 -4.1824 -0.7014 1.0000
16.1030 -4.0380 -0.7014 1.0000
16.1620 -3.7965 -0.7014 1.0000
16.1846 -3.6997 -0.7014 1.0000
16.2173 -3.5541 -0.7015 1.0000
16.2279 -3.5056 -0.7015 1.0000
16.2487 -3.4084 -0.7015 1.0000
16.2590 -3.3597 -0.7015 1.0000
16.2690 -3.3111 -0.7015 1.0000
16.2887 -3.2135 -0.7015 1.0000
16.3262 -3.0183 -0.7015 1.0000
16.3352 -2.9693 -0.7015 1.0000
16.3613 -2.8226 -0.7015 1.0000
16.3942 -2.6264 -0.7015 1.0000
16.4321 -2.3807 -0.7015 1.0000
16.4391 -2.3315 -0.7015 1.0000
16.4662 -2.1345 -0.7015 1.0000
16.4725 -2.0851 -0.7015 1.0000
16.4788 -2.0357 -0.7015 1.0000
16.4848 -1.9865 -0.7015 1.0000
16.4965 -1.8877 -0.7015 1.0000
16.5233 -1.6406 -0.7015 1.0000
16.5374 -1.4921 -0.7016 1.0000
16.5419 -1.4426 -0.7016 1.0000
16.5462 -1.3930 -0.7016 1.0000
16.5543 -1.2939 -0.7016 1.0000
16.5655 -1.1452 -0.7016 1.0000
16.5689 -1.0956 -0.7016 1.0000
16.5722 -1.0460 -0.7016 1.0000
16.5782 -0.9467 -0.7016 1.0000
16.5811 -0.8970 -0.7016 1.0000
16.5838 -0.8474 -0.7016 1.0000
16.5863 -0.7978 -0.7016 1.0000
16.5886 -0.7480 -0.7016 1.0000
16.5929 -0.6488 -0.7016 1.0000
16.5948 -0.5989 -0.7016 1.0000
16.5966 -0.5494 -0.7016 1.0000
16.6022 -0.3505 -0.7016 1.0000
16.6049 -0.2013 -0.7016 1.0000
16.6062 -0.0521 -0.7016 1.0000
16.6063 -0.0024 -0.7016 1.0000
16.6058 0.1468 -0.7016 1.0000
16.6054 0.1965 -0.7016 1.0000
16.6048 0.2462 -0.7016 1.0000
16.6031 0.3456 -0.7016 1.0000
16.5995 0.4948 -0.7017 1.0000
16.5963 0.5942 -0.7017 1.0000
16.5925 0.6937 -0.7017 1.0000
16.5905 0.7432 -0.7017 1.0000
16.5883 0.7929 -0.7017 1.0000
16.5858 0.8427 -0.7017 1.0000
16.5833 0.8923 -0.7017 1.0000
16.5806 0.9420 -0.7017 1.0000
16.5748 1.0413 -0.7017 1.0000
16.5716 1.0909 -0.7017 1.0000
16.5683 1.1405 -0.7017 1.0000
16.5649 1.1902 -0.7017 1.0000
16.5412 1.4876 -0.7017 1.0000
16.5367 1.5371 -0.7017 1.0000
16.5320 1.5866 -0.7017 1.0000
16.5121 1.7845 -0.7017 1.0000
16.5068 1.8341 -0.7017 1.0000
16.5012 1.8834 -0.7017 1.0000
16.4956 1.9329 -0.7017 1.0000
16.4838 2.0316 -0.7017 1.0000
16.4777 2.0809 -0.7017 1.0000
16.4714 2.1303 -0.7017 1.0000
16.4650 2.1796 -0.7017 1.0000
16.4584 2.2289 -0.7017 1.0000
16.4518 2.2782 -0.7017 1.0000
16.4449 2.3275 -0.7017 1.0000
16.4308 2.4260 -0.7017 1.0000
16.4235 2.4751 -0.7017 1.0000
16.4161 2.5243 -0.7017 1.0000
16.4085 2.5735 -0.7017 1.0000
16.4007 2.6226 -0.7017 1.0000
16.3928 2.6717 -0.7017 1.0000
16.3849 2.7208 -0.7018 1.0000
16.3767 2.7698 -0.7018 1.0000
16.3514 2.9170 -0.7018 1.0000
16.3246 3.0637 -0.7018 1.0000
16.2869 3.2591 -0.7018 1.0000
16.2260 3.5513 -0.7018 1.0000
16.2153 3.5998 -0.7018 1.0000
16.1936 3.6969 -0.7018 1.0000
16.1712 3.7938 -0.7018 1.0000
16.1598 3.8422 -0.7018 1.0000
16.1129 4.0356 -0.7018 1.0000
16.1008 4.0839 -0.7018 1.0000
16.0885 4.1321 -0.7018 1.0000
16.0761 4.1802 -0.7018 1.0000
16.0636 4.2283 -0.7018 1.0000
16.0552 -4.2235 -0.7014 1.0000
16.0803 -4.1272 -0.7014 1.0000
16.1048 -4.0309 -0.7014 1.0000
16.1168 -3.9826 -0.7014 1.0000
16.1406 -3.8861 -0.7014 1.0000
16.1636 -3.7894 -0.7014 1.0000
16.1862 -3.6926 -0.7014 1.0000
16.2081 -3.5955 -0.7015 1.0000
16.2296 -3.4985 -0.7015 1.0000
16.2604 -3.3525 -0.7015 1.0000
16.2803 -3.2550 -0.7015 1.0000
16.2900 -3.2064 -0.7015 1.0000
16.3091 -3.1088 -0.7015 1.0000
16.3184 -3.0599 -0.7015 1.0000
16.3275 -3.0111 -0.7015 1.0000
16.3454 -2.9132 -0.7015 1.0000
16.3540 -2.8643 -0.7015 1.0000
16.3711 -2.7664 -0.7015 1.0000
16.3874 -2.6681 -0.7015 1.0000
16.3954 -2.6192 -0.7015 1.0000
16.4033 -2.5700 -0.7015 1.0000
16.4185 -2.4718 -0.7015 1.0000
16.4258 -2.4226 -0.7015 1.0000
11.7747 -1.3527 -0.7015 1.0000
11.7902 -1.2116 -0.7015 1.0000
11.8007 -1.1057 -0.7015 1.0000
11.8040 -1.0703 -0.7015 1.0000
11.8102 -0.9996 -0.7015 1.0000
11.8132 -0.9642 -0.7015 1.0000
11.8161 -0.9288 -0.7015 1.0000
11.8215 -0.8581 -0.7015 1.0000
11.8264 -0.7873 -0.7015 1.0000
11.8288 -0.7519 -0.7015 1.0000
11.8310 -0.7164 -0.7015 1.0000
11.8370 -0.6101 -0.7015 1.0000
11.8389 -0.5747 -0.7015 1.0000
11.8436 -0.4683 -0.7015 1.0000
11.8485 -0.3263 -0.7015 1.0000
11.8495 -0.2909 -0.7015 1.0000
11.8511 -0.2199 -0.7015 1.0000
11.8516 -0.1844 -0.7015 1.0000
11.8522 -0.1490 -0.7015 1.0000
11.8526 -0.1135 -0.7015 1.0000
11.8533 0.0284 -0.7015 1.0000
11.8532 0.0639 -0.7015 1.0000
11.8529 0.0995 -0.7015 1.0000
11.8526 0.1350 -0.7015 1.0000
11.8473 0.3834 -0.7016 1.0000
11.8421 0.5253 -0.7016 1.0000
11.8404 0.5607 -0.7016 1.0000
11.8387 0.5961 -0.7016 1.0000
11.8369 0.6317 -0.7016 1.0000
11.8308 0.7380 -0.7016 1.0000
11.8286 0.7734 -0.7016 1.0000
11.8238 0.8443 -0.7016 1.0000
11.8186 0.9151 -0.7016 1.0000
11.8158 0.9504 -0.7016 1.0000
11.8100 1.0212 -0.7016 1.0000
11.8069 1.0566 -0.7016 1.0000
11.7970 1.1625 -0.7016 1.0000
11.7935 1.1979 -0.7016 1.0000
11.7861 1.2685 -0.7016 1.0000
11.7823 1.3039 -0.7016 1.0000
11.7784 1.3391 -0.7016 1.0000
11.7744 1.3743 -0.7016 1.0000
11.7660 1.4449 -0.7016 1.0000
11.7616 1.4801 -0.7016 1.0000
11.7572 1.5153 -0.7016 1.0000
11.7526 1.5505 -0.7016 1.0000
11.7479 1.5857 -0.7016 1.0000
11.7383 1.6560 -0.7016 1.0000
11.7230 1.7614 -0.7016 1.0000
11.7177 1.7965 -0.7016 1.0000
11.7123 1.8316 -0.7016 1.0000
11.7012 1.9017 -0.7016 1.0000
11.6897 1.9718 -0.7016 1.0000
11.6837 2.0068 -0.7016 1.0000
11.6653 2.1117 -0.7016 1.0000
11.6459 2.2163 -0.7016 1.0000
11.6324 2.2860 -0.7016 1.0000
11.6256 2.3209 -0.7016 1.0000
11.5970 2.4600 -0.7016 1.0000
11.5668 2.5987 -0.7016 1.0000
11.5590 2.6334 -0.7017 1.0000
11.5512 2.6680 -0.7017 1.0000
11.5431 2.7026 -0.7017 1.0000
11.5268 2.7717 -0.7017 1.0000
11.5100 2.8407 -0.7017 1.0000
11.4841 2.9439 -0.7017 1.0000
11.4663 3.0128 -0.7017 1.0000
11.4573 3.0471 -0.7017 1.0000
11.4504 -3.0543 -0.7014 1.0000
11.4595 -3.0199 -0.7014 1.0000
11.4685 -2.9856 -0.7014 1.0000
