ply
format ascii 1.0
element vertex 1606
property float32 x
property float32 y
property float32 z
property float32 I
end_header
50.0941 10.2337 10.0579 1.0000
50.0941 10.3898 10.0641 1.0000
50.0941 11.3305 10.1033 1.0000
50.0941 11.4880 10.1102 1.0000
50.0941 11.8036 10.1243 1.0000
50.0941 11.9618 10.1315 1.0000
50.0941 12.2787 10.1461 1.0000
50.0941 12.4376 10.1536 1.0000
50.0941 12.5967 10.1612 1.0000
50.0941 12.9156 10.1767 1.0000
50.0941 13.0754 10.1846 1.0000
50.0941 13.3958 10.2007 1.0000
50.0940 -13.2891 10.1953 1.0000
50.0941 -12.9691 10.1793 1.0000
50.0940 -12.6500 10.1638 1.0000
50.0941 -12.4909 10.1562 1.0000
50.0940 -12.3320 10.1486 1.0000
50.0941 -12.1733 10.1412 1.0000
50.0941 -11.2259 10.0988 1.0000
50.0941 -10.9118 10.0855 1.0000
50.0940 -10.7550 10.0790 1.0000
50.0940 -9.8187 10.0419 1.0000
50.0941 -9.6633 10.0361 1.0000
50.0941 -9.5081 10.0304 1.0000
50.0941 -9.3531 10.0247 1.0000
50.0941 -9.0435 10.0137 1.0000
50.0941 -8.8890 10.0084 1.0000
50.0941 -8.7346 10.0031 1.0000
50.0940 -8.5804 9.9979 1.0000
50.0941 -8.4264 9.9929 1.0000
50.0940 -8.2725 9.9879 1.0000
50.0940 -8.1187 9.9830 1.0000
50.0940 -7.9652 9.9782 1.0000
50.0941 -7.6584 9.9689 1.0000
50.0940 -7.5052 9.9644 1.0000
50.0939 -7.0465 9.9514 1.0000
50.0939 -6.8939 9.9473 1.0000
50.0939 -6.7414 9.9432 1.0000
50.0939 -6.5890 9.9393 1.0000
50.0939 -6.2846 9.9317 1.0000
50.0939 -5.9806 9.9244 1.0000
50.0939 -5.6771 9.9175 1.0000
50.0939 -5.5255 9.9142 1.0000
50.0939 -5.3740 9.9109 1.0000
50.0939 -5.0713 9.9048 1.0000
50.0939 -4.9200 9.9018 1.0000
50.0939 -4.6179 9.8962 1.0000
50.0939 -4.4669 9.8935 1.0000
50.0939 -4.3160 9.8909 1.0000
50.0939 -3.8638 9.8837 1.0000
50.0939 -3.7132 9.8814 1.0000
50.0939 -3.5627 9.8793 1.0000
50.0939 -2.6608 9.8683 1.0000
50.0939 -2.5107 9.8668 1.0000
50.0939 -2.3606 9.8653 1.0000
50.0939 -2.2105 9.8640 1.0000
50.0940 -2.0605 9.8627 1.0000
50.0940 -1.6107 9.8595 1.0000
50.0940 -1.4608 9.8586 1.0000
50.0940 -1.3110 9.8578 1.0000
50.0940 -1.1612 9.8570 1.0000
50.0940 -0.8616 9.8559 1.0000
50.0940 -0.5620 9.8550 1.0000
50.0940 -0.2625 9.8545 1.0000
50.0940 0.1866 9.8545 1.0000
50.0940 0.3364 9.8546 1.0000
50.0940 1.2351 9.8574 1.0000
50.0940 1.3849 9.8582 1.0000
50.0940 1.8345 9.8610 1.0000
50.0940 1.9845 9.8621 1.0000
50.0940 2.1345 9.8633 1.0000
50.0940 2.2845 9.8646 1.0000
50.0940 2.4346 9.8660 1.0000
50.0940 2.5847 9.8675 1.0000
50.0940 3.0353 9.8725 1.0000
50.0940 3.3360 9.8762 1.0000
50.0940 3.4864 9.8782 1.0000
50.0940 3.6369 9.8803 1.0000
50.0940 3.7875 9.8825 1.0000
50.0940 3.9380 9.8848 1.0000
50.0940 4.2395 9.8896 1.0000
50.0940 4.5413 9.8948 1.0000
50.0940 4.6923 9.8975 1.0000
50.0940 6.4119 9.0516 1.0000
50.0940 6.5641 9.0551 1.0000
50.0940 6.7165 9.0587 1.0000
50.0940 6.8690 9.0624 1.0000
50.0940 7.4802 9.0779 1.0000
50.0940 7.6333 9.0820 1.0000
50.0940 7.9400 9.0905 1.0000
50.0940 8.2473 9.0993 1.0000
50.0940 8.4012 9.1038 1.0000
50.0940 8.5552 9.1084 1.0000
50.0940 9.0182 9.1227 1.0000
50.0940 9.1729 9.1277 1.0000
50.0940 9.6380 9.1431 1.0000
50.0940 9.9489 9.1538 1.0000
50.0940 10.1046 9.1592 1.0000
50.0940 10.2605 9.1648 1.0000
50.0940 10.5729 9.1762 1.0000
50.0940 10.8861 9.1879 1.0000
50.0940 11.0431 9.1940 1.0000
50.0940 11.2002 9.2001 1.0000
50.0940 11.8308 9.2254 1.0000
50.0940 11.9890 9.2319 1.0000
50.0940 12.1474 9.2386 1.0000
50.0940 12.6241 9.2591 1.0000
50.0940 12.7835 9.2661 1.0000
50.0940 13.1029 9.2804 1.0000
50.0940 13.2630 9.2878 1.0000
50.0941 -13.1015 9.2804 1.0000
50.0941 -12.7821 9.2661 1.0000
50.0941 -12.6227 9.2590 1.0000
50.0941 -12.1460 9.2385 1.0000
50.0941 -11.9876 9.2319 1.0000
50.0941 -11.5138 9.2125 1.0000
50.0941 -11.3562 9.2062 1.0000
50.0940 -10.8848 9.1879 1.0000
50.0940 -10.7281 9.1820 1.0000
50.0940 -10.5716 9.1761 1.0000
50.0940 -10.4153 9.1704 1.0000
50.0940 -10.2592 9.1647 1.0000
50.0940 -10.1033 9.1592 1.0000
50.0940 -9.9475 9.1537 1.0000
50.0940 -9.3264 9.1327 1.0000
50.0940 -9.0170 9.1227 1.0000
50.0940 -8.5539 9.1084 1.0000
50.0940 -8.3998 9.1037 1.0000
50.0940 -8.2460 9.0992 1.0000
50.0940 -8.0923 9.0948 1.0000
50.0940 -7.7853 9.0862 1.0000
50.0939 -7.4789 9.0779 1.0000
50.0939 -7.1730 9.0700 1.0000
50.0940 -7.0203 9.0661 1.0000
50.0939 -6.8677 9.0624 1.0000
50.0940 -6.7152 9.0587 1.0000
50.0939 -6.4106 9.0516 1.0000
50.0939 -6.2585 9.0482 1.0000
50.0939 -6.1064 9.0448 1.0000
50.0939 -5.8028 9.0384 1.0000
50.0939 -5.6511 9.0353 1.0000
50.0939 -5.3480 9.0294 1.0000
50.0939 -4.8941 9.0211 1.0000
50.0939 -4.1393 9.0090 1.0000
50.0939 -3.8379 9.0047 1.0000
50.0939 -3.6874 9.0027 1.0000
50.0939 -3.2360 8.9971 1.0000
50.0939 -3.0857 8.9954 1.0000
50.0939 -2.9354 8.9938 1.0000
50.0939 -2.7852 8.9923 1.0000
50.0939 -2.6350 8.9908 1.0000
50.0940 -2.3348 8.9881 1.0000
50.0940 -2.0347 8.9858 1.0000
50.0940 -1.5850 8.9829 1.0000
50.0940 -0.9856 8.9801 1.0000
50.0940 -0.6861 8.9792 1.0000
50.0940 -0.3866 8.9787 1.0000
50.0940 -0.2368 8.9785 1.0000
50.0940 -0.0871 8.9784 1.0000
50.0940 0.0626 8.9784 1.0000
50.0940 0.3621 8.9786 1.0000
50.0940 0.6616 8.9792 1.0000
50.0940 1.2608 8.9812 1.0000
50.0940 1.5605 8.9827 1.0000
50.0940 1.7104 8.9836 1.0000
50.0940 2.0103 8.9856 1.0000
50.0940 2.3103 8.9879 1.0000
50.0940 2.7607 8.9920 1.0000
50.0940 2.9108 8.9935 1.0000
50.0940 3.0611 8.9951 1.0000
50.0940 3.3618 8.9986 1.0000
50.0940 3.5123 9.0004 1.0000
50.0940 3.6627 9.0024 1.0000
50.0940 3.8133 9.0044 1.0000
50.0940 4.1146 9.0086 1.0000
50.0940 4.4163 9.0132 1.0000
50.0940 5.3232 9.0289 1.0000
50.0940 6.0816 9.0443 1.0000
50.0940 6.3857 9.0510 1.0000
50.0940 6.5379 9.0545 1.0000
50.0940 6.8428 9.0618 1.0000
50.0940 7.4539 9.0772 1.0000
50.0940 7.7603 9.0855 1.0000
50.0940 8.2209 9.0985 1.0000
50.0940 8.3747 9.1030 1.0000
50.0940 8.8372 9.1170 1.0000
50.0940 9.3011 9.1318 1.0000
50.0940 9.6113 9.1422 1.0000
50.0940 10.0778 9.1583 1.0000
50.0940 10.3898 9.1695 1.0000
50.0940 10.7025 9.1810 1.0000
50.0940 10.8592 9.1869 1.0000
50.0940 11.0161 9.1929 1.0000
50.0940 11.1732 9.1990 1.0000
50.0940 11.4880 9.2115 1.0000
50.0940 11.6457 9.2178 1.0000
50.0940 11.9618 9.2308 1.0000
50.0940 12.2788 9.2442 1.0000
50.0940 12.4377 9.2510 1.0000
50.0940 12.9156 9.2720 1.0000
50.0940 13.0754 9.2792 1.0000
50.0940 13.3958 9.2939 1.0000
50.0941 -13.2892 9.2890 1.0000
50.0941 -13.1290 9.2816 1.0000
50.0941 -12.9691 9.2744 1.0000
50.0941 -12.4909 9.2533 1.0000
50.0941 -12.3320 9.2465 1.0000
50.0941 -12.0148 9.2330 1.0000
50.0941 -11.8566 9.2265 1.0000
50.0941 -11.6986 9.2200 1.0000
50.0941 -11.3832 9.2073 1.0000
50.0940 -10.7550 9.1830 1.0000
50.0940 -10.4422 9.1714 1.0000
50.0940 -10.2861 9.1657 1.0000
50.0940 -10.1301 9.1601 1.0000
50.0940 -9.9743 9.1546 1.0000
50.0940 -9.5081 9.1387 1.0000
50.0940 -9.3531 9.1335 1.0000
50.0940 -9.1982 9.1285 1.0000
50.0940 -8.7346 9.1139 1.0000
50.0940 -8.4263 9.1045 1.0000
50.0940 -8.1187 9.0955 1.0000
50.0940 -7.9651 9.0912 1.0000
50.0940 -7.8117 9.0869 1.0000
50.0940 -7.6584 9.0827 1.0000
50.0939 -7.3522 9.0746 1.0000
50.0939 -7.0465 9.0668 1.0000
50.0940 -6.8939 9.0630 1.0000
50.0939 -6.7414 9.0593 1.0000
50.0939 -6.4368 9.0522 1.0000
50.0939 -6.2846 9.0488 1.0000
50.0939 -6.1326 9.0454 1.0000
50.0939 -5.9807 9.0421 1.0000
50.0939 -5.8289 9.0390 1.0000
50.0939 -5.6771 9.0359 1.0000
50.0939 -5.5255 9.0328 1.0000
50.0939 -5.3740 9.0299 1.0000
50.0939 -5.0713 9.0243 1.0000
50.0939 -4.9201 9.0216 1.0000
50.0939 -4.7689 9.0190 1.0000
50.0939 -4.4669 9.0140 1.0000
50.0939 -4.3161 9.0116 1.0000
50.0939 -4.1652 9.0094 1.0000
50.0939 -4.0145 9.0072 1.0000
50.0939 -3.8639 9.0051 1.0000
50.0939 -3.7132 9.0030 1.0000
50.0940 -3.5628 9.0011 1.0000
50.0939 -3.2619 8.9974 1.0000
50.0940 -2.9613 8.9941 1.0000
50.0939 -2.8110 8.9925 1.0000
50.0940 -2.6608 8.9910 1.0000
50.0939 -2.5107 8.9897 1.0000
50.0939 -2.0606 8.9860 1.0000
50.0940 -1.9106 8.9849 1.0000
50.0940 -1.4609 8.9822 1.0000
50.0940 -1.3110 8.9815 1.0000
50.0940 -1.1611 8.9808 1.0000
50.0940 -0.8616 8.9797 1.0000
50.0940 -0.7118 8.9793 1.0000
50.0940 -0.5621 8.9790 1.0000
50.0940 -0.2626 8.9785 1.0000
50.0940 -0.1129 8.9784 1.0000
50.0940 0.0369 8.9784 1.0000
50.0940 0.3364 8.9786 1.0000
50.0940 0.9354 8.9799 1.0000
50.0940 1.5347 8.9826 1.0000
50.0940 1.6846 8.9835 1.0000
50.0940 1.9845 8.9854 1.0000
50.0940 2.1345 8.9865 1.0000
50.0940 2.2845 8.9877 1.0000
50.0940 3.0353 8.9949 1.0000
50.0940 3.4864 9.0001 1.0000
50.0940 3.6369 9.0020 1.0000
50.0940 3.9380 9.0061 1.0000
50.0940 4.0887 9.0082 1.0000
50.0940 4.5413 9.0152 1.0000
50.0939 6.5641 8.1770 1.0000
50.0940 6.7165 8.1802 1.0000
50.0939 7.1743 8.1904 1.0000
50.0940 7.3272 8.1939 1.0000
50.0939 7.4802 8.1975 1.0000
50.0940 7.7866 8.2050 1.0000
50.0940 7.9400 8.2089 1.0000
50.0940 8.2473 8.2168 1.0000
50.0940 8.8637 8.2336 1.0000
50.0940 9.0182 8.2380 1.0000
50.0940 9.1729 8.2425 1.0000
50.0940 9.3277 8.2470 1.0000
50.0939 9.4828 8.2516 1.0000
50.0940 9.6380 8.2564 1.0000
50.0940 9.7933 8.2611 1.0000
50.0940 10.1046 8.2710 1.0000
50.0940 10.2605 8.2760 1.0000
50.0940 10.5730 8.2863 1.0000
50.0939 10.7295 8.2915 1.0000
50.0940 10.8861 8.2969 1.0000
50.0939 11.0430 8.3023 1.0000
50.0939 11.3575 8.3134 1.0000
50.0939 11.6728 8.3249 1.0000
50.0939 12.1474 8.3426 1.0000
50.0939 12.4649 8.3549 1.0000
50.0940 13.1029 8.3804 1.0000
50.0940 13.2630 8.3870 1.0000
50.0940 -12.6227 8.3611 1.0000
50.0940 -12.4636 8.3548 1.0000
50.0940 -12.3047 8.3487 1.0000
50.0940 -11.3562 8.3134 1.0000
50.0940 -11.1988 8.3078 1.0000
50.0940 -11.0417 8.3023 1.0000
50.0940 -10.8848 8.2969 1.0000
50.0940 -10.7281 8.2915 1.0000
50.0940 -10.4153 8.2811 1.0000
50.0940 -10.2592 8.2759 1.0000
50.0940 -10.1033 8.2709 1.0000
50.0940 -9.7920 8.2611 1.0000
50.0940 -9.4814 8.2516 1.0000
50.0940 -9.1716 8.2424 1.0000
50.0940 -8.3998 8.2209 1.0000
50.0940 -8.2460 8.2168 1.0000
50.0940 -8.0923 8.2128 1.0000
50.0939 -7.4789 8.1975 1.0000
50.0939 -7.3259 8.1939 1.0000
50.0939 -7.0203 8.1869 1.0000
50.0939 -6.5628 8.1769 1.0000
50.0939 -6.4105 8.1738 1.0000
50.0939 -6.2584 8.1707 1.0000
50.0939 -6.1064 8.1677 1.0000
50.0939 -5.8027 8.1619 1.0000
50.0939 -5.6510 8.1591 1.0000
50.0939 -5.1965 8.1512 1.0000
50.0939 -4.7429 8.1439 1.0000
50.0939 -4.4409 8.1395 1.0000
50.0939 -3.8379 8.1314 1.0000
50.0939 -3.6873 8.1296 1.0000
50.0939 -3.5368 8.1278 1.0000
50.0939 -3.3864 8.1262 1.0000
50.0939 -3.2360 8.1246 1.0000
50.0939 -3.0857 8.1230 1.0000
50.0939 -2.9354 8.1216 1.0000
50.0939 -2.6350 8.1189 1.0000
50.0939 -2.4848 8.1176 1.0000
50.0939 -2.0347 8.1143 1.0000
50.0939 -1.8848 8.1134 1.0000
50.0940 -1.5850 8.1117 1.0000
50.0939 -0.9856 8.1092 1.0000
50.0939 -0.6861 8.1084 1.0000
50.0939 -0.3866 8.1079 1.0000
50.0939 -0.2368 8.1077 1.0000
50.0939 0.2124 8.1077 1.0000
50.0939 0.9612 8.1091 1.0000
50.0939 1.1110 8.1097 1.0000
50.0939 1.2608 8.1102 1.0000
50.0939 1.4106 8.1109 1.0000
50.0939 1.5605 8.1116 1.0000
50.0939 2.0103 8.1142 1.0000
50.0939 2.3103 8.1163 1.0000
50.0939 2.4604 8.1174 1.0000
50.0939 2.7606 8.1200 1.0000
50.0939 2.9109 8.1213 1.0000
50.0939 3.2114 8.1243 1.0000
50.0939 3.5123 8.1276 1.0000
50.0940 3.6627 8.1293 1.0000
50.0940 4.4163 8.1391 1.0000
50.0939 4.5673 8.1413 1.0000
50.0940 4.7182 8.1435 1.0000
50.0939 4.8694 8.1459 1.0000
50.0940 5.0205 8.1483 1.0000
50.0939 5.4747 8.1559 1.0000
50.0939 6.0816 8.1672 1.0000
50.0940 6.2336 8.1702 1.0000
50.0940 6.3857 8.1733 1.0000
50.0940 6.5379 8.1764 1.0000
50.0940 6.6903 8.1796 1.0000
50.0940 6.9953 8.1863 1.0000
50.0940 7.3009 8.1933 1.0000
50.0940 7.4538 8.1969 1.0000
50.0940 7.6070 8.2006 1.0000
50.0940 7.7602 8.2044 1.0000
50.0940 7.9137 8.2082 1.0000
50.0939 8.0672 8.2121 1.0000
50.0939 8.3747 8.2202 1.0000
50.0940 8.5287 8.2243 1.0000
50.0939 8.9917 8.2372 1.0000
50.0940 9.3011 8.2462 1.0000
50.0939 9.6112 8.2555 1.0000
50.0940 9.9221 8.2652 1.0000
50.0940 10.3898 8.2802 1.0000
50.0939 11.0161 8.3014 1.0000
50.0939 11.1731 8.3069 1.0000
50.0939 11.3305 8.3125 1.0000
50.0939 11.4879 8.3181 1.0000
50.0939 11.6456 8.3239 1.0000
50.0939 12.1202 8.3416 1.0000
50.0939 12.2787 8.3477 1.0000
50.0939 12.5966 8.3601 1.0000
50.0939 12.7560 8.3664 1.0000
50.0940 13.0754 8.3793 1.0000
50.0940 13.2355 8.3859 1.0000
50.0940 13.3958 8.3925 1.0000
50.0940 -12.8095 8.3685 1.0000
50.0940 -12.6501 8.3622 1.0000
50.0940 -12.1733 8.3436 1.0000
50.0940 -11.6986 8.3258 1.0000
50.0940 -11.5408 8.3200 1.0000
50.0940 -10.9118 8.2978 1.0000
50.0940 -10.5985 8.2871 1.0000
50.0940 -10.2861 8.2768 1.0000
50.0940 -9.9743 8.2668 1.0000
50.0940 -9.6633 8.2571 1.0000
50.0940 -9.5081 8.2524 1.0000
50.0940 -9.3531 8.2478 1.0000
50.0940 -9.1982 8.2432 1.0000
50.0940 -9.0435 8.2387 1.0000
50.0940 -8.8889 8.2343 1.0000
50.0940 -8.7346 8.2300 1.0000
50.0940 -7.6584 8.2019 1.0000
50.0940 -7.5052 8.1982 1.0000
50.0939 -7.0465 8.1875 1.0000
50.0939 -6.8939 8.1841 1.0000
50.0939 -6.5890 8.1775 1.0000
50.0939 -5.9807 8.1652 1.0000
50.0939 -5.6771 8.1596 1.0000
50.0939 -5.3739 8.1542 1.0000
50.0939 -5.2226 8.1516 1.0000
50.0939 -4.7689 8.1443 1.0000
50.0939 -4.3160 8.1377 1.0000
50.0939 -4.1652 8.1356 1.0000
50.0939 -3.8638 8.1317 1.0000
50.0939 -3.7132 8.1299 1.0000
50.0939 -3.5627 8.1281 1.0000
50.0939 -3.4122 8.1264 1.0000
50.0939 -3.2618 8.1248 1.0000
50.0939 -3.1115 8.1233 1.0000
50.0939 -2.6608 8.1191 1.0000
50.0940 -2.5107 8.1178 1.0000
50.0939 -2.0605 8.1145 1.0000
50.0939 -1.9105 8.1136 1.0000
50.0939 -1.7606 8.1127 1.0000
50.0939 -1.1612 8.1098 1.0000
50.0939 -0.8616 8.1089 1.0000
50.0939 -0.7118 8.1085 1.0000
50.0939 -0.5620 8.1082 1.0000
50.0940 -0.4123 8.1079 1.0000
50.0939 -0.2625 8.1078 1.0000
50.0939 0.1866 8.1077 1.0000
50.0939 0.3364 8.1078 1.0000
50.0939 0.7856 8.1086 1.0000
50.0939 0.9354 8.1091 1.0000
50.0940 1.0852 8.1096 1.0000
50.0939 1.2350 8.1101 1.0000
50.0939 1.3849 8.1108 1.0000
50.0939 1.5347 8.1115 1.0000
50.0939 1.6846 8.1122 1.0000
50.0939 2.1345 8.1150 1.0000
50.0939 2.4345 8.1172 1.0000
50.0939 2.5847 8.1184 1.0000
50.0940 2.7348 8.1197 1.0000
50.0939 2.8850 8.1211 1.0000
50.0939 3.0353 8.1225 1.0000
50.0940 3.3359 8.1256 1.0000
50.0940 3.7874 8.1308 1.0000
50.0940 4.2395 8.1366 1.0000
50.0939 4.3904 8.1387 1.0000
50.0940 6.4119 7.3008 1.0000
50.0939 6.5641 7.3036 1.0000
50.0939 6.7165 7.3065 1.0000
50.0939 7.3272 7.3187 1.0000
50.0940 7.7866 7.3286 1.0000
50.0940 7.9400 7.3321 1.0000
50.0940 8.0936 7.3356 1.0000
50.0939 8.2473 7.3392 1.0000
50.0940 8.4012 7.3428 1.0000
50.0939 8.5552 7.3465 1.0000
50.0940 9.0182 7.3581 1.0000
50.0940 9.3278 7.3661 1.0000
50.0939 9.6380 7.3745 1.0000
50.0939 9.7933 7.3788 1.0000
50.0939 11.0431 7.4156 1.0000
50.0940 12.4649 7.4625 1.0000
50.0940 12.6240 7.4681 1.0000
50.0940 12.9430 7.4795 1.0000
50.0940 13.1029 7.4853 1.0000
50.0940 -12.6227 7.4680 1.0000
50.0940 -12.4636 7.4625 1.0000
50.0940 -12.3047 7.4569 1.0000
50.0940 -12.1461 7.4515 1.0000
50.0940 -11.9877 7.4461 1.0000
50.0940 -11.6715 7.4356 1.0000
50.0940 -11.3562 7.4254 1.0000
50.0940 -10.4153 7.3966 1.0000
50.0940 -10.1033 7.3875 1.0000
50.0940 -9.4815 7.3703 1.0000
50.0940 -9.3264 7.3661 1.0000
50.0940 -9.0170 7.3581 1.0000
50.0940 -8.8624 7.3541 1.0000
50.0940 -7.9387 7.3321 1.0000
50.0939 -7.4789 7.3219 1.0000
50.0939 -7.1730 7.3155 1.0000
50.0939 -7.0203 7.3124 1.0000
50.0939 -6.8677 7.3094 1.0000
50.0939 -6.7152 7.3064 1.0000
50.0939 -6.4105 7.3007 1.0000
50.0939 -6.1064 7.2953 1.0000
50.0939 -5.8027 7.2901 1.0000
50.0939 -5.6511 7.2876 1.0000
50.0939 -5.3480 7.2828 1.0000
50.0939 -5.0453 7.2783 1.0000
50.0939 -4.8941 7.2762 1.0000
50.0939 -4.7429 7.2741 1.0000
50.0939 -4.4409 7.2701 1.0000
50.0939 -3.9886 7.2646 1.0000
50.0939 -3.6873 7.2613 1.0000
50.0939 -3.3864 7.2582 1.0000
50.0939 -3.2360 7.2568 1.0000
50.0940 -2.6350 7.2517 1.0000
50.0939 -2.3348 7.2495 1.0000
50.0940 -1.4351 7.2446 1.0000
50.0940 -1.2852 7.2441 1.0000
50.0940 -0.8359 7.2427 1.0000
50.0940 -0.3866 7.2419 1.0000
50.0940 -0.2369 7.2418 1.0000
50.0940 -0.0871 7.2417 1.0000
50.0940 0.2124 7.2417 1.0000
50.0940 0.5118 7.2421 1.0000
50.0940 0.6616 7.2423 1.0000
50.0940 1.1109 7.2435 1.0000
50.0940 1.8603 7.2467 1.0000
50.0940 2.0102 7.2475 1.0000
50.0940 2.6104 7.2515 1.0000
50.0940 3.3618 7.2580 1.0000
50.0940 3.5122 7.2595 1.0000
50.0940 3.6627 7.2610 1.0000
50.0940 3.8133 7.2626 1.0000
50.0940 4.5672 7.2717 1.0000
50.0940 4.7182 7.2737 1.0000
50.0939 4.8694 7.2758 1.0000
50.0939 5.1718 7.2802 1.0000
50.0940 5.3232 7.2825 1.0000
50.0939 6.0816 7.2949 1.0000
50.0940 6.5379 7.3031 1.0000
50.0939 6.8428 7.3089 1.0000
50.0940 6.9953 7.3119 1.0000
50.0940 7.1480 7.3150 1.0000
50.0940 7.3009 7.3182 1.0000
50.0940 7.4539 7.3214 1.0000
50.0940 8.2209 7.3385 1.0000
50.0940 8.5287 7.3459 1.0000
50.0940 9.3011 7.3654 1.0000
50.0940 9.4561 7.3696 1.0000
50.0939 9.7666 7.3780 1.0000
50.0940 10.7025 7.4051 1.0000
50.0940 11.1731 7.4196 1.0000
50.0940 11.3304 7.4246 1.0000
50.0940 11.4879 7.4297 1.0000
50.0940 11.9618 7.4453 1.0000
50.0940 12.1201 7.4506 1.0000
50.0940 12.4376 7.4616 1.0000
50.0940 12.7560 7.4728 1.0000
50.0940 13.0754 7.4843 1.0000
50.0940 -13.2892 7.4922 1.0000
50.0940 -13.1291 7.4863 1.0000
50.0940 -12.9691 7.4804 1.0000
50.0940 -12.1733 7.4524 1.0000
50.0940 -12.0148 7.4471 1.0000
50.0940 -11.3832 7.4263 1.0000
50.0940 -11.0687 7.4163 1.0000
50.0940 -10.9118 7.4115 1.0000
50.0940 -10.5985 7.4020 1.0000
50.0940 -10.4422 7.3973 1.0000
50.0940 -10.1301 7.3883 1.0000
50.0940 -9.8187 7.3795 1.0000
50.0940 -9.6634 7.3752 1.0000
50.0940 -9.5081 7.3710 1.0000
50.0940 -9.3531 7.3668 1.0000
50.0940 -8.8890 7.3548 1.0000
50.0940 -8.5804 7.3471 1.0000
50.0940 -8.2725 7.3398 1.0000
50.0940 -7.8117 7.3292 1.0000
50.0940 -7.6584 7.3258 1.0000
50.0939 -7.3522 7.3193 1.0000
50.0939 -7.1993 7.3161 1.0000
50.0939 -6.5890 7.3040 1.0000
50.0939 -6.4368 7.3012 1.0000
50.0939 -6.2846 7.2984 1.0000
50.0939 -5.8288 7.2905 1.0000
50.0939 -5.6771 7.2880 1.0000
50.0939 -5.5255 7.2856 1.0000
50.0939 -5.3740 7.2832 1.0000
50.0939 -5.0713 7.2787 1.0000
50.0939 -4.4669 7.2704 1.0000
50.0939 -4.1652 7.2667 1.0000
50.0939 -4.0145 7.2649 1.0000
50.0939 -3.8638 7.2632 1.0000
50.0939 -3.7132 7.2615 1.0000
50.0939 -3.5627 7.2600 1.0000
50.0939 -3.2619 7.2570 1.0000
50.0939 -2.9612 7.2543 1.0000
50.0939 -2.8110 7.2531 1.0000
50.0939 -2.6609 7.2519 1.0000
50.0939 -2.5107 7.2508 1.0000
50.0939 -2.3606 7.2497 1.0000
50.0940 -2.2105 7.2487 1.0000
50.0940 -2.0605 7.2478 1.0000
50.0940 -1.9106 7.2469 1.0000
50.0940 -1.7607 7.2461 1.0000
50.0940 -1.6107 7.2454 1.0000
50.0940 -1.4609 7.2448 1.0000
50.0940 -1.3111 7.2442 1.0000
50.0940 -0.8616 7.2427 1.0000
50.0940 -0.5621 7.2421 1.0000
50.0940 -0.4123 7.2419 1.0000
50.0940 -0.1129 7.2417 1.0000
50.0940 0.1866 7.2417 1.0000
50.0940 0.7856 7.2426 1.0000
50.0940 1.0852 7.2434 1.0000
50.0940 1.2350 7.2439 1.0000
50.0940 1.3848 7.2444 1.0000
50.0940 1.5347 7.2451 1.0000
50.0940 1.6846 7.2458 1.0000
50.0940 2.2844 7.2492 1.0000
50.0940 2.5846 7.2513 1.0000
50.0940 2.8850 7.2537 1.0000
50.0940 3.0352 7.2550 1.0000
50.0940 3.1855 7.2563 1.0000
50.0940 3.4864 7.2592 1.0000
50.0940 3.6368 7.2607 1.0000
50.0939 4.3904 7.2694 1.0000
50.0939 4.5413 7.2714 1.0000
50.0939 6.4119 6.4320 1.0000
50.0939 6.8690 6.4396 1.0000
50.0939 7.1743 6.4450 1.0000
50.0939 7.4803 6.4507 1.0000
50.0939 7.6334 6.4536 1.0000
50.0939 7.9401 6.4596 1.0000
50.0939 8.0936 6.4626 1.0000
50.0939 8.2474 6.4658 1.0000
50.0939 8.7094 6.4756 1.0000
50.0939 9.1729 6.4860 1.0000
50.0939 9.7933 6.5007 1.0000
50.0939 9.9489 6.5045 1.0000
50.0939 10.1046 6.5084 1.0000
50.0939 10.5729 6.5205 1.0000
50.0939 10.7295 6.5246 1.0000
50.0939 11.0431 6.5331 1.0000
50.0939 11.8308 6.5554 1.0000
50.0939 11.9890 6.5601 1.0000
50.0939 12.1474 6.5648 1.0000
50.0939 12.3061 6.5696 1.0000
50.0939 12.6240 6.5794 1.0000
50.0939 13.1029 6.5946 1.0000
50.0940 -13.4220 6.6050 1.0000
50.0940 -13.1015 6.5945 1.0000
50.0940 -12.4636 6.5744 1.0000
50.0940 -12.1461 6.5648 1.0000
50.0940 -11.9876 6.5600 1.0000
50.0940 -11.8295 6.5554 1.0000
50.0940 -11.6714 6.5508 1.0000
50.0940 -11.3562 6.5418 1.0000
50.0940 -11.1988 6.5374 1.0000
50.0940 -11.0418 6.5331 1.0000
50.0940 -10.8848 6.5288 1.0000
50.0940 -10.7281 6.5246 1.0000
50.0940 -10.4153 6.5164 1.0000
50.0940 -10.2592 6.5123 1.0000
50.0940 -10.1033 6.5084 1.0000
50.0940 -9.9475 6.5045 1.0000
50.0940 -9.7920 6.5007 1.0000
50.0940 -9.3264 6.4895 1.0000
50.0940 -9.0169 6.4825 1.0000
50.0940 -8.8624 6.4790 1.0000
50.0940 -8.5539 6.4723 1.0000
50.0940 -7.9387 6.4595 1.0000
50.0940 -7.7854 6.4565 1.0000
50.0940 -7.6321 6.4535 1.0000
50.0939 -7.1730 6.4450 1.0000
50.0939 -7.0203 6.4423 1.0000
50.0939 -6.8677 6.4396 1.0000
50.0939 -6.5628 6.4344 1.0000
50.0939 -6.1064 6.4271 1.0000
50.0939 -5.9545 6.4248 1.0000
50.0939 -5.8028 6.4226 1.0000
50.0939 -5.6511 6.4204 1.0000
50.0939 -5.3479 6.4162 1.0000
50.0939 -5.1966 6.4142 1.0000
50.0939 -5.0453 6.4122 1.0000
50.0939 -4.4410 6.4049 1.0000
50.0939 -4.1393 6.4017 1.0000
50.0939 -3.9886 6.4001 1.0000
50.0939 -3.8379 6.3986 1.0000
50.0939 -3.5368 6.3958 1.0000
50.0939 -3.3864 6.3945 1.0000
50.0939 -2.4849 6.3878 1.0000
50.0939 -2.1847 6.3860 1.0000
50.0939 -2.0347 6.3852 1.0000
50.0939 -1.5849 6.3831 1.0000
50.0939 -1.2852 6.3820 1.0000
50.0939 -0.6861 6.3805 1.0000
50.0939 -0.5363 6.3803 1.0000
50.0939 -0.0871 6.3799 1.0000
50.0939 0.2124 6.3800 1.0000
50.0939 0.3621 6.3801 1.0000
50.0939 0.5118 6.3802 1.0000
50.0939 0.8114 6.3808 1.0000
50.0939 0.9612 6.3811 1.0000
50.0939 1.1110 6.3815 1.0000
50.0939 1.4107 6.3824 1.0000
50.0939 1.5605 6.3830 1.0000
50.0939 2.1603 6.3858 1.0000
50.0939 2.7607 6.3896 1.0000
50.0939 3.0611 6.3918 1.0000
50.0939 3.5123 6.3956 1.0000
50.0939 4.1147 6.4014 1.0000
50.0939 4.2655 6.4030 1.0000
50.0939 4.5673 6.4064 1.0000
50.0939 5.3232 6.4158 1.0000
50.0939 5.4747 6.4179 1.0000
50.0939 5.6263 6.4200 1.0000
50.0939 5.9297 6.4245 1.0000
50.0939 6.0816 6.4268 1.0000
50.0939 6.2336 6.4291 1.0000
50.0939 6.5379 6.4340 1.0000
50.0939 6.8428 6.4392 1.0000
50.0939 6.9954 6.4418 1.0000
50.0939 7.3009 6.4473 1.0000
50.0939 7.7603 6.4560 1.0000
50.0939 8.2209 6.4653 1.0000
50.0939 8.5287 6.4717 1.0000
50.0939 8.6829 6.4750 1.0000
50.0939 8.8372 6.4784 1.0000
50.0939 8.9917 6.4819 1.0000
50.0939 9.3011 6.4890 1.0000
50.0939 9.4561 6.4926 1.0000
50.0939 9.6113 6.4963 1.0000
50.0939 9.9221 6.5039 1.0000
50.0939 10.0779 6.5077 1.0000
50.0939 10.3898 6.5157 1.0000
50.0939 10.5461 6.5198 1.0000
50.0939 10.7025 6.5239 1.0000
50.0939 10.8592 6.5281 1.0000
50.0939 11.4879 6.5455 1.0000
50.0939 11.8036 6.5546 1.0000
50.0939 11.9618 6.5593 1.0000
50.0939 12.2787 6.5688 1.0000
50.0939 12.4376 6.5736 1.0000
50.0939 12.5967 6.5785 1.0000
50.0939 12.9156 6.5886 1.0000
50.0939 13.0754 6.5937 1.0000
50.0939 13.2354 6.5988 1.0000
50.0940 -13.2892 6.6006 1.0000
50.0940 -12.8095 6.5852 1.0000
50.0940 -12.6501 6.5802 1.0000
50.0940 -12.4910 6.5753 1.0000
50.0940 -12.1733 6.5656 1.0000
50.0940 -12.0148 6.5609 1.0000
50.0940 -11.6986 6.5516 1.0000
50.0940 -11.2259 6.5382 1.0000
50.0940 -10.9118 6.5295 1.0000
50.0940 -10.5986 6.5211 1.0000
50.0940 -10.4421 6.5171 1.0000
50.0940 -10.2861 6.5130 1.0000
50.0940 -10.1301 6.5091 1.0000
50.0940 -9.9743 6.5052 1.0000
50.0940 -9.8187 6.5013 1.0000
50.0940 -9.6634 6.4975 1.0000
50.0940 -9.5081 6.4938 1.0000
50.0940 -9.3531 6.4902 1.0000
50.0940 -9.1982 6.4866 1.0000
50.0940 -9.0436 6.4831 1.0000
50.0940 -8.7346 6.4762 1.0000
50.0940 -8.5804 6.4728 1.0000
50.0940 -8.4264 6.4696 1.0000
50.0940 -8.1187 6.4632 1.0000
50.0940 -7.6584 6.4540 1.0000
50.0939 -7.3521 6.4483 1.0000
50.0939 -7.0465 6.4427 1.0000
50.0939 -6.8939 6.4400 1.0000
50.0939 -6.7414 6.4374 1.0000
50.0939 -5.9806 6.4252 1.0000
50.0939 -5.5255 6.4186 1.0000
50.0939 -5.3740 6.4165 1.0000
50.0939 -5.2225 6.4145 1.0000
50.0939 -5.0713 6.4125 1.0000
50.0939 -4.9200 6.4106 1.0000
50.0939 -4.7689 6.4088 1.0000
50.0939 -4.6179 6.4070 1.0000
50.0939 -4.4669 6.4052 1.0000
50.0939 -4.1652 6.4019 1.0000
50.0939 -3.8639 6.3989 1.0000
50.0939 -3.7132 6.3974 1.0000
50.0939 -3.5627 6.3960 1.0000
50.0939 -3.2618 6.3934 1.0000
50.0939 -2.8110 6.3900 1.0000
50.0939 -2.3606 6.3870 1.0000
50.0939 -2.2105 6.3861 1.0000
50.0939 -1.6107 6.3832 1.0000
50.0939 -1.3110 6.3821 1.0000
50.0939 -1.1611 6.3816 1.0000
50.0939 -1.0114 6.3812 1.0000
50.0939 -0.8616 6.3809 1.0000
50.0939 -0.5621 6.3803 1.0000
50.0939 -0.4123 6.3801 1.0000
50.0939 0.4861 6.3802 1.0000
50.0939 0.6359 6.3804 1.0000
50.0939 0.7857 6.3807 1.0000
50.0939 1.2350 6.3819 1.0000
50.0939 1.6846 6.3835 1.0000
50.0939 1.8345 6.3842 1.0000
50.0939 1.9845 6.3849 1.0000
50.0939 2.2845 6.3865 1.0000
50.0939 2.4346 6.3874 1.0000
50.0939 2.5847 6.3884 1.0000
50.0939 2.7348 6.3894 1.0000
50.0939 3.0353 6.3916 1.0000
50.0939 3.7875 6.3981 1.0000
50.0939 3.9381 6.3996 1.0000
50.0939 4.0888 6.4011 1.0000
50.0939 4.2395 6.4027 1.0000
50.0939 4.3904 6.4044 1.0000
50.0939 4.6923 6.4078 1.0000
50.0939 6.4119 5.5669 1.0000
50.0939 6.5641 5.5691 1.0000
50.0939 6.8690 5.5735 1.0000
50.0939 7.1743 5.5782 1.0000
50.0939 7.3272 5.5806 1.0000
50.0939 7.4802 5.5831 1.0000
50.0939 7.6334 5.5856 1.0000
50.0939 7.7866 5.5882 1.0000
50.0939 7.9401 5.5908 1.0000
50.0939 8.0936 5.5935 1.0000
50.0939 8.4012 5.5990 1.0000
50.0939 8.7094 5.6047 1.0000
50.0939 9.0183 5.6106 1.0000
50.0939 9.1729 5.6137 1.0000
50.0939 9.3277 5.6168 1.0000
50.0939 9.7934 5.6264 1.0000
50.0939 10.1046 5.6331 1.0000
50.0939 10.5730 5.6435 1.0000
50.0939 10.8862 5.6507 1.0000
50.0939 11.3575 5.6620 1.0000
50.0939 11.5150 5.6659 1.0000
50.0939 11.8308 5.6738 1.0000
50.0939 11.9890 5.6778 1.0000
50.0939 12.1474 5.6819 1.0000
50.0939 12.4649 5.6902 1.0000
50.0939 12.7834 5.6988 1.0000
50.0939 13.1029 5.7076 1.0000
50.0940 -13.2616 5.7121 1.0000
50.0940 -13.1015 5.7076 1.0000
50.0939 -12.7821 5.6988 1.0000
50.0940 -12.3047 5.6860 1.0000
50.0939 -12.1460 5.6819 1.0000
50.0939 -11.6714 5.6698 1.0000
50.0939 -11.3561 5.6620 1.0000
50.0939 -11.1988 5.6582 1.0000
50.0939 -11.0417 5.6544 1.0000
50.0940 -10.2592 5.6365 1.0000
50.0940 -10.1033 5.6330 1.0000
50.0940 -9.6366 5.6231 1.0000
50.0940 -9.4814 5.6199 1.0000
50.0939 -9.3264 5.6167 1.0000
50.0939 -9.1716 5.6136 1.0000
50.0940 -9.0169 5.6106 1.0000
50.0939 -8.7081 5.6047 1.0000
50.0939 -8.5539 5.6018 1.0000
50.0940 -8.3999 5.5989 1.0000
50.0939 -8.2460 5.5962 1.0000
50.0939 -7.7853 5.5882 1.0000
50.0940 -7.6320 5.5856 1.0000
50.0939 -7.3259 5.5806 1.0000
50.0939 -7.1730 5.5782 1.0000
50.0939 -7.0203 5.5758 1.0000
50.0939 -6.7152 5.5712 1.0000
50.0939 -6.5628 5.5690 1.0000
50.0939 -6.4105 5.5669 1.0000
50.0939 -6.1064 5.5627 1.0000
50.0939 -5.1966 5.5515 1.0000
50.0939 -4.5919 5.5450 1.0000
50.0939 -4.4409 5.5435 1.0000
50.0939 -4.2900 5.5421 1.0000
50.0939 -3.5368 5.5356 1.0000
50.0939 -3.3864 5.5345 1.0000
50.0939 -2.6350 5.5295 1.0000
50.0939 -2.4849 5.5286 1.0000
50.0939 -2.3348 5.5278 1.0000
50.0939 -2.1848 5.5271 1.0000
50.0939 -2.0348 5.5264 1.0000
50.0939 -1.7348 5.5252 1.0000
50.0939 -1.4351 5.5241 1.0000
50.0939 -1.2852 5.5237 1.0000
50.0939 -1.1354 5.5233 1.0000
50.0939 -0.6861 5.5224 1.0000
50.0939 -0.3866 5.5220 1.0000
50.0939 -0.2368 5.5219 1.0000
50.0939 -0.0871 5.5219 1.0000
50.0939 0.2124 5.5219 1.0000
50.0939 0.5119 5.5221 1.0000
50.0939 0.6616 5.5223 1.0000
50.0939 0.9612 5.5229 1.0000
50.0939 1.1109 5.5232 1.0000
50.0939 1.4106 5.5240 1.0000
50.0939 1.5605 5.5245 1.0000
50.0939 1.8603 5.5257 1.0000
50.0939 2.4604 5.5285 1.0000
50.0939 2.9108 5.5312 1.0000
50.0939 3.0611 5.5322 1.0000
50.0939 3.6627 5.5366 1.0000
50.0939 3.8134 5.5378 1.0000
50.0939 4.7182 5.5463 1.0000
50.0939 4.8694 5.5479 1.0000
50.0939 5.3232 5.5529 1.0000
50.0939 5.4747 5.5547 1.0000
50.0939 5.6262 5.5566 1.0000
50.0939 5.9297 5.5604 1.0000
50.0939 6.3857 5.5665 1.0000
50.0939 6.8427 5.5731 1.0000
50.0939 6.9953 5.5754 1.0000
50.0939 7.1480 5.5778 1.0000
50.0939 7.4539 5.5826 1.0000
50.0939 7.7602 5.5877 1.0000
50.0939 7.9137 5.5903 1.0000
50.0939 8.2209 5.5957 1.0000
50.0939 8.3747 5.5985 1.0000
50.0939 8.8372 5.6071 1.0000
50.0939 8.9916 5.6101 1.0000
50.0939 9.1463 5.6131 1.0000
50.0939 9.3011 5.6162 1.0000
50.0939 9.6112 5.6226 1.0000
50.0939 9.7666 5.6258 1.0000
50.0939 10.5461 5.6429 1.0000
50.0939 10.7025 5.6465 1.0000
50.0939 10.8592 5.6501 1.0000
50.0939 11.1731 5.6575 1.0000
50.0939 12.1201 5.6812 1.0000
50.0939 12.4376 5.6895 1.0000
50.0939 12.7560 5.6981 1.0000
50.0939 12.9155 5.7024 1.0000
50.0939 13.0754 5.7069 1.0000
50.0939 13.3957 5.7159 1.0000
50.0940 -13.1290 5.7084 1.0000
50.0939 -12.9691 5.7039 1.0000
50.0939 -12.4909 5.6909 1.0000
50.0939 -11.5408 5.6665 1.0000
50.0940 -11.0687 5.6550 1.0000
50.0939 -10.5985 5.6441 1.0000
50.0940 -10.4421 5.6405 1.0000
50.0940 -9.9743 5.6302 1.0000
50.0939 -9.5081 5.6204 1.0000
50.0940 -9.3531 5.6173 1.0000
50.0940 -9.1982 5.6142 1.0000
50.0939 -8.8889 5.6081 1.0000
50.0940 -8.5804 5.6023 1.0000
50.0940 -8.4264 5.5994 1.0000
50.0940 -8.2725 5.5966 1.0000
50.0940 -7.8117 5.5886 1.0000
50.0940 -7.6584 5.5860 1.0000
50.0940 -7.5052 5.5835 1.0000
50.0939 -7.3521 5.5810 1.0000
50.0939 -7.1993 5.5786 1.0000
50.0939 -7.0465 5.5762 1.0000
50.0939 -6.8939 5.5739 1.0000
50.0939 -6.7414 5.5716 1.0000
50.0939 -6.5890 5.5694 1.0000
50.0939 -6.4367 5.5672 1.0000
50.0939 -6.2846 5.5651 1.0000
50.0939 -6.1325 5.5631 1.0000
50.0939 -5.9806 5.5611 1.0000
50.0939 -5.8288 5.5591 1.0000
50.0939 -5.6771 5.5572 1.0000
50.0939 -5.5255 5.5553 1.0000
50.0939 -5.2226 5.5518 1.0000
50.0939 -4.7689 5.5468 1.0000
50.0939 -4.6179 5.5453 1.0000
50.0939 -4.4669 5.5438 1.0000
50.0939 -4.3160 5.5423 1.0000
50.0939 -4.1652 5.5409 1.0000
50.0939 -4.0145 5.5396 1.0000
50.0939 -3.8638 5.5383 1.0000
50.0939 -3.1115 5.5325 1.0000
50.0939 -2.6608 5.5296 1.0000
50.0939 -2.2105 5.5272 1.0000
50.0939 -1.9105 5.5259 1.0000
50.0939 -1.0114 5.5230 1.0000
50.0939 -0.5621 5.5222 1.0000
50.0939 0.1866 5.5219 1.0000
50.0939 0.4861 5.5221 1.0000
50.0939 0.6359 5.5223 1.0000
50.0939 0.7856 5.5225 1.0000
50.0939 1.2350 5.5235 1.0000
50.0939 1.8345 5.5256 1.0000
50.0939 2.2845 5.5276 1.0000
50.0939 2.5846 5.5292 1.0000
50.0939 2.8850 5.5310 1.0000
50.0939 3.0352 5.5320 1.0000
50.0939 3.1855 5.5330 1.0000
50.0939 3.3359 5.5341 1.0000
50.0939 3.6369 5.5364 1.0000
50.0939 3.7874 5.5376 1.0000
50.0939 4.0887 5.5402 1.0000
50.0939 4.3904 5.5430 1.0000
50.0939 4.6923 5.5460 1.0000
50.0939 6.4118 4.7051 1.0000
50.0939 6.7165 4.7087 1.0000
50.0939 6.8689 4.7106 1.0000
50.0939 7.0216 4.7126 1.0000
50.0939 7.1743 4.7146 1.0000
50.0939 7.3272 4.7166 1.0000
50.0939 7.4802 4.7187 1.0000
50.0939 7.9400 4.7252 1.0000
50.0939 8.4012 4.7322 1.0000
50.0939 8.8637 4.7395 1.0000
50.0939 9.0182 4.7420 1.0000
50.0939 9.3278 4.7472 1.0000
50.0939 9.6379 4.7526 1.0000
50.0939 9.7933 4.7553 1.0000
50.0939 9.9489 4.7581 1.0000
50.0939 10.1046 4.7610 1.0000
50.0939 10.2605 4.7639 1.0000
50.0939 10.4166 4.7668 1.0000
50.0939 11.2002 4.7822 1.0000
50.0939 11.5150 4.7887 1.0000
50.0939 11.6728 4.7920 1.0000
50.0939 11.8307 4.7954 1.0000
50.0939 12.6240 4.8129 1.0000
50.0939 12.9430 4.8202 1.0000
50.0939 -13.4220 4.8316 1.0000
50.0939 -13.2616 4.8278 1.0000
50.0939 -13.1015 4.8240 1.0000
50.0939 -12.6227 4.8129 1.0000
50.0939 -12.4636 4.8093 1.0000
50.0939 -12.3047 4.8057 1.0000
50.0939 -11.6714 4.7920 1.0000
50.0939 -11.5137 4.7887 1.0000
50.0939 -11.1988 4.7822 1.0000
50.0939 -10.7281 4.7728 1.0000
50.0939 -10.5716 4.7698 1.0000
50.0939 -9.7920 4.7553 1.0000
50.0939 -9.6366 4.7526 1.0000
50.0939 -9.4814 4.7498 1.0000
50.0939 -9.3264 4.7472 1.0000
50.0939 -9.0169 4.7420 1.0000
50.0939 -8.8624 4.7395 1.0000
50.0939 -8.7081 4.7370 1.0000
50.0939 -8.5539 4.7345 1.0000
50.0939 -8.2460 4.7298 1.0000
50.0939 -7.9387 4.7252 1.0000
50.0939 -7.6320 4.7208 1.0000
50.0938 -7.4789 4.7187 1.0000
50.0938 -7.1730 4.7146 1.0000
50.0938 -7.0202 4.7126 1.0000
50.0938 -6.8677 4.7106 1.0000
50.0938 -6.7152 4.7087 1.0000
50.0938 -6.4105 4.7050 1.0000
50.0938 -5.9545 4.6998 1.0000
50.0938 -5.8027 4.6982 1.0000
50.0938 -5.4994 4.6950 1.0000
50.0938 -5.3480 4.6935 1.0000
50.0938 -5.1965 4.6920 1.0000
50.0938 -5.0452 4.6906 1.0000
50.0938 -4.8941 4.6892 1.0000
50.0938 -4.5919 4.6866 1.0000
50.0938 -4.4409 4.6853 1.0000
50.0938 -3.8379 4.6807 1.0000
50.0938 -3.6873 4.6796 1.0000
50.0938 -3.5368 4.6786 1.0000
50.0938 -3.3864 4.6776 1.0000
50.0938 -3.2360 4.6767 1.0000
50.0938 -3.0856 4.6758 1.0000
50.0938 -2.9354 4.6750 1.0000
50.0938 -2.7852 4.6742 1.0000
50.0938 -2.4849 4.6727 1.0000
50.0939 -1.7348 4.6698 1.0000
50.0939 -1.5850 4.6693 1.0000
50.0939 -1.4351 4.6689 1.0000
50.0939 -1.2853 4.6685 1.0000
50.0939 -0.8358 4.6676 1.0000
50.0939 0.3621 4.6671 1.0000
50.0939 0.8114 4.6676 1.0000
50.0939 0.9612 4.6678 1.0000
50.0939 1.1110 4.6681 1.0000
50.0939 1.2607 4.6685 1.0000
50.0939 1.4106 4.6688 1.0000
50.0939 1.5605 4.6692 1.0000
50.0939 2.1602 4.6713 1.0000
50.0939 2.4604 4.6726 1.0000
50.0939 2.6105 4.6733 1.0000
50.0939 2.7607 4.6741 1.0000
50.0939 3.0611 4.6757 1.0000
50.0939 3.2114 4.6766 1.0000
50.0939 3.6628 4.6794 1.0000
50.0939 3.8133 4.6805 1.0000
50.0939 3.9639 4.6816 1.0000
50.0939 4.4163 4.6851 1.0000
50.0939 4.7182 4.6876 1.0000
50.0939 5.0205 4.6904 1.0000
50.0939 5.1718 4.6918 1.0000
50.0939 5.3232 4.6933 1.0000
50.0939 5.4747 4.6948 1.0000
50.0939 5.6263 4.6963 1.0000
50.0939 5.7779 4.6979 1.0000
50.0939 6.6903 4.7084 1.0000
50.0939 6.8427 4.7103 1.0000
50.0939 7.1480 4.7143 1.0000
50.0939 7.7602 4.7226 1.0000
50.0939 7.9136 4.7249 1.0000
50.0939 8.0672 4.7271 1.0000
50.0939 8.5287 4.7341 1.0000
50.0939 8.6829 4.7366 1.0000
50.0939 9.1463 4.7441 1.0000
50.0939 9.3011 4.7467 1.0000
50.0939 9.4561 4.7494 1.0000
50.0939 9.7666 4.7549 1.0000
50.0939 9.9221 4.7576 1.0000
50.0939 10.0778 4.7605 1.0000
50.0939 10.3897 4.7663 1.0000
50.0939 10.5461 4.7693 1.0000
50.0939 10.7025 4.7723 1.0000
50.0939 11.0161 4.7785 1.0000
50.0939 11.1731 4.7817 1.0000
50.0939 11.3304 4.7849 1.0000
50.0939 11.4879 4.7881 1.0000
50.0939 11.6456 4.7914 1.0000
50.0939 12.1201 4.8016 1.0000
50.0939 12.4376 4.8087 1.0000
50.0939 12.7560 4.8159 1.0000
50.0939 13.2354 4.8271 1.0000
50.0939 -13.1290 4.8246 1.0000
50.0939 -12.8095 4.8172 1.0000
50.0939 -12.4909 4.8099 1.0000
50.0939 -12.1733 4.8028 1.0000
50.0939 -12.0148 4.7993 1.0000
50.0939 -11.5408 4.7892 1.0000
50.0939 -11.3832 4.7860 1.0000
50.0939 -11.0687 4.7795 1.0000
50.0939 -10.7550 4.7733 1.0000
50.0939 -10.4421 4.7673 1.0000
50.0939 -10.1301 4.7614 1.0000
50.0939 -9.9743 4.7586 1.0000
50.0939 -9.8187 4.7558 1.0000
50.0939 -9.6634 4.7530 1.0000
50.0939 -9.3530 4.7476 1.0000
50.0939 -8.7346 4.7374 1.0000
50.0939 -8.2724 4.7302 1.0000
50.0939 -7.8116 4.7234 1.0000
50.0938 -7.1993 4.7149 1.0000
50.0938 -6.5890 4.7072 1.0000
50.0938 -6.1325 4.7018 1.0000
50.0938 -5.9806 4.7001 1.0000
50.0938 -5.8288 4.6985 1.0000
50.0938 -5.3740 4.6938 1.0000
50.0938 -5.0712 4.6908 1.0000
50.0938 -4.9201 4.6894 1.0000
50.0938 -4.7689 4.6881 1.0000
50.0938 -4.4669 4.6855 1.0000
50.0938 -4.1652 4.6831 1.0000
50.0938 -3.8638 4.6808 1.0000
50.0938 -3.2618 4.6769 1.0000
50.0938 -2.9612 4.6751 1.0000
50.0938 -2.8110 4.6743 1.0000
50.0939 -2.5107 4.6728 1.0000
50.0939 -2.3606 4.6722 1.0000
50.0939 -2.2105 4.6715 1.0000
50.0939 -1.9105 4.6704 1.0000
50.0939 -1.7607 4.6699 1.0000
50.0939 -1.6107 4.6694 1.0000
50.0939 -1.4608 4.6690 1.0000
50.0939 -1.1611 4.6682 1.0000
50.0939 -1.0114 4.6679 1.0000
50.0939 -0.8616 4.6677 1.0000
50.0939 -0.7118 4.6674 1.0000
50.0939 -0.4123 4.6671 1.0000
50.0939 -0.2626 4.6670 1.0000
50.0939 -0.1128 4.6670 1.0000
50.0939 0.0369 4.6670 1.0000
50.0939 0.4861 4.6672 1.0000
50.0939 0.7856 4.6676 1.0000
50.0939 1.0852 4.6681 1.0000
50.0939 1.3848 4.6688 1.0000
50.0939 1.5347 4.6692 1.0000
50.0939 1.6846 4.6696 1.0000
50.0939 1.9845 4.6706 1.0000
50.0939 2.2845 4.6718 1.0000
50.0939 2.5846 4.6732 1.0000
50.0939 2.7348 4.6739 1.0000
50.0939 3.0353 4.6755 1.0000
50.0939 3.1856 4.6764 1.0000
50.0939 3.3359 4.6773 1.0000
50.0939 3.4864 4.6783 1.0000
50.0939 3.6369 4.6793 1.0000
50.0939 4.6923 4.6874 1.0000
50.0939 6.4119 3.8459 1.0000
50.0939 7.0216 3.8521 1.0000
50.0939 7.1743 3.8537 1.0000
50.0939 7.4802 3.8571 1.0000
50.0939 7.7866 3.8606 1.0000
50.0939 7.9400 3.8624 1.0000
50.0939 8.0936 3.8643 1.0000
50.0939 8.4012 3.8681 1.0000
50.0939 8.8638 3.8741 1.0000
50.0939 9.1729 3.8782 1.0000
50.0939 9.3278 3.8804 1.0000
50.0939 9.6380 3.8848 1.0000
50.0939 9.7933 3.8870 1.0000
50.0939 9.9489 3.8893 1.0000
50.0939 10.1046 3.8916 1.0000
50.0939 10.5730 3.8988 1.0000
50.0939 10.7295 3.9013 1.0000
50.0939 10.8862 3.9038 1.0000
50.0939 11.3575 3.9116 1.0000
50.0939 11.6728 3.9170 1.0000
50.0939 11.9889 3.9225 1.0000
50.0939 12.1474 3.9254 1.0000
50.0939 12.3061 3.9282 1.0000
50.0939 12.4649 3.9311 1.0000
50.0939 13.1029 3.9431 1.0000
50.0939 -13.2616 3.9462 1.0000
50.0939 -13.1014 3.9431 1.0000
50.0939 -12.7821 3.9370 1.0000
50.0939 -12.6227 3.9340 1.0000
50.0939 -12.3046 3.9282 1.0000
50.0939 -11.5137 3.9143 1.0000
50.0939 -11.3561 3.9116 1.0000
50.0939 -11.1988 3.9090 1.0000
50.0939 -10.8848 3.9038 1.0000
50.0939 -10.7281 3.9013 1.0000
50.0939 -10.5716 3.8988 1.0000
50.0939 -10.4153 3.8964 1.0000
50.0939 -10.1033 3.8916 1.0000
50.0939 -9.6366 3.8847 1.0000
50.0939 -9.4814 3.8825 1.0000
50.0939 -9.1716 3.8782 1.0000
50.0939 -8.7081 3.8720 1.0000
50.0939 -8.3999 3.8681 1.0000
50.0939 -8.0923 3.8643 1.0000
50.0939 -7.9387 3.8624 1.0000
50.0939 -7.7853 3.8606 1.0000
50.0938 -7.4789 3.8571 1.0000
50.0938 -7.0202 3.8521 1.0000
50.0938 -6.5628 3.8474 1.0000
50.0938 -6.4105 3.8459 1.0000
50.0938 -6.2584 3.8445 1.0000
50.0938 -5.9545 3.8416 1.0000
50.0938 -5.8027 3.8403 1.0000
50.0938 -5.6510 3.8390 1.0000
50.0938 -5.3479 3.8365 1.0000
50.0938 -5.0453 3.8341 1.0000
50.0938 -4.4409 3.8298 1.0000
50.0938 -4.2900 3.8288 1.0000
50.0938 -3.9886 3.8269 1.0000
50.0938 -3.8379 3.8260 1.0000
50.0938 -3.6873 3.8251 1.0000
50.0938 -3.3864 3.8235 1.0000
50.0938 -2.9354 3.8213 1.0000
50.0938 -2.7852 3.8207 1.0000
50.0938 -2.4849 3.8195 1.0000
50.0938 -2.1847 3.8184 1.0000
50.0939 -2.0347 3.8179 1.0000
50.0939 -1.7348 3.8171 1.0000
50.0939 -0.9856 3.8155 1.0000
50.0939 -0.8358 3.8153 1.0000
50.0939 -0.3865 3.8149 1.0000
50.0939 -0.2368 3.8148 1.0000
50.0939 -0.0871 3.8148 1.0000
50.0939 0.0627 3.8148 1.0000
50.0939 0.3621 3.8149 1.0000
50.0939 1.1110 3.8157 1.0000
50.0939 1.2608 3.8160 1.0000
50.0939 1.4107 3.8163 1.0000
50.0939 1.5605 3.8166 1.0000
50.0939 1.8603 3.8174 1.0000
50.0939 2.0103 3.8179 1.0000
50.0939 2.6105 3.8200 1.0000
50.0939 2.7607 3.8206 1.0000
50.0939 2.9109 3.8212 1.0000
50.0939 3.3618 3.8234 1.0000
50.0939 3.5123 3.8242 1.0000
50.0939 3.8133 3.8258 1.0000
50.0939 3.9639 3.8267 1.0000
50.0939 4.1146 3.8276 1.0000
50.0939 4.8694 3.8328 1.0000
50.0939 5.0206 3.8339 1.0000
50.0939 5.4747 3.8375 1.0000
50.0939 5.6263 3.8388 1.0000
50.0939 6.0816 3.8428 1.0000
50.0939 6.2336 3.8442 1.0000
50.0939 6.3857 3.8457 1.0000
50.0939 6.8427 3.8502 1.0000
50.0939 7.9136 3.8621 1.0000
50.0939 8.0672 3.8639 1.0000
50.0939 8.2209 3.8658 1.0000
50.0939 8.3747 3.8677 1.0000
50.0939 8.5288 3.8697 1.0000
50.0939 8.9917 3.8758 1.0000
50.0939 9.1463 3.8779 1.0000
50.0939 9.3011 3.8800 1.0000
50.0939 9.7666 3.8866 1.0000
50.0939 10.7025 3.9009 1.0000
50.0939 10.8592 3.9034 1.0000
50.0939 11.0161 3.9059 1.0000
50.0939 11.1732 3.9085 1.0000
50.0939 11.3304 3.9112 1.0000
50.0939 11.6457 3.9165 1.0000
50.0939 11.8036 3.9193 1.0000
50.0939 11.9618 3.9220 1.0000
50.0939 12.2787 3.9277 1.0000
50.0939 12.7560 3.9365 1.0000
50.0939 12.9156 3.9395 1.0000
50.0939 13.2354 3.9457 1.0000
50.0939 13.3957 3.9488 1.0000
50.0939 -12.8095 3.9375 1.0000
50.0939 -12.6500 3.9345 1.0000
50.0939 -12.3320 3.9287 1.0000
50.0939 -12.1733 3.9258 1.0000
50.0939 -11.8566 3.9202 1.0000
50.0939 -11.5408 3.9147 1.0000
50.0939 -11.3832 3.9121 1.0000
50.0939 -11.2258 3.9094 1.0000
50.0939 -10.9118 3.9043 1.0000
50.0939 -10.7550 3.9017 1.0000
50.0939 -10.2860 3.8944 1.0000
50.0939 -10.1301 3.8920 1.0000
50.0939 -9.9743 3.8897 1.0000
50.0939 -9.8187 3.8874 1.0000
50.0939 -9.5081 3.8829 1.0000
50.0939 -9.3530 3.8807 1.0000
50.0939 -8.7346 3.8724 1.0000
50.0939 -8.5804 3.8704 1.0000
50.0939 -8.4264 3.8684 1.0000
50.0939 -8.2725 3.8665 1.0000
50.0939 -7.9651 3.8627 1.0000
50.0939 -7.8117 3.8609 1.0000
50.0939 -7.6583 3.8591 1.0000
50.0938 -6.8939 3.8508 1.0000
50.0938 -6.7414 3.8492 1.0000
50.0938 -6.5890 3.8477 1.0000
50.0938 -6.2846 3.8447 1.0000
50.0938 -5.5255 3.8379 1.0000
50.0938 -5.2226 3.8355 1.0000
50.0938 -5.0712 3.8343 1.0000
50.0938 -4.7689 3.8320 1.0000
50.0938 -4.4669 3.8299 1.0000
50.0938 -4.0145 3.8270 1.0000
50.0938 -3.8638 3.8261 1.0000
50.0938 -3.7132 3.8253 1.0000
50.0938 -3.5627 3.8244 1.0000
50.0938 -3.4122 3.8236 1.0000
50.0938 -3.2618 3.8229 1.0000
50.0938 -3.1115 3.8221 1.0000
50.0938 -2.5107 3.8196 1.0000
50.0939 -2.3605 3.8190 1.0000
50.0938 -2.2105 3.8185 1.0000
50.0938 -2.0605 3.8180 1.0000
50.0939 -1.9105 3.8176 1.0000
50.0939 -1.4608 3.8164 1.0000
50.0939 -0.7118 3.8152 1.0000
50.0939 -0.5620 3.8150 1.0000
50.0939 -0.4123 3.8149 1.0000
50.0939 0.3364 3.8149 1.0000
50.0939 0.4861 3.8150 1.0000
50.0939 0.6359 3.8151 1.0000
50.0939 0.7857 3.8153 1.0000
50.0939 0.9354 3.8155 1.0000
50.0939 1.2350 3.8160 1.0000
50.0939 2.1345 3.8182 1.0000
50.0939 2.4346 3.8193 1.0000
50.0939 2.8850 3.8211 1.0000
50.0939 3.0353 3.8218 1.0000
50.0939 3.1856 3.8225 1.0000
50.0939 3.3360 3.8232 1.0000
50.0939 3.4864 3.8240 1.0000
50.0939 3.9381 3.8266 1.0000
50.0939 4.0888 3.8275 1.0000
50.0939 4.3904 3.8294 1.0000
50.0939 6.8690 2.9925 1.0000
50.0939 7.3272 2.9964 1.0000
50.0939 7.6334 2.9990 1.0000
50.0939 7.9400 3.0018 1.0000
50.0939 8.2473 3.0047 1.0000
50.0939 8.5552 3.0077 1.0000
50.0939 8.8637 3.0109 1.0000
50.0939 9.6379 3.0192 1.0000
50.0939 9.7933 3.0209 1.0000
50.0939 9.9489 3.0227 1.0000
50.0939 10.2605 3.0264 1.0000
50.0939 10.4166 3.0282 1.0000
50.0939 10.7295 3.0320 1.0000
50.0939 10.8862 3.0340 1.0000
50.0939 11.0430 3.0360 1.0000
50.0939 11.2002 3.0380 1.0000
50.0939 11.3575 3.0401 1.0000
50.0939 11.5150 3.0421 1.0000
50.0939 11.9889 3.0485 1.0000
50.0939 12.3060 3.0529 1.0000
50.0939 12.7834 3.0598 1.0000
50.0939 13.1029 3.0645 1.0000
50.0939 13.2630 3.0670 1.0000
50.0939 -12.9416 3.0621 1.0000
50.0939 -12.6227 3.0575 1.0000
50.0939 -12.4635 3.0552 1.0000
50.0939 -12.1460 3.0507 1.0000
50.0939 -11.9875 3.0485 1.0000
50.0939 -11.8294 3.0463 1.0000
50.0939 -11.1988 3.0380 1.0000
50.0939 -10.7281 3.0320 1.0000
50.0939 -10.5716 3.0301 1.0000
50.0939 -10.4153 3.0282 1.0000
50.0939 -10.2592 3.0263 1.0000
50.0939 -9.9475 3.0227 1.0000
50.0939 -9.4814 3.0174 1.0000
50.0939 -9.3264 3.0157 1.0000
50.0939 -9.1716 3.0141 1.0000
50.0939 -8.7080 3.0093 1.0000
50.0939 -8.0923 3.0032 1.0000
50.0939 -7.7853 3.0004 1.0000
50.0938 -7.1730 2.9950 1.0000
50.0938 -6.8676 2.9925 1.0000
50.0938 -5.6510 2.9836 1.0000
50.0938 -5.4994 2.9826 1.0000
25.0526 -2.3720 1.4894 1.0000
25.0523 -2.2965 1.4889 1.0000
25.0520 -2.2209 1.4885 1.0000
25.0512 -2.0700 1.4877 1.0000
25.0509 -1.9946 1.4873 1.0000
25.0506 -1.9192 1.4870 1.0000
25.0503 -1.8439 1.4866 1.0000
25.0500 -1.7686 1.4863 1.0000
25.0513 -1.6935 1.4860 1.0000
25.0539 -1.5433 1.4856 1.0000
25.0548 -1.4681 1.4854 1.0000
25.0543 -1.3930 1.4851 1.0000
25.0534 -1.2428 1.4846 1.0000
25.0528 -1.1677 1.4844 1.0000
25.0521 -1.0926 1.4841 1.0000
25.0507 -0.9425 1.4837 1.0000
25.0529 -0.7927 1.4835 1.0000
25.0555 -0.6429 1.4834 1.0000
25.0569 -0.5680 1.4834 1.0000
25.0602 -0.2684 1.4833 1.0000
25.0609 -0.1185 1.4832 1.0000
25.0614 -0.0436 1.4833 1.0000
25.0617 0.0313 1.4833 1.0000
25.0625 0.1812 1.4834 1.0000
25.0629 0.2561 1.4834 1.0000
25.0632 0.3310 1.4835 1.0000
25.0640 0.4809 1.4837 1.0000
25.0648 0.6308 1.4839 1.0000
25.0652 0.7058 1.4841 1.0000
50.0939 1.7104 2.9665 1.0000
50.0939 1.8603 2.9668 1.0000
50.0939 2.1602 2.9676 1.0000
50.0939 2.4604 2.9684 1.0000
50.0939 2.7606 2.9693 1.0000
50.0939 2.9109 2.9698 1.0000
50.0939 3.0611 2.9703 1.0000
50.0939 3.2114 2.9709 1.0000
50.0939 3.3618 2.9715 1.0000
50.0939 3.6627 2.9727 1.0000
50.0939 3.8133 2.9734 1.0000
50.0939 3.9640 2.9741 1.0000
50.0939 4.1146 2.9748 1.0000
50.0939 4.5673 2.9771 1.0000
50.0939 4.8694 2.9788 1.0000
50.0939 5.1719 2.9806 1.0000
50.0939 5.3232 2.9815 1.0000
50.0939 5.4747 2.9825 1.0000
50.0939 5.6262 2.9834 1.0000
50.0939 5.9297 2.9855 1.0000
50.0939 6.3857 2.9888 1.0000
50.0939 6.8427 2.9923 1.0000
50.0939 7.1480 2.9948 1.0000
50.0939 7.3009 2.9961 1.0000
50.0939 7.4539 2.9974 1.0000
50.0939 7.6070 2.9988 1.0000
50.0939 7.7602 3.0002 1.0000
50.0939 7.9137 3.0016 1.0000
50.0939 8.2209 3.0045 1.0000
50.0939 8.3747 3.0059 1.0000
50.0939 9.1463 3.0138 1.0000
50.0939 9.9221 3.0224 1.0000
50.0939 10.0778 3.0242 1.0000
50.0939 10.5461 3.0298 1.0000
50.0939 10.8591 3.0337 1.0000
50.0939 11.3304 3.0397 1.0000
50.0939 11.4879 3.0418 1.0000
50.0939 11.6456 3.0439 1.0000
50.0939 11.8036 3.0460 1.0000
50.0939 12.2787 3.0526 1.0000
50.0939 12.4376 3.0548 1.0000
50.0939 12.5966 3.0571 1.0000
50.0939 12.7560 3.0594 1.0000
50.0939 12.9155 3.0618 1.0000
50.0939 13.0754 3.0641 1.0000
50.0939 -13.1290 3.0649 1.0000
50.0939 -12.9691 3.0625 1.0000
50.0939 -12.8095 3.0602 1.0000
50.0939 -12.3319 3.0533 1.0000
50.0939 -12.1733 3.0511 1.0000
50.0939 -12.0148 3.0489 1.0000
50.0939 -11.5408 3.0425 1.0000
50.0939 -11.2258 3.0383 1.0000
50.0939 -9.8187 3.0212 1.0000
50.0939 -9.5081 3.0177 1.0000
50.0939 -9.3530 3.0160 1.0000
50.0939 -9.1982 3.0144 1.0000
50.0939 -9.0435 3.0127 1.0000
50.0939 -8.8889 3.0111 1.0000
50.0939 -8.4263 3.0065 1.0000
50.0939 -8.2725 3.0050 1.0000
50.0939 -7.9651 3.0020 1.0000
50.0939 -7.8117 3.0006 1.0000
50.0939 -7.6583 2.9992 1.0000
50.0939 -7.5052 2.9979 1.0000
50.0938 -7.3521 2.9966 1.0000
50.0938 -7.1993 2.9953 1.0000
50.0938 -7.0465 2.9940 1.0000
50.0938 -5.6771 2.9838 1.0000
50.0938 -5.3740 2.9818 1.0000
50.0938 -5.2225 2.9809 1.0000
50.0938 -5.0712 2.9800 1.0000
25.0527 -2.3850 1.4894 1.0000
25.0523 -2.3095 1.4890 1.0000
25.0513 -2.0830 1.4878 1.0000
25.0510 -2.0076 1.4874 1.0000
25.0506 -1.9322 1.4870 1.0000
25.0504 -1.8568 1.4867 1.0000
25.0500 -1.7816 1.4863 1.0000
25.0536 -1.5562 1.4857 1.0000
25.0546 -1.4810 1.4854 1.0000
25.0545 -1.4059 1.4852 1.0000
25.0534 -1.2557 1.4846 1.0000
25.0522 -1.1055 1.4842 1.0000
25.0516 -1.0305 1.4839 1.0000
25.0509 -0.9554 1.4837 1.0000
25.0515 -0.8805 1.4836 1.0000
25.0527 -0.8056 1.4835 1.0000
25.0541 -0.7307 1.4834 1.0000
25.0566 -0.5808 1.4834 1.0000
25.0602 -0.2812 1.4833 1.0000
25.0609 -0.1314 1.4832 1.0000
25.0613 -0.0564 1.4832 1.0000
25.0617 0.0184 1.4833 1.0000
25.0620 0.0934 1.4833 1.0000
25.0628 0.2432 1.4834 1.0000
25.0632 0.3181 1.4835 1.0000
25.0636 0.3930 1.4836 1.0000
25.0639 0.4680 1.4837 1.0000
25.0643 0.5429 1.4838 1.0000
25.0647 0.6179 1.4839 1.0000
50.0939 1.8345 2.9668 1.0000
50.0939 1.9845 2.9671 1.0000
50.0939 2.5847 2.9687 1.0000
50.0939 2.7348 2.9692 1.0000
50.0939 2.8850 2.9697 1.0000
50.0939 3.1856 2.9708 1.0000
50.0939 3.3359 2.9714 1.0000
50.0939 3.4864 2.9720 1.0000
50.0939 3.7874 2.9733 1.0000
50.0939 4.0887 2.9747 1.0000
50.0939 4.2395 2.9754 1.0000
50.0939 4.3904 2.9762 1.0000
50.0939 4.6923 2.9778 1.0000
50.0938 6.5641 2.1346 1.0000
50.0938 6.7165 2.1354 1.0000
50.0938 6.8689 2.1363 1.0000
50.0938 7.0216 2.1372 1.0000
50.0938 7.7866 2.1419 1.0000
50.0938 8.0936 2.1440 1.0000
50.0938 8.2473 2.1450 1.0000
50.0938 8.5552 2.1472 1.0000
50.0938 8.7094 2.1483 1.0000
50.0938 8.8637 2.1494 1.0000
50.0938 9.0182 2.1505 1.0000
50.0938 9.1729 2.1517 1.0000
50.0938 9.3278 2.1529 1.0000
50.0938 9.9489 2.1578 1.0000
50.0938 10.1046 2.1591 1.0000
50.0938 10.7294 2.1645 1.0000
50.0938 11.0430 2.1673 1.0000
50.0938 11.2002 2.1688 1.0000
50.0938 11.3575 2.1702 1.0000
50.0938 11.5150 2.1717 1.0000
50.0938 11.8307 2.1747 1.0000
50.0938 11.9889 2.1763 1.0000
50.0938 12.3060 2.1794 1.0000
50.0938 12.6240 2.1827 1.0000
50.0938 13.1029 2.1877 1.0000
50.0938 13.2630 2.1894 1.0000
50.0939 -13.4219 2.1912 1.0000
50.0939 -13.2616 2.1894 1.0000
50.0939 -12.7820 2.1843 1.0000
50.0939 -12.4635 2.1810 1.0000
50.0939 -12.1460 2.1778 1.0000
50.0939 -11.8294 2.1747 1.0000
50.0939 -11.5137 2.1717 1.0000
50.0939 -11.3561 2.1702 1.0000
50.0939 -10.8848 2.1659 1.0000
50.0939 -10.5716 2.1631 1.0000
50.0939 -10.2591 2.1604 1.0000
50.0939 -9.7920 2.1566 1.0000
50.0939 -9.6366 2.1553 1.0000
50.0938 -9.4814 2.1541 1.0000
50.0939 -9.1716 2.1517 1.0000
50.0939 -8.7081 2.1482 1.0000
50.0939 -8.5539 2.1471 1.0000
50.0939 -8.3998 2.1460 1.0000
50.0939 -8.2460 2.1450 1.0000
50.0939 -7.9387 2.1429 1.0000
