ply
format ascii 1.0
element vertex 1592
property float32 x
property float32 y
property float32 z
property float32 I
end_header
50.0941 -12.0705 13.8068 1.0000
50.0941 -11.9122 13.7970 1.0000
50.0941 -11.7541 13.7872 1.0000
50.0941 -11.2811 13.7588 1.0000
50.0941 -10.9668 13.7406 1.0000
50.0941 -10.6534 13.7229 1.0000
50.0941 -10.4969 13.7142 1.0000
50.0941 -10.1846 13.6973 1.0000
50.0941 -10.0287 13.6890 1.0000
50.0941 -9.7176 13.6729 1.0000
50.0941 -9.2522 13.6497 1.0000
50.0941 -8.9428 13.6349 1.0000
50.0941 -8.7884 13.6277 1.0000
50.0941 -8.3260 13.6068 1.0000
50.0941 -8.0185 13.5935 1.0000
50.0941 -7.8650 13.5871 1.0000
50.0941 -7.5584 13.5746 1.0000
50.0941 -7.4052 13.5685 1.0000
50.0940 -6.9467 13.5511 1.0000
50.0941 -6.4894 13.5348 1.0000
50.0941 -6.0331 13.5196 1.0000
50.0941 -5.8812 13.5149 1.0000
50.0941 -5.7295 13.5102 1.0000
50.0941 -5.5778 13.5056 1.0000
50.0941 -5.2748 13.4969 1.0000
50.0941 -4.9721 13.4886 1.0000
50.0941 -4.8209 13.4847 1.0000
50.0941 -4.6698 13.4809 1.0000
50.0941 -4.3679 13.4736 1.0000
50.0941 -4.2170 13.4701 1.0000
50.0941 -4.0662 13.4668 1.0000
50.0941 -3.9155 13.4636 1.0000
50.0941 -3.6143 13.4575 1.0000
50.0941 -3.4638 13.4547 1.0000
50.0941 -3.3134 13.4520 1.0000
50.0941 -3.1630 13.4494 1.0000
50.0941 -3.0127 13.4469 1.0000
50.0941 -2.8624 13.4445 1.0000
50.0941 -2.7121 13.4423 1.0000
50.0941 -2.5620 13.4402 1.0000
50.0941 -2.4118 13.4382 1.0000
50.0941 -2.1117 13.4346 1.0000
50.0941 -1.9617 13.4329 1.0000
50.0941 -1.8118 13.4314 1.0000
50.0941 -1.3620 13.4276 1.0000
50.0941 -0.7627 13.4242 1.0000
50.0941 -0.4632 13.4232 1.0000
50.0941 -0.3134 13.4229 1.0000
50.0941 -0.0139 13.4227 1.0000
50.0941 0.1359 13.4227 1.0000
50.0941 0.8848 13.4248 1.0000
50.0941 1.0346 13.4255 1.0000
50.0941 1.1844 13.4264 1.0000
50.0941 1.3343 13.4274 1.0000
50.0941 1.6340 13.4298 1.0000
50.0941 1.7840 13.4312 1.0000
50.0941 1.9339 13.4327 1.0000
50.0941 2.0839 13.4343 1.0000
50.0941 2.5342 13.4398 1.0000
50.0941 2.6843 13.4419 1.0000
50.0941 2.8346 13.4441 1.0000
50.0941 2.9848 13.4465 1.0000
50.0941 3.2855 13.4515 1.0000
50.0941 3.4359 13.4542 1.0000
50.0941 3.5864 13.4570 1.0000
50.0941 3.7370 13.4600 1.0000
50.0941 3.8876 13.4630 1.0000
50.0941 4.3400 13.4729 1.0000
50.0941 4.6418 13.4802 1.0000
50.0941 4.9441 13.4879 1.0000
50.0941 5.2468 13.4961 1.0000
50.0941 5.3982 13.5004 1.0000
50.0941 5.7014 13.5093 1.0000
50.0941 6.1570 13.5237 1.0000
50.0941 -9.5400 12.7448 1.0000
50.0941 -9.3849 12.7376 1.0000
50.0941 -9.0752 12.7236 1.0000
50.0941 -8.9206 12.7168 1.0000
50.0941 -8.6119 12.7035 1.0000
50.0941 -8.4578 12.6970 1.0000
50.0941 -8.3038 12.6907 1.0000
50.0941 -8.1500 12.6844 1.0000
50.0941 -7.8429 12.6723 1.0000
50.0941 -7.5363 12.6607 1.0000
50.0940 -7.3832 12.6551 1.0000
50.0940 -7.2303 12.6495 1.0000
50.0940 -6.7722 12.6337 1.0000
50.0940 -6.6198 12.6286 1.0000
50.0940 -6.4675 12.6237 1.0000
50.0940 -6.1632 12.6142 1.0000
50.0940 -6.0112 12.6096 1.0000
50.0940 -5.8594 12.6052 1.0000
50.0940 -5.7076 12.6008 1.0000
50.0940 -5.4044 12.5925 1.0000
50.0940 -4.3461 12.5668 1.0000
50.0940 -4.1953 12.5636 1.0000
50.0940 -3.7432 12.5547 1.0000
50.0940 -3.5926 12.5519 1.0000
50.0940 -3.4421 12.5493 1.0000
50.0940 -2.9910 12.5421 1.0000
50.0940 -2.8407 12.5399 1.0000
50.0941 -1.9402 12.5292 1.0000
50.0941 -1.7901 12.5278 1.0000
50.0941 -1.6402 12.5265 1.0000
50.0941 -1.4903 12.5253 1.0000
50.0941 -1.3404 12.5243 1.0000
50.0941 -1.1906 12.5233 1.0000
50.0941 -0.8909 12.5218 1.0000
50.0941 -0.7411 12.5212 1.0000
50.0941 -0.5914 12.5207 1.0000
50.0941 -0.4416 12.5203 1.0000
50.0941 -0.2918 12.5200 1.0000
50.0941 -0.1420 12.5199 1.0000
50.0941 0.3072 12.5200 1.0000
50.0941 0.6068 12.5207 1.0000
50.0941 1.0562 12.5226 1.0000
50.0941 1.2059 12.5234 1.0000
50.0941 1.5057 12.5254 1.0000
50.0941 1.6556 12.5266 1.0000
50.0941 1.8055 12.5279 1.0000
50.0941 2.1055 12.5309 1.0000
50.0941 2.2555 12.5325 1.0000
50.0941 2.5558 12.5361 1.0000
50.0941 2.7060 12.5381 1.0000
50.0941 2.8562 12.5401 1.0000
50.0941 3.0065 12.5423 1.0000
50.0941 3.1568 12.5446 1.0000
50.0941 3.9093 12.5579 1.0000
50.0941 4.0600 12.5609 1.0000
50.0941 4.3616 12.5672 1.0000
50.0941 4.8147 12.5775 1.0000
50.0941 4.9659 12.5812 1.0000
50.0941 5.4200 12.5929 1.0000
50.0941 5.5716 12.5970 1.0000
50.0941 5.7232 12.6012 1.0000
50.0941 7.0932 12.6447 1.0000
50.0941 7.3989 12.6556 1.0000
50.0941 7.5520 12.6613 1.0000
50.0941 7.7053 12.6670 1.0000
50.0941 7.8587 12.6729 1.0000
50.0941 8.1658 12.6851 1.0000
50.0941 8.4736 12.6977 1.0000
50.0941 8.6277 12.7041 1.0000
50.0941 8.9364 12.7175 1.0000
50.0941 9.0911 12.7243 1.0000
50.0941 9.2459 12.7313 1.0000
50.0941 9.7112 12.7529 1.0000
50.0941 9.8666 12.7603 1.0000
50.0941 10.0223 12.7679 1.0000
50.0941 10.1782 12.7756 1.0000
50.0941 10.3342 12.7834 1.0000
50.0941 10.6468 12.7995 1.0000
50.0941 10.9603 12.8160 1.0000
50.0941 11.1173 12.8244 1.0000
50.0941 11.2746 12.8330 1.0000
50.0941 11.4320 12.8417 1.0000
50.0941 11.5897 12.8505 1.0000
50.0941 11.7476 12.8595 1.0000
50.0941 11.9057 12.8685 1.0000
50.0941 12.0640 12.8778 1.0000
50.0941 12.5404 12.9061 1.0000
50.0941 12.6996 12.9159 1.0000
50.0941 13.0189 12.9357 1.0000
50.0941 13.1789 12.9458 1.0000
50.0941 13.3391 12.9561 1.0000
50.0941 -13.1855 12.9462 1.0000
50.0941 -13.0255 12.9361 1.0000
50.0941 -12.8657 12.9261 1.0000
50.0941 -12.7062 12.9163 1.0000
50.0941 -12.2291 12.8875 1.0000
50.0941 -11.7541 12.8598 1.0000
50.0941 -11.5962 12.8509 1.0000
50.0941 -10.9668 12.8163 1.0000
50.0941 -10.8100 12.8080 1.0000
50.0941 -10.6533 12.7998 1.0000
50.0941 -10.4969 12.7917 1.0000
50.0941 -10.3407 12.7838 1.0000
50.0941 -10.0288 12.7682 1.0000
50.0941 -9.8731 12.7607 1.0000
50.0941 -9.7176 12.7532 1.0000
50.0941 -9.5623 12.7459 1.0000
50.0941 -8.9428 12.7177 1.0000
50.0941 -8.7884 12.7110 1.0000
50.0941 -8.3260 12.6916 1.0000
50.0940 -7.4052 12.6559 1.0000
50.0940 -7.0995 12.6449 1.0000
50.0940 -5.8812 12.6058 1.0000
50.0940 -5.5778 12.5972 1.0000
50.0940 -5.4262 12.5930 1.0000
50.0940 -5.1234 12.5851 1.0000
50.0940 -4.8209 12.5776 1.0000
50.0940 -4.6698 12.5741 1.0000
50.0940 -4.5188 12.5706 1.0000
50.0940 -4.0662 12.5610 1.0000
50.0940 -3.9155 12.5580 1.0000
50.0940 -3.4638 12.5497 1.0000
50.0940 -2.5620 12.5362 1.0000
50.0941 -2.4118 12.5343 1.0000
50.0941 -2.1117 12.5309 1.0000
50.0941 -1.8118 12.5280 1.0000
50.0941 -1.2121 12.5235 1.0000
50.0941 -1.0623 12.5226 1.0000
50.0941 -0.9125 12.5219 1.0000
50.0941 -0.4631 12.5203 1.0000
50.0941 -0.1636 12.5199 1.0000
50.0941 0.1359 12.5198 1.0000
50.0941 0.4354 12.5203 1.0000
50.0941 0.5852 12.5206 1.0000
50.0941 0.7350 12.5211 1.0000
50.0941 0.8848 12.5218 1.0000
50.0941 1.1844 12.5233 1.0000
50.0941 1.4841 12.5253 1.0000
50.0941 2.0839 12.5306 1.0000
50.0941 2.2340 12.5322 1.0000
50.0941 2.3841 12.5340 1.0000
50.0941 2.5342 12.5358 1.0000
50.0941 2.6843 12.5378 1.0000
50.0941 2.8346 12.5398 1.0000
50.0941 2.9848 12.5420 1.0000
50.0941 3.2855 12.5467 1.0000
50.0941 3.4359 12.5492 1.0000
50.0941 3.5864 12.5519 1.0000
50.0941 3.7370 12.5546 1.0000
50.0941 4.1891 12.5635 1.0000
50.0941 4.3399 12.5667 1.0000
50.0941 4.4909 12.5700 1.0000
50.0941 4.9441 12.5806 1.0000
50.0941 5.0954 12.5844 1.0000
50.0941 5.7014 12.6006 1.0000
50.0941 5.8531 12.6050 1.0000
50.0941 6.0050 12.6094 1.0000
50.0941 -9.5400 11.8335 1.0000
50.0941 -9.2300 11.8202 1.0000
50.0941 -9.0752 11.8138 1.0000
50.0941 -8.6119 11.7951 1.0000
50.0941 -8.4578 11.7891 1.0000
50.0941 -8.3039 11.7832 1.0000
50.0941 -8.1501 11.7774 1.0000
50.0941 -7.5363 11.7554 1.0000
50.0941 -7.3832 11.7501 1.0000
50.0940 -6.6198 11.7256 1.0000
50.0940 -6.4675 11.7210 1.0000
50.0941 -6.1632 11.7122 1.0000
50.0940 -5.5560 11.6958 1.0000
50.0940 -5.4044 11.6920 1.0000
50.0940 -5.1016 11.6847 1.0000
50.0940 -4.9504 11.6812 1.0000
50.0940 -4.6481 11.6745 1.0000
50.0940 -4.1953 11.6652 1.0000
50.0940 -3.8938 11.6596 1.0000
50.0940 -3.5927 11.6544 1.0000
50.0940 -3.4422 11.6519 1.0000
50.0940 -3.1413 11.6474 1.0000
50.0940 -2.8407 11.6432 1.0000
50.0940 -2.5404 11.6395 1.0000
50.0940 -2.3902 11.6378 1.0000
50.0940 -2.2402 11.6362 1.0000
50.0940 -2.0902 11.6346 1.0000
50.0940 -1.7902 11.6320 1.0000
50.0940 -1.6402 11.6308 1.0000
50.0941 -1.4904 11.6297 1.0000
50.0941 -1.3405 11.6287 1.0000
50.0941 -1.1906 11.6278 1.0000
50.0940 -1.0407 11.6270 1.0000
50.0941 -0.7412 11.6258 1.0000
50.0940 -0.5914 11.6254 1.0000
50.0940 -0.4416 11.6250 1.0000
50.0940 -0.2918 11.6247 1.0000
50.0940 -0.1421 11.6246 1.0000
50.0941 0.0077 11.6245 1.0000
50.0940 0.1575 11.6246 1.0000
50.0940 0.3072 11.6248 1.0000
50.0940 0.7565 11.6259 1.0000
50.0941 0.9063 11.6264 1.0000
50.0940 1.0561 11.6271 1.0000
50.0941 1.3558 11.6288 1.0000
50.0940 1.6556 11.6309 1.0000
50.0941 1.9555 11.6334 1.0000
50.0940 2.1055 11.6348 1.0000
50.0940 2.2556 11.6363 1.0000
50.0941 2.5557 11.6397 1.0000
50.0941 2.8561 11.6434 1.0000
50.0940 3.0064 11.6455 1.0000
50.0940 3.3071 11.6498 1.0000
50.0940 3.7587 11.6572 1.0000
50.0940 3.9093 11.6599 1.0000
50.0940 4.2108 11.6655 1.0000
50.0940 4.3616 11.6685 1.0000
50.0940 4.6636 11.6748 1.0000
50.0941 4.8147 11.6781 1.0000
50.0941 5.1172 11.6850 1.0000
50.0941 5.2685 11.6887 1.0000
50.0941 5.5716 11.6962 1.0000
50.0941 5.7232 11.7002 1.0000
50.0941 6.4831 11.7215 1.0000
50.0941 6.6355 11.7261 1.0000
50.0941 7.0932 11.7405 1.0000
50.0941 7.2460 11.7455 1.0000
50.0941 7.3990 11.7507 1.0000
50.0941 7.5520 11.7559 1.0000
50.0941 8.0122 11.7723 1.0000
50.0941 8.6277 11.7957 1.0000
50.0941 8.9365 11.8081 1.0000
50.0941 9.4008 11.8275 1.0000
50.0941 9.5559 11.8342 1.0000
50.0941 9.8667 11.8479 1.0000
50.0941 10.0223 11.8549 1.0000
50.0941 10.1782 11.8621 1.0000
50.0941 10.3342 11.8693 1.0000
50.0941 10.4905 11.8767 1.0000
50.0941 10.6469 11.8842 1.0000
50.0941 10.8035 11.8918 1.0000
50.0941 11.1173 11.9074 1.0000
50.0941 11.9057 11.9484 1.0000
50.0941 12.3814 11.9743 1.0000
50.0941 12.5404 11.9833 1.0000
50.0941 13.0189 12.0107 1.0000
50.0941 13.3391 12.0296 1.0000
50.0941 -13.3458 12.0300 1.0000
50.0941 -13.0255 12.0111 1.0000
50.0941 -12.8657 12.0018 1.0000
50.0941 -12.2291 11.9659 1.0000
50.0941 -12.0705 11.9573 1.0000
50.0941 -11.4385 11.9238 1.0000
50.0941 -11.2811 11.9157 1.0000
50.0941 -10.4969 11.8770 1.0000
50.0941 -10.3407 11.8696 1.0000
50.0941 -9.7177 11.8413 1.0000
50.0941 -9.4072 11.8277 1.0000
50.0941 -9.0974 11.8147 1.0000
50.0941 -8.9429 11.8083 1.0000
50.0941 -8.7884 11.8021 1.0000
50.0941 -8.4800 11.7899 1.0000
50.0941 -8.3260 11.7840 1.0000
50.0941 -8.1722 11.7782 1.0000
50.0941 -7.8650 11.7670 1.0000
50.0941 -7.7116 11.7615 1.0000
50.0941 -6.9468 11.7358 1.0000
50.0940 -6.7942 11.7310 1.0000
50.0940 -6.4894 11.7217 1.0000
50.0940 -6.3372 11.7172 1.0000
50.0941 -6.1851 11.7128 1.0000
50.0941 -5.8812 11.7044 1.0000
50.0941 -5.7295 11.7003 1.0000
50.0940 -5.5778 11.6964 1.0000
50.0940 -4.6698 11.6749 1.0000
50.0940 -4.3679 11.6686 1.0000
50.0940 -4.2170 11.6657 1.0000
50.0940 -4.0662 11.6628 1.0000
50.0940 -3.9155 11.6600 1.0000
50.0940 -3.6143 11.6548 1.0000
50.0940 -3.4638 11.6523 1.0000
50.0940 -3.1630 11.6477 1.0000
50.0940 -2.4119 11.6380 1.0000
50.0941 -2.2618 11.6364 1.0000
50.0940 -2.1118 11.6349 1.0000
50.0941 -1.9617 11.6334 1.0000
50.0940 -1.8118 11.6321 1.0000
50.0941 -1.3620 11.6288 1.0000
50.0940 -1.2122 11.6279 1.0000
50.0940 -1.0623 11.6272 1.0000
50.0941 -0.7627 11.6259 1.0000
50.0941 -0.4632 11.6250 1.0000
50.0940 0.1359 11.6246 1.0000
50.0940 0.2857 11.6247 1.0000
50.0941 0.4354 11.6250 1.0000
50.0941 0.5852 11.6253 1.0000
50.0940 0.7350 11.6258 1.0000
50.0940 1.0346 11.6270 1.0000
50.0940 1.1844 11.6278 1.0000
50.0941 1.4841 11.6296 1.0000
50.0941 1.6340 11.6307 1.0000
50.0940 1.7839 11.6319 1.0000
50.0940 1.9339 11.6332 1.0000
50.0941 2.3840 11.6377 1.0000
50.0940 2.5342 11.6394 1.0000
50.0940 2.6843 11.6412 1.0000
50.0941 2.8345 11.6431 1.0000
50.0940 3.1351 11.6473 1.0000
50.0940 3.5864 11.6543 1.0000
50.0940 3.7370 11.6568 1.0000
50.0940 3.8876 11.6595 1.0000
50.0940 4.0383 11.6623 1.0000
50.0940 4.3399 11.6681 1.0000
50.0940 4.4908 11.6712 1.0000
50.0940 4.6418 11.6743 1.0000
50.0941 4.9441 11.6810 1.0000
50.0941 5.0954 11.6845 1.0000
50.0941 5.3982 11.6918 1.0000
50.0941 5.7014 11.6996 1.0000
50.0941 5.8531 11.7036 1.0000
50.0941 -9.5399 10.9292 1.0000
50.0941 -9.3848 10.9231 1.0000
50.0941 -9.2299 10.9170 1.0000
50.0941 -8.9205 10.9052 1.0000
50.0941 -8.4578 10.8882 1.0000
50.0941 -8.1500 10.8774 1.0000
50.0941 -7.9964 10.8722 1.0000
50.0941 -7.8429 10.8671 1.0000
50.0941 -7.6895 10.8620 1.0000
50.0941 -7.5363 10.8571 1.0000
50.0940 -7.2303 10.8475 1.0000
50.0940 -7.0775 10.8429 1.0000
50.0940 -6.6198 10.8296 1.0000
50.0939 -6.3153 10.8213 1.0000
50.0939 -6.1632 10.8172 1.0000
50.0940 -6.0113 10.8133 1.0000
50.0939 -5.8593 10.8095 1.0000
50.0940 -5.1016 10.7918 1.0000
50.0939 -4.9504 10.7886 1.0000
50.0939 -4.7992 10.7854 1.0000
50.0940 -4.3462 10.7766 1.0000
50.0939 -4.0445 10.7712 1.0000
50.0940 -3.8938 10.7687 1.0000
50.0939 -3.7432 10.7662 1.0000
50.0939 -3.4421 10.7616 1.0000
50.0940 -3.2917 10.7594 1.0000
50.0940 -2.8407 10.7535 1.0000
50.0941 -2.6905 10.7517 1.0000
50.0940 -2.5404 10.7501 1.0000
50.0940 -2.2402 10.7470 1.0000
50.0939 -2.0901 10.7456 1.0000
50.0940 -1.7902 10.7431 1.0000
50.0941 -1.6402 10.7420 1.0000
50.0940 -1.3405 10.7401 1.0000
50.0941 -1.1906 10.7393 1.0000
50.0940 -1.0408 10.7386 1.0000
50.0940 -0.8909 10.7380 1.0000
50.0940 -0.7412 10.7374 1.0000
50.0941 -0.5914 10.7370 1.0000
50.0941 -0.2919 10.7364 1.0000
50.0941 0.6067 10.7371 1.0000
50.0940 0.9063 10.7380 1.0000
50.0940 1.0562 10.7387 1.0000
50.0940 1.3559 10.7402 1.0000
50.0941 1.5057 10.7411 1.0000
50.0940 1.6556 10.7421 1.0000
50.0940 1.9555 10.7444 1.0000
50.0941 2.1055 10.7458 1.0000
50.0940 2.2556 10.7471 1.0000
50.0941 2.5558 10.7502 1.0000
50.0941 2.7059 10.7519 1.0000
50.0940 2.8562 10.7537 1.0000
50.0941 3.3071 10.7596 1.0000
50.0941 3.7586 10.7664 1.0000
50.0941 4.3616 10.7769 1.0000
50.0941 4.8146 10.7857 1.0000
50.0941 5.1171 10.7921 1.0000
50.0941 5.4199 10.7989 1.0000
50.0940 5.8750 10.8099 1.0000
50.0941 6.3309 10.8217 1.0000
50.0941 6.6354 10.8300 1.0000
50.0941 7.2459 10.8480 1.0000
50.0941 7.3989 10.8527 1.0000
50.0941 8.0121 10.8727 1.0000
50.0941 8.1658 10.8780 1.0000
50.0940 8.3196 10.8833 1.0000
50.0941 8.4736 10.8888 1.0000
50.0940 8.6277 10.8943 1.0000
50.0941 8.9364 10.9058 1.0000
50.0940 9.0911 10.9116 1.0000
50.0941 9.2458 10.9176 1.0000
50.0941 9.4007 10.9237 1.0000
50.0940 10.8035 10.9831 1.0000
50.0940 10.9604 10.9902 1.0000
50.0940 11.2746 11.0048 1.0000
50.0941 11.4320 11.0123 1.0000
50.0941 11.5897 11.0199 1.0000
50.0941 11.7476 11.0275 1.0000
50.0940 11.9057 11.0353 1.0000
50.0940 12.0640 11.0432 1.0000
50.0941 12.2225 11.0512 1.0000
50.0941 12.5404 11.0676 1.0000
50.0941 12.6996 11.0759 1.0000
50.0940 13.1789 11.1016 1.0000
50.0941 -12.8657 11.0847 1.0000
50.0941 -12.7062 11.0763 1.0000
50.0941 -12.3879 11.0597 1.0000
50.0941 -12.0705 11.0436 1.0000
50.0941 -11.9122 11.0357 1.0000
50.0941 -11.4385 11.0126 1.0000
50.0941 -11.2811 11.0052 1.0000
50.0941 -10.9668 10.9905 1.0000
50.0941 -10.8099 10.9834 1.0000
50.0941 -10.6533 10.9764 1.0000
50.0941 -10.4969 10.9695 1.0000
50.0941 -10.1846 10.9559 1.0000
50.0941 -10.0287 10.9493 1.0000
50.0941 -9.8731 10.9428 1.0000
50.0941 -9.7176 10.9364 1.0000
50.0941 -8.7884 10.9003 1.0000
50.0941 -8.4799 10.8890 1.0000
50.0941 -8.3259 10.8836 1.0000
50.0941 -8.1721 10.8782 1.0000
50.0941 -7.8650 10.8678 1.0000
50.0941 -7.7116 10.8628 1.0000
50.0941 -7.5584 10.8578 1.0000
50.0940 -7.4052 10.8529 1.0000
50.0940 -7.2523 10.8482 1.0000
50.0939 -7.0995 10.8435 1.0000
50.0940 -6.6418 10.8302 1.0000
50.0939 -6.4894 10.8260 1.0000
50.0939 -6.0331 10.8138 1.0000
50.0940 -5.8812 10.8100 1.0000
50.0940 -5.2748 10.7956 1.0000
50.0939 -5.1234 10.7923 1.0000
50.0940 -4.9721 10.7890 1.0000
50.0940 -4.6698 10.7828 1.0000
50.0940 -4.5188 10.7799 1.0000
50.0940 -4.3679 10.7770 1.0000
50.0939 -3.6143 10.7642 1.0000
50.0939 -3.4638 10.7619 1.0000
50.0939 -3.3134 10.7597 1.0000
50.0941 -2.7121 10.7520 1.0000
50.0939 -2.5620 10.7503 1.0000
50.0941 -2.4119 10.7487 1.0000
50.0940 -2.2618 10.7472 1.0000
50.0941 -1.9617 10.7445 1.0000
50.0940 -1.5119 10.7412 1.0000
50.0941 -1.3620 10.7402 1.0000
50.0940 -0.9125 10.7380 1.0000
50.0940 -0.7627 10.7375 1.0000
50.0941 -0.3134 10.7365 1.0000
50.0940 -0.1636 10.7363 1.0000
50.0941 0.1359 10.7363 1.0000
50.0941 0.4354 10.7367 1.0000
50.0940 0.5852 10.7370 1.0000
50.0940 0.8848 10.7379 1.0000
50.0941 1.4841 10.7410 1.0000
50.0941 2.2339 10.7469 1.0000
50.0940 2.3841 10.7484 1.0000
50.0941 2.5341 10.7500 1.0000
50.0940 2.8345 10.7534 1.0000
50.0941 2.9848 10.7553 1.0000
50.0941 3.2855 10.7593 1.0000
50.0940 3.5864 10.7638 1.0000
50.0941 3.8876 10.7686 1.0000
50.0941 4.0383 10.7711 1.0000
50.0940 4.3399 10.7765 1.0000
50.0940 4.6418 10.7823 1.0000
50.0941 5.5497 10.8020 1.0000
50.0940 5.7013 10.8056 1.0000
50.0941 5.8531 10.8093 1.0000
50.0940 6.0050 10.8131 1.0000
50.0941 -9.3848 10.0259 1.0000
50.0940 -9.2299 10.0203 1.0000
50.0940 -8.7662 10.0042 1.0000
50.0941 -8.4578 9.9939 1.0000
50.0941 -8.1501 9.9840 1.0000
50.0940 -7.9964 9.9792 1.0000
50.0940 -7.5363 9.9653 1.0000
50.0939 -7.3833 9.9609 1.0000
50.0939 -7.0775 9.9523 1.0000
50.0939 -6.9248 9.9481 1.0000
50.0939 -6.7722 9.9440 1.0000
50.0939 -6.6198 9.9401 1.0000
50.0939 -6.4675 9.9362 1.0000
50.0939 -6.3153 9.9324 1.0000
50.0939 -6.1632 9.9287 1.0000
50.0939 -6.0113 9.9251 1.0000
50.0939 -5.8594 9.9216 1.0000
50.0939 -5.4044 9.9116 1.0000
50.0939 -5.1016 9.9054 1.0000
50.0939 -4.7991 9.8995 1.0000
50.0939 -4.3461 9.8914 1.0000
50.0939 -4.1953 9.8889 1.0000
50.0939 -4.0445 9.8865 1.0000
50.0939 -3.7432 9.8819 1.0000
50.0939 -3.2917 9.8757 1.0000
50.0939 -2.9910 9.8720 1.0000
50.0939 -2.8407 9.8702 1.0000
50.0939 -2.2402 9.8643 1.0000
50.0940 -1.7901 9.8607 1.0000
50.0940 -1.4903 9.8588 1.0000
50.0940 -1.1905 9.8572 1.0000
50.0940 -1.0407 9.8565 1.0000
50.0940 -0.7411 9.8555 1.0000
50.0940 -0.4416 9.8548 1.0000
50.0940 -0.2918 9.8546 1.0000
50.0940 -0.1420 9.8544 1.0000
50.0940 0.0077 9.8544 1.0000
50.0940 0.1575 9.8545 1.0000
50.0940 0.3072 9.8546 1.0000
50.0940 0.9064 9.8560 1.0000
50.0940 1.0562 9.8566 1.0000
50.0940 1.2060 9.8573 1.0000
50.0940 1.3559 9.8580 1.0000
50.0940 1.5057 9.8589 1.0000
50.0940 2.2556 9.8644 1.0000
50.0940 2.4057 9.8658 1.0000
50.0940 2.5558 9.8672 1.0000
50.0940 2.8562 9.8704 1.0000
50.0940 3.0065 9.8721 1.0000
50.0940 3.6081 9.8799 1.0000
50.0940 3.7587 9.8821 1.0000
50.0940 4.2108 9.8892 1.0000
50.0940 4.5126 9.8943 1.0000
50.0940 4.6636 9.8970 1.0000
50.0940 4.8147 9.8998 1.0000
50.0940 4.9659 9.9027 1.0000
50.0940 5.1172 9.9057 1.0000
50.0940 5.2685 9.9088 1.0000
50.0940 5.4200 9.9119 1.0000
50.0940 5.7232 9.9185 1.0000
50.0940 5.8750 9.9219 1.0000
50.0940 6.0269 9.9255 1.0000
50.0940 6.3309 9.9328 1.0000
50.0940 6.4831 9.9366 1.0000
50.0940 6.6355 9.9405 1.0000
50.0940 7.0931 9.9527 1.0000
50.0940 7.2460 9.9570 1.0000
50.0940 7.3989 9.9613 1.0000
50.0940 7.5520 9.9658 1.0000
50.0940 8.1658 9.9845 1.0000
50.0940 8.3196 9.9894 1.0000
50.0940 9.0911 10.0154 1.0000
50.0940 9.2458 10.0209 1.0000
50.0941 9.5559 10.0321 1.0000
50.0941 10.0223 10.0497 1.0000
50.0941 10.3342 10.0619 1.0000
50.0941 10.6469 10.0745 1.0000
50.0941 10.9603 10.0875 1.0000
50.0941 11.4320 10.1078 1.0000
50.0941 11.7475 10.1218 1.0000
50.0941 11.9057 10.1289 1.0000
50.0941 12.0640 10.1361 1.0000
50.0941 12.2226 10.1435 1.0000
50.0941 12.3813 10.1510 1.0000
50.0941 12.5404 10.1585 1.0000
50.0941 12.6996 10.1662 1.0000
50.0941 13.0189 10.1818 1.0000
50.0941 13.1789 10.1897 1.0000
50.0941 13.3391 10.1978 1.0000
50.0941 -12.3879 10.1513 1.0000
50.0940 -12.2291 10.1438 1.0000
50.0940 -11.9122 10.1292 1.0000
50.0940 -11.5962 10.1150 1.0000
50.0941 -11.4385 10.1081 1.0000
50.0940 -11.1238 10.0944 1.0000
50.0940 -10.9668 10.0878 1.0000
50.0940 -10.8099 10.0812 1.0000
50.0941 -10.0287 10.0500 1.0000
50.0941 -9.8731 10.0440 1.0000
50.0940 -9.5622 10.0323 1.0000
50.0940 -9.4072 10.0267 1.0000
50.0940 -9.2522 10.0211 1.0000
50.0940 -8.9428 10.0102 1.0000
50.0941 -8.7884 10.0049 1.0000
50.0940 -8.4800 9.9946 1.0000
50.0940 -8.1722 9.9847 1.0000
50.0940 -8.0185 9.9799 1.0000
50.0941 -7.8650 9.9751 1.0000
50.0941 -7.7116 9.9705 1.0000
50.0939 -6.9467 9.9487 1.0000
50.0939 -6.7942 9.9446 1.0000
50.0939 -6.6417 9.9406 1.0000
50.0939 -6.4894 9.9367 1.0000
50.0939 -6.3372 9.9329 1.0000
50.0939 -6.1851 9.9292 1.0000
50.0939 -6.0331 9.9256 1.0000
50.0939 -5.8812 9.9221 1.0000
50.0939 -5.7295 9.9186 1.0000
50.0939 -5.5778 9.9153 1.0000
50.0939 -5.2748 9.9089 1.0000
50.0939 -5.1234 9.9058 1.0000
50.0939 -4.9721 9.9028 1.0000
50.0939 -4.8209 9.8999 1.0000
50.0939 -4.5188 9.8944 1.0000
50.0939 -4.3679 9.8918 1.0000
50.0939 -3.9155 9.8845 1.0000
50.0939 -3.7648 9.8822 1.0000
50.0939 -3.6143 9.8800 1.0000
50.0939 -3.4638 9.8779 1.0000
50.0939 -3.1630 9.8740 1.0000
50.0939 -2.8623 9.8705 1.0000
50.0939 -2.7122 9.8688 1.0000
50.0939 -2.5620 9.8673 1.0000
50.0940 -2.2617 9.8644 1.0000
50.0940 -1.9617 9.8620 1.0000
50.0940 -1.8117 9.8608 1.0000
50.0940 -1.5119 9.8589 1.0000
50.0940 -1.3620 9.8580 1.0000
50.0940 -0.9125 9.8560 1.0000
50.0940 -0.6129 9.8551 1.0000
50.0940 -0.4631 9.8548 1.0000
50.0940 -0.3134 9.8546 1.0000
50.0940 -0.0138 9.8544 1.0000
50.0940 0.1359 9.8544 1.0000
50.0940 0.2857 9.8546 1.0000
50.0940 0.5852 9.8551 1.0000
50.0940 1.0346 9.8565 1.0000
50.0940 1.3343 9.8579 1.0000
50.0940 1.4841 9.8587 1.0000
50.0940 1.7840 9.8607 1.0000
50.0940 2.2340 9.8642 1.0000
50.0940 2.3841 9.8656 1.0000
50.0940 2.5342 9.8670 1.0000
50.0940 3.1352 9.8737 1.0000
50.0940 3.4359 9.8776 1.0000
50.0940 4.0383 9.8864 1.0000
50.0940 4.3399 9.8913 1.0000
50.0940 4.6419 9.8966 1.0000
50.0940 4.7929 9.8994 1.0000
50.0940 4.9441 9.9023 1.0000
50.0940 5.0954 9.9053 1.0000
50.0940 5.2467 9.9083 1.0000
50.0940 5.3982 9.9115 1.0000
50.0940 5.5497 9.9147 1.0000
50.0940 6.1570 9.9286 1.0000
50.0940 -9.0751 9.1245 1.0000
50.0940 -8.7661 9.1148 1.0000
50.0940 -7.8429 9.0878 1.0000
50.0940 -7.6895 9.0836 1.0000
50.0940 -7.5363 9.0794 1.0000
50.0939 -7.3832 9.0754 1.0000
50.0939 -7.2303 9.0714 1.0000
50.0939 -7.0775 9.0676 1.0000
50.0939 -6.6198 9.0564 1.0000
50.0939 -5.7077 9.0365 1.0000
50.0939 -5.4045 9.0305 1.0000
50.0939 -5.2530 9.0276 1.0000
50.0939 -4.9504 9.0221 1.0000
50.0939 -4.6481 9.0169 1.0000
50.0939 -4.3462 9.0121 1.0000
50.0939 -3.8939 9.0055 1.0000
50.0940 -3.5927 9.0015 1.0000
50.0939 -3.1414 8.9960 1.0000
50.0940 -2.9911 8.9944 1.0000
50.0939 -2.5404 8.9899 1.0000
50.0940 -2.0902 8.9862 1.0000
50.0940 -1.7902 8.9841 1.0000
50.0940 -1.6402 8.9832 1.0000
50.0940 -1.3404 8.9816 1.0000
50.0940 -1.1906 8.9809 1.0000
50.0940 -1.0407 8.9803 1.0000
50.0940 -0.8909 8.9798 1.0000
50.0940 -0.7411 8.9794 1.0000
50.0940 -0.2918 8.9785 1.0000
50.0940 0.1575 8.9784 1.0000
50.0940 0.4570 8.9788 1.0000
50.0940 0.9063 8.9799 1.0000
50.0940 1.2060 8.9810 1.0000
50.0940 1.3558 8.9817 1.0000
50.0940 1.5057 8.9824 1.0000
50.0940 1.8056 8.9842 1.0000
50.0940 1.9555 8.9852 1.0000
50.0940 2.4056 8.9887 1.0000
50.0940 2.5558 8.9901 1.0000
50.0940 2.7060 8.9915 1.0000
50.0940 2.8562 8.9930 1.0000
50.0940 3.1568 8.9962 1.0000
50.0940 3.3071 8.9979 1.0000
50.0940 3.9093 9.0057 1.0000
50.0940 4.0600 9.0078 1.0000
50.0940 4.3616 9.0124 1.0000
50.0940 4.5126 9.0147 1.0000
50.0940 4.8147 9.0198 1.0000
50.0940 4.9659 9.0224 1.0000
50.0940 5.1171 9.0251 1.0000
50.0940 6.3309 9.0498 1.0000
50.0940 6.6354 9.0568 1.0000
50.0940 6.7879 9.0604 1.0000
50.0940 6.9404 9.0642 1.0000
50.0940 7.0932 9.0680 1.0000
50.0940 7.5520 9.0798 1.0000
50.0940 7.8586 9.0882 1.0000
50.0940 8.1658 9.0969 1.0000
50.0940 8.3196 9.1014 1.0000
50.0940 8.4736 9.1059 1.0000
50.0940 8.9364 9.1201 1.0000
50.0940 9.0910 9.1250 1.0000
50.0940 9.2458 9.1300 1.0000
50.0940 9.5559 9.1403 1.0000
50.0940 9.7111 9.1455 1.0000
50.0940 9.8666 9.1509 1.0000
50.0940 10.0223 9.1563 1.0000
50.0940 10.1781 9.1618 1.0000
50.0940 10.3342 9.1675 1.0000
50.0940 11.2746 9.2030 1.0000
50.0940 11.5897 9.2156 1.0000
50.0940 11.9057 9.2285 1.0000
50.0940 12.0640 9.2351 1.0000
50.0940 12.3813 9.2486 1.0000
50.0940 12.6996 9.2624 1.0000
50.0940 12.8591 9.2695 1.0000
50.0940 13.0189 9.2766 1.0000
50.0941 -13.3457 9.2916 1.0000
50.0941 -13.1855 9.2842 1.0000
50.0941 -13.0255 9.2769 1.0000
50.0941 -12.3879 9.2489 1.0000
50.0941 -12.0705 9.2354 1.0000
50.0941 -11.4385 9.2095 1.0000
50.0940 -11.1238 9.1971 1.0000
50.0940 -10.1846 9.1621 1.0000
50.0940 -10.0287 9.1566 1.0000
50.0940 -9.7176 9.1458 1.0000
50.0940 -9.4072 9.1353 1.0000
50.0940 -9.2522 9.1303 1.0000
50.0940 -9.0974 9.1253 1.0000
50.0940 -8.6341 9.1108 1.0000
50.0940 -8.4799 9.1061 1.0000
50.0940 -8.1721 9.0971 1.0000
50.0940 -8.0185 9.0927 1.0000
50.0940 -7.8650 9.0884 1.0000
50.0940 -7.7116 9.0842 1.0000
50.0940 -7.5584 9.0800 1.0000
50.0939 -7.4053 9.0760 1.0000
50.0939 -7.0995 9.0681 1.0000
50.0939 -6.7942 9.0606 1.0000
50.0939 -6.4894 9.0534 1.0000
50.0939 -6.0332 9.0433 1.0000
50.0940 -5.7295 9.0369 1.0000
50.0939 -5.5779 9.0339 1.0000
50.0939 -5.4262 9.0309 1.0000
50.0939 -5.2748 9.0280 1.0000
50.0939 -5.1234 9.0252 1.0000
50.0939 -4.6698 9.0173 1.0000
50.0939 -4.3679 9.0125 1.0000
50.0939 -4.2170 9.0101 1.0000
50.0939 -3.6143 9.0017 1.0000
50.0939 -3.4638 8.9998 1.0000
50.0939 -3.3134 8.9980 1.0000
50.0939 -3.1630 8.9963 1.0000
50.0940 -2.5620 8.9901 1.0000
50.0939 -2.4119 8.9888 1.0000
50.0939 -2.2618 8.9875 1.0000
50.0940 -2.1117 8.9864 1.0000
50.0940 -1.8118 8.9843 1.0000
50.0940 -1.6618 8.9833 1.0000
50.0940 -1.5119 8.9825 1.0000
50.0940 -1.3620 8.9817 1.0000
50.0940 -1.0623 8.9804 1.0000
50.0940 -0.4632 8.9788 1.0000
50.0940 -0.3134 8.9786 1.0000
50.0940 -0.1636 8.9784 1.0000
50.0940 -0.0139 8.9784 1.0000
50.0940 0.1359 8.9784 1.0000
50.0940 0.4354 8.9787 1.0000
50.0940 0.5852 8.9790 1.0000
50.0940 0.7350 8.9794 1.0000
50.0940 0.8848 8.9798 1.0000
50.0940 1.0346 8.9803 1.0000
50.0940 1.1844 8.9809 1.0000
50.0940 1.3343 8.9816 1.0000
50.0940 1.4841 8.9823 1.0000
50.0940 1.6340 8.9832 1.0000
50.0940 2.2339 8.9873 1.0000
50.0940 2.3841 8.9886 1.0000
50.0940 2.5342 8.9899 1.0000
50.0940 2.6843 8.9913 1.0000
50.0940 2.8345 8.9927 1.0000
50.0940 2.9848 8.9943 1.0000
50.0940 3.1351 8.9960 1.0000
50.0940 3.2855 8.9977 1.0000
50.0940 3.4359 8.9995 1.0000
50.0940 3.5864 9.0014 1.0000
50.0940 3.7370 9.0033 1.0000
50.0940 3.8876 9.0054 1.0000
50.0940 4.0383 9.0075 1.0000
50.0940 4.1891 9.0097 1.0000
50.0940 4.9441 9.0220 1.0000
50.0940 5.0954 9.0247 1.0000
50.0940 5.2467 9.0275 1.0000
50.0940 5.3982 9.0304 1.0000
50.0940 5.5497 9.0333 1.0000
50.0940 5.7014 9.0364 1.0000
50.0940 6.1569 9.0460 1.0000
50.0940 -8.1500 8.2143 1.0000
50.0940 -7.9964 8.2103 1.0000
50.0940 -7.8429 8.2064 1.0000
50.0939 -7.2303 8.1917 1.0000
50.0939 -6.6198 8.1781 1.0000
50.0939 -6.1632 8.1688 1.0000
50.0939 -6.0112 8.1658 1.0000
50.0939 -5.8593 8.1629 1.0000
50.0939 -5.5560 8.1574 1.0000
50.0939 -4.9504 8.1471 1.0000
50.0939 -4.3461 8.1381 1.0000
50.0939 -4.0445 8.1340 1.0000
50.0939 -3.8938 8.1321 1.0000
50.0939 -3.7432 8.1303 1.0000
50.0939 -3.5926 8.1285 1.0000
50.0939 -3.2917 8.1251 1.0000
50.0939 -3.1413 8.1236 1.0000
50.0939 -2.9910 8.1221 1.0000
50.0940 -2.6905 8.1193 1.0000
50.0939 -2.3903 8.1169 1.0000
50.0939 -1.9402 8.1137 1.0000
50.0939 -1.7902 8.1128 1.0000
50.0939 -1.4903 8.1112 1.0000
50.0939 -1.1906 8.1099 1.0000
50.0939 -0.8909 8.1089 1.0000
50.0939 -0.7411 8.1085 1.0000
50.0939 -0.4416 8.1080 1.0000
50.0939 -0.2918 8.1078 1.0000
50.0940 -0.1420 8.1077 1.0000
50.0939 0.1574 8.1077 1.0000
50.0939 0.3072 8.1078 1.0000
50.0939 0.4570 8.1080 1.0000
50.0939 0.9063 8.1090 1.0000
50.0939 1.0562 8.1095 1.0000
50.0939 1.5057 8.1113 1.0000
50.0939 1.8056 8.1129 1.0000
50.0939 1.9555 8.1138 1.0000
50.0939 2.7059 8.1195 1.0000
50.0939 2.8562 8.1208 1.0000
50.0939 3.0064 8.1223 1.0000
50.0939 3.1568 8.1237 1.0000
50.0939 3.3071 8.1253 1.0000
50.0940 3.4576 8.1270 1.0000
50.0940 4.2107 8.1363 1.0000
50.0940 4.8147 8.1450 1.0000
50.0940 4.9659 8.1474 1.0000
50.0939 5.2685 8.1524 1.0000
50.0940 5.5715 8.1577 1.0000
50.0939 5.7232 8.1604 1.0000
50.0940 6.1788 8.1691 1.0000
50.0940 6.3309 8.1722 1.0000
50.0939 6.7879 8.1817 1.0000
50.0940 7.0931 8.1885 1.0000
50.0940 7.3989 8.1956 1.0000
50.0939 7.7052 8.2030 1.0000
50.0940 7.8586 8.2068 1.0000
50.0939 8.1658 8.2147 1.0000
50.0940 8.3196 8.2187 1.0000
50.0939 8.7820 8.2313 1.0000
50.0940 9.4007 8.2492 1.0000
50.0940 9.5559 8.2539 1.0000
50.0940 9.8666 8.2634 1.0000
50.0939 10.0223 8.2683 1.0000
50.0940 10.1781 8.2733 1.0000
50.0940 10.4904 8.2835 1.0000
50.0940 10.8034 8.2941 1.0000
50.0939 11.4320 8.3161 1.0000
50.0939 11.5897 8.3218 1.0000
50.0939 11.7476 8.3276 1.0000
50.0939 11.9056 8.3335 1.0000
50.0939 12.2226 8.3455 1.0000
50.0939 12.3813 8.3516 1.0000
50.0939 12.5404 8.3579 1.0000
50.0939 12.6996 8.3641 1.0000
50.0940 13.1789 8.3835 1.0000
50.0940 13.3392 8.3902 1.0000
50.0940 -13.3457 8.3905 1.0000
50.0940 -13.0255 8.3773 1.0000
50.0940 -12.8657 8.3708 1.0000
50.0940 -12.7062 8.3644 1.0000
50.0940 -12.5469 8.3581 1.0000
50.0940 -12.2291 8.3458 1.0000
50.0940 -12.0705 8.3397 1.0000
50.0940 -11.9122 8.3337 1.0000
50.0940 -11.7541 8.3279 1.0000
50.0940 -11.5962 8.3221 1.0000
50.0940 -11.4385 8.3163 1.0000
50.0940 -11.1238 8.3051 1.0000
50.0940 -10.9668 8.2997 1.0000
50.0940 -10.8099 8.2943 1.0000
50.0940 -10.1846 8.2735 1.0000
50.0940 -10.0287 8.2685 1.0000
50.0940 -9.8731 8.2636 1.0000
50.0940 -9.7176 8.2588 1.0000
50.0940 -9.5623 8.2541 1.0000
50.0940 -9.2522 8.2448 1.0000
50.0940 -8.9428 8.2358 1.0000
50.0940 -8.7883 8.2315 1.0000
50.0940 -8.6341 8.2272 1.0000
50.0940 -8.4799 8.2230 1.0000
50.0940 -8.3260 8.2189 1.0000
50.0940 -7.8650 8.2070 1.0000
50.0940 -7.7116 8.2032 1.0000
50.0940 -7.5583 8.1994 1.0000
50.0939 -7.2523 8.1922 1.0000
50.0939 -6.4893 8.1754 1.0000
50.0939 -6.3371 8.1723 1.0000
50.0939 -6.1851 8.1692 1.0000
50.0939 -5.5778 8.1578 1.0000
50.0939 -5.4262 8.1551 1.0000
50.0939 -5.2747 8.1525 1.0000
50.0939 -4.9721 8.1475 1.0000
50.0939 -4.8209 8.1451 1.0000
50.0939 -4.5188 8.1406 1.0000
50.0939 -3.9155 8.1324 1.0000
50.0939 -3.7648 8.1305 1.0000
50.0939 -3.6143 8.1287 1.0000
50.0939 -3.3134 8.1254 1.0000
50.0939 -3.1629 8.1238 1.0000
50.0939 -3.0126 8.1223 1.0000
50.0939 -2.7121 8.1195 1.0000
50.0939 -2.5620 8.1183 1.0000
50.0939 -2.1117 8.1149 1.0000
50.0939 -1.8117 8.1130 1.0000
50.0939 -1.6618 8.1121 1.0000
50.0939 -1.5119 8.1114 1.0000
50.0939 -1.2121 8.1100 1.0000
50.0939 -1.0623 8.1095 1.0000
50.0940 -0.6129 8.1083 1.0000
50.0939 0.1359 8.1077 1.0000
50.0939 0.5852 8.1082 1.0000
50.0939 0.7350 8.1085 1.0000
50.0939 1.0346 8.1094 1.0000
50.0939 1.1845 8.1099 1.0000
50.0939 1.3343 8.1105 1.0000
50.0939 1.4841 8.1112 1.0000
50.0939 1.7840 8.1128 1.0000
50.0940 1.9339 8.1137 1.0000
50.0939 2.0839 8.1147 1.0000
50.0939 2.8345 8.1206 1.0000
50.0939 2.9848 8.1220 1.0000
50.0939 3.2855 8.1251 1.0000
50.0940 3.4359 8.1267 1.0000
50.0940 3.5864 8.1284 1.0000
50.0939 3.8876 8.1320 1.0000
50.0940 4.1891 8.1360 1.0000
50.0940 4.3399 8.1380 1.0000
50.0940 4.6418 8.1424 1.0000
50.0939 4.7929 8.1447 1.0000
50.0939 4.9441 8.1471 1.0000
50.0939 5.0954 8.1495 1.0000
50.0940 5.2467 8.1520 1.0000
50.0940 5.7013 8.1600 1.0000
50.0940 5.8531 8.1628 1.0000
50.0940 -9.0752 7.3596 1.0000
50.0940 -8.7662 7.3517 1.0000
50.0940 -8.6119 7.3479 1.0000
50.0940 -8.4578 7.3442 1.0000
50.0940 -8.1501 7.3369 1.0000
50.0940 -7.9964 7.3334 1.0000
50.0940 -7.5363 7.3232 1.0000
50.0939 -7.2303 7.3167 1.0000
50.0939 -6.9248 7.3105 1.0000
50.0939 -6.7722 7.3076 1.0000
50.0939 -6.3153 7.2990 1.0000
50.0939 -5.8594 7.2910 1.0000
50.0939 -5.7076 7.2885 1.0000
50.0939 -5.2530 7.2814 1.0000
50.0939 -5.1016 7.2791 1.0000
50.0939 -4.4971 7.2708 1.0000
50.0939 -4.0445 7.2652 1.0000
50.0939 -3.8938 7.2635 1.0000
50.0939 -3.7432 7.2619 1.0000
50.0939 -3.5927 7.2603 1.0000
50.0939 -2.8408 7.2533 1.0000
50.0940 -2.5404 7.2510 1.0000
50.0939 -2.3903 7.2499 1.0000
50.0940 -2.2402 7.2489 1.0000
50.0940 -1.9402 7.2471 1.0000
50.0940 -1.7902 7.2463 1.0000
50.0940 -1.6403 7.2456 1.0000
50.0940 -1.1906 7.2437 1.0000
50.0940 -1.0408 7.2432 1.0000
50.0940 -0.8910 7.2428 1.0000
50.0940 -0.7411 7.2425 1.0000
50.0940 -0.5914 7.2422 1.0000
50.0940 -0.4416 7.2420 1.0000
50.0940 -0.2918 7.2418 1.0000
50.0940 -0.1421 7.2417 1.0000
50.0940 0.1574 7.2417 1.0000
50.0940 0.3072 7.2418 1.0000
50.0940 0.6068 7.2422 1.0000
50.0940 0.7565 7.2425 1.0000
50.0940 0.9063 7.2429 1.0000
50.0940 1.0561 7.2433 1.0000
50.0940 1.2060 7.2438 1.0000
50.0940 1.5057 7.2449 1.0000
50.0940 1.6556 7.2456 1.0000
50.0940 1.8055 7.2464 1.0000
50.0940 2.1055 7.2481 1.0000
50.0940 2.2556 7.2490 1.0000
50.0940 2.5557 7.2511 1.0000
50.0940 2.7059 7.2522 1.0000
50.0940 2.8561 7.2534 1.0000
50.0940 3.0064 7.2547 1.0000
50.0940 3.3071 7.2574 1.0000
50.0940 3.4575 7.2589 1.0000
50.0940 3.6081 7.2604 1.0000
50.0940 3.7586 7.2620 1.0000
50.0940 3.9093 7.2637 1.0000
50.0940 4.3616 7.2691 1.0000
50.0940 4.5125 7.2710 1.0000
50.0940 4.6636 7.2730 1.0000
50.0940 4.9658 7.2772 1.0000
50.0940 5.1171 7.2794 1.0000
50.0940 5.4200 7.2839 1.0000
50.0940 6.0268 7.2939 1.0000
50.0940 6.6354 7.3049 1.0000
50.0940 6.9404 7.3109 1.0000
50.0939 7.0932 7.3139 1.0000
50.0939 7.2460 7.3170 1.0000
50.0940 7.3989 7.3202 1.0000
50.0939 7.5520 7.3235 1.0000
50.0940 7.7052 7.3268 1.0000
50.0939 7.8586 7.3302 1.0000
50.0940 8.3196 7.3409 1.0000
50.0940 8.6277 7.3483 1.0000
50.0940 8.7820 7.3521 1.0000
50.0939 8.9364 7.3560 1.0000
50.0939 9.2458 7.3640 1.0000
50.0939 9.7111 7.3765 1.0000
50.0940 9.8666 7.3808 1.0000
50.0939 10.3342 7.3942 1.0000
50.0939 10.4904 7.3988 1.0000
50.0940 10.6468 7.4034 1.0000
50.0940 10.8034 7.4082 1.0000
50.0940 10.9603 7.4130 1.0000
50.0940 11.1173 7.4179 1.0000
50.0940 11.7475 7.4381 1.0000
50.0939 11.9056 7.4434 1.0000
50.0940 12.0639 7.4487 1.0000
50.0940 12.3813 7.4596 1.0000
50.0940 12.6996 7.4708 1.0000
50.0940 12.8591 7.4765 1.0000
50.0940 13.0188 7.4822 1.0000
50.0939 13.1789 7.4881 1.0000
50.0939 13.3391 7.4940 1.0000
50.0940 -13.1855 7.4883 1.0000
50.0940 -13.0255 7.4825 1.0000
50.0940 -12.8657 7.4767 1.0000
50.0940 -12.7063 7.4710 1.0000
50.0940 -12.5470 7.4654 1.0000
50.0940 -12.2291 7.4543 1.0000
50.0940 -12.0705 7.4489 1.0000
50.0940 -11.9122 7.4436 1.0000
50.0940 -11.5962 7.4332 1.0000
50.0940 -11.2811 7.4230 1.0000
50.0940 -11.1238 7.4181 1.0000
50.0940 -10.9668 7.4132 1.0000
50.0940 -10.6533 7.4036 1.0000
50.0940 -10.3407 7.3944 1.0000
50.0940 -10.0287 7.3854 1.0000
50.0940 -9.7176 7.3767 1.0000
50.0940 -9.5623 7.3724 1.0000
50.0940 -9.4072 7.3683 1.0000
50.0940 -9.2522 7.3642 1.0000
50.0940 -9.0974 7.3601 1.0000
50.0940 -8.9428 7.3562 1.0000
50.0940 -8.3260 7.3410 1.0000
50.0940 -8.0185 7.3339 1.0000
50.0940 -7.8650 7.3304 1.0000
50.0940 -7.5584 7.3237 1.0000
50.0939 -7.2523 7.3172 1.0000
50.0939 -7.0995 7.3140 1.0000
50.0939 -6.6417 7.3051 1.0000
50.0939 -6.3372 7.2994 1.0000
50.0939 -6.0331 7.2940 1.0000
50.0939 -5.4262 7.2840 1.0000
50.0939 -5.2748 7.2817 1.0000
50.0939 -5.1234 7.2795 1.0000
50.0939 -4.9721 7.2773 1.0000
50.0939 -4.8209 7.2751 1.0000
50.0939 -4.6698 7.2731 1.0000
50.0939 -4.3679 7.2692 1.0000
50.0939 -4.0662 7.2655 1.0000
50.0939 -3.7649 7.2621 1.0000
50.0939 -3.4638 7.2590 1.0000
50.0939 -3.3134 7.2575 1.0000
50.0939 -2.8624 7.2535 1.0000
50.0940 -2.7122 7.2523 1.0000
50.0940 -2.2618 7.2491 1.0000
50.0940 -1.9617 7.2472 1.0000
50.0940 -1.3620 7.2444 1.0000
50.0940 -1.0624 7.2433 1.0000
50.0940 -0.4632 7.2420 1.0000
50.0940 -0.1636 7.2417 1.0000
50.0940 -0.0139 7.2417 1.0000
50.0940 0.4354 7.2419 1.0000
50.0940 0.7350 7.2425 1.0000
50.0940 0.8847 7.2428 1.0000
50.0940 1.1844 7.2437 1.0000
50.0940 1.4841 7.2449 1.0000
50.0940 1.7839 7.2463 1.0000
50.0940 1.9339 7.2471 1.0000
50.0940 2.2339 7.2489 1.0000
50.0940 2.3840 7.2499 1.0000
50.0940 2.5341 7.2509 1.0000
50.0940 2.9848 7.2545 1.0000
50.0940 3.1351 7.2558 1.0000
50.0940 3.2855 7.2572 1.0000
50.0940 3.4359 7.2587 1.0000
50.0940 3.5864 7.2602 1.0000
50.0940 3.8876 7.2634 1.0000
50.0940 4.7929 7.2748 1.0000
50.0940 5.2467 7.2813 1.0000
50.0940 5.5497 7.2860 1.0000
50.0940 6.1569 7.2962 1.0000
50.0940 -9.5400 6.4946 1.0000
50.0940 -9.3848 6.4909 1.0000
50.0940 -9.2299 6.4873 1.0000
50.0940 -9.0752 6.4838 1.0000
50.0940 -8.7661 6.4769 1.0000
50.0940 -8.6119 6.4735 1.0000
50.0940 -8.4578 6.4702 1.0000
50.0940 -8.3038 6.4670 1.0000
50.0940 -7.8429 6.4576 1.0000
50.0940 -7.6895 6.4546 1.0000
50.0940 -7.5363 6.4517 1.0000
50.0939 -7.0775 6.4433 1.0000
50.0939 -6.9248 6.4406 1.0000
50.0939 -6.7722 6.4379 1.0000
50.0939 -6.4675 6.4329 1.0000
50.0939 -6.3153 6.4304 1.0000
50.0939 -5.8594 6.4234 1.0000
50.0939 -5.5560 6.4190 1.0000
50.0939 -5.1016 6.4129 1.0000
50.0939 -4.9504 6.4110 1.0000
50.0939 -4.7992 6.4091 1.0000
50.0939 -4.4971 6.4056 1.0000
50.0939 -4.3461 6.4039 1.0000
50.0939 -3.5927 6.3963 1.0000
50.0939 -3.2917 6.3937 1.0000
50.0939 -3.1413 6.3924 1.0000
50.0939 -2.9911 6.3913 1.0000
50.0939 -2.8407 6.3902 1.0000
50.0939 -2.6905 6.3891 1.0000
50.0939 -2.5404 6.3881 1.0000
50.0939 -2.3903 6.3872 1.0000
50.0939 -2.2401 6.3863 1.0000
50.0939 -1.7901 6.3840 1.0000
50.0939 -1.6402 6.3833 1.0000
50.0939 -1.1906 6.3817 1.0000
50.0939 -1.0407 6.3813 1.0000
50.0939 -0.8909 6.3809 1.0000
50.0939 -0.7411 6.3806 1.0000
50.0939 -0.5914 6.3804 1.0000
50.0939 -0.2918 6.3800 1.0000
50.0939 -0.1421 6.3799 1.0000
50.0939 0.0077 6.3799 1.0000
50.0939 0.3072 6.3800 1.0000
50.0939 0.6068 6.3804 1.0000
50.0939 1.2060 6.3818 1.0000
50.0939 1.3559 6.3823 1.0000
50.0939 1.5057 6.3828 1.0000
50.0939 2.1056 6.3855 1.0000
50.0939 2.2556 6.3864 1.0000
50.0939 2.4057 6.3873 1.0000
50.0939 2.5558 6.3882 1.0000
50.0939 2.7059 6.3892 1.0000
50.0939 3.1568 6.3926 1.0000
50.0939 3.3072 6.3938 1.0000
50.0939 3.4576 6.3951 1.0000
50.0939 3.7587 6.3979 1.0000
50.0939 4.0600 6.4008 1.0000
50.0939 4.5126 6.4057 1.0000
50.0939 4.8147 6.4093 1.0000
50.0939 4.9659 6.4112 1.0000
50.0939 5.4200 6.4172 1.0000
50.0939 5.7232 6.4214 1.0000
50.0939 6.0268 6.4259 1.0000
50.0939 6.1789 6.4283 1.0000
50.0939 6.3309 6.4307 1.0000
50.0939 6.4831 6.4331 1.0000
50.0939 6.7879 6.4382 1.0000
50.0939 6.9405 6.4409 1.0000
50.0939 7.2460 6.4463 1.0000
50.0939 8.3196 6.4673 1.0000
50.0939 8.4736 6.4705 1.0000
50.0939 9.4007 6.4913 1.0000
50.0939 9.7112 6.4987 1.0000
50.0939 9.8666 6.5025 1.0000
50.0939 10.0223 6.5063 1.0000
50.0939 10.3342 6.5143 1.0000
50.0939 10.4904 6.5183 1.0000
50.0939 10.8035 6.5266 1.0000
50.0939 11.1173 6.5351 1.0000
50.0939 11.2746 6.5395 1.0000
50.0939 11.4320 6.5439 1.0000
50.0939 11.7475 6.5530 1.0000
50.0939 12.0640 6.5623 1.0000
50.0939 12.3814 6.5719 1.0000
50.0939 12.5404 6.5768 1.0000
50.0939 12.6996 6.5817 1.0000
50.0939 13.1789 6.5970 1.0000
50.0940 -13.1855 6.5972 1.0000
50.0940 -13.0255 6.5921 1.0000
50.0940 -12.8657 6.5870 1.0000
50.0940 -12.5470 6.5770 1.0000
50.0940 -12.3879 6.5721 1.0000
50.0940 -11.5962 6.5486 1.0000
50.0940 -11.4386 6.5441 1.0000
50.0940 -11.1238 6.5353 1.0000
50.0940 -10.9668 6.5310 1.0000
50.0940 -10.8100 6.5268 1.0000
50.0940 -10.6533 6.5226 1.0000
50.0940 -10.1846 6.5104 1.0000
50.0940 -9.5623 6.4951 1.0000
50.0940 -9.2522 6.4878 1.0000
50.0940 -9.0975 6.4843 1.0000
50.0940 -8.6341 6.4740 1.0000
50.0940 -7.7116 6.4551 1.0000
50.0939 -7.0995 6.4437 1.0000
50.0939 -6.9468 6.4410 1.0000
50.0939 -6.7942 6.4383 1.0000
50.0939 -6.6417 6.4357 1.0000
50.0939 -6.4894 6.4332 1.0000
50.0939 -6.3371 6.4308 1.0000
50.0939 -6.1851 6.4284 1.0000
50.0939 -6.0331 6.4260 1.0000
50.0939 -5.8812 6.4237 1.0000
50.0939 -5.7295 6.4215 1.0000
50.0939 -5.4262 6.4172 1.0000
50.0939 -5.2747 6.4152 1.0000
50.0939 -4.9721 6.4113 1.0000
50.0939 -4.3679 6.4041 1.0000
50.0939 -4.0662 6.4009 1.0000
50.0939 -3.7649 6.3979 1.0000
50.0939 -3.4638 6.3951 1.0000
50.0939 -3.3134 6.3939 1.0000
50.0939 -2.8624 6.3903 1.0000
50.0939 -2.5620 6.3882 1.0000
50.0939 -2.4119 6.3873 1.0000
50.0939 -1.6618 6.3834 1.0000
50.0939 -1.5119 6.3828 1.0000
50.0939 -0.9125 6.3810 1.0000
50.0939 -0.7627 6.3807 1.0000
50.0939 -0.1636 6.3800 1.0000
50.0939 -0.0138 6.3799 1.0000
50.0939 0.1359 6.3799 1.0000
50.0939 0.2857 6.3800 1.0000
50.0939 0.5852 6.3803 1.0000
50.0939 0.7350 6.3806 1.0000
50.0939 1.1844 6.3817 1.0000
50.0939 1.4842 6.3827 1.0000
50.0939 1.6341 6.3833 1.0000
50.0939 1.7840 6.3840 1.0000
50.0939 1.9339 6.3847 1.0000
50.0939 2.0839 6.3854 1.0000
50.0939 2.3841 6.3871 1.0000
50.0939 3.2855 6.3936 1.0000
50.0939 3.4359 6.3949 1.0000
50.0939 3.5864 6.3962 1.0000
50.0939 3.8876 6.3991 1.0000
50.0939 4.0383 6.4006 1.0000
50.0939 4.3400 6.4038 1.0000
50.0939 4.4908 6.4055 1.0000
50.0939 4.6418 6.4072 1.0000
50.0939 4.7929 6.4091 1.0000
50.0939 4.9441 6.4109 1.0000
50.0939 5.2468 6.4148 1.0000
50.0939 5.3982 6.4169 1.0000
50.0939 5.5497 6.4189 1.0000
50.0939 5.7014 6.4211 1.0000
50.0939 6.1569 6.4279 1.0000
50.0940 -9.2299 5.6148 1.0000
50.0940 -8.9206 5.6087 1.0000
50.0940 -8.7661 5.6058 1.0000
50.0940 -8.4578 5.6000 1.0000
50.0940 -8.3038 5.5972 1.0000
50.0940 -7.8429 5.5891 1.0000
50.0940 -7.6895 5.5865 1.0000
50.0939 -7.3832 5.5815 1.0000
50.0939 -7.2303 5.5791 1.0000
50.0939 -7.0775 5.5767 1.0000
50.0939 -6.3153 5.5656 1.0000
50.0939 -6.1632 5.5635 1.0000
50.0939 -6.0112 5.5615 1.0000
50.0939 -5.8594 5.5595 1.0000
50.0939 -5.7076 5.5576 1.0000
50.0939 -5.4044 5.5539 1.0000
50.0939 -5.1016 5.5504 1.0000
50.0939 -4.9504 5.5487 1.0000
50.0939 -4.7991 5.5471 1.0000
50.0939 -4.6481 5.5456 1.0000
50.0939 -4.4971 5.5441 1.0000
50.0939 -4.3461 5.5426 1.0000
50.0939 -4.1953 5.5412 1.0000
50.0939 -4.0445 5.5398 1.0000
50.0939 -3.8938 5.5385 1.0000
50.0939 -3.4421 5.5349 1.0000
50.0939 -2.9910 5.5317 1.0000
50.0939 -2.6905 5.5298 1.0000
50.0939 -2.5404 5.5289 1.0000
50.0939 -1.9402 5.5260 1.0000
50.0939 -1.7902 5.5254 1.0000
50.0939 -1.6402 5.5248 1.0000
50.0939 -1.1906 5.5234 1.0000
50.0939 -1.0407 5.5230 1.0000
50.0939 -0.4416 5.5221 1.0000
50.0939 -0.2918 5.5219 1.0000
50.0939 -0.1421 5.5219 1.0000
50.0939 0.1574 5.5219 1.0000
50.0939 0.3072 5.5220 1.0000
50.0939 0.4570 5.5221 1.0000
50.0939 0.7565 5.5225 1.0000
50.0939 0.9063 5.5228 1.0000
50.0939 1.0561 5.5231 1.0000
50.0939 1.2060 5.5234 1.0000
50.0939 1.6556 5.5249 1.0000
50.0939 1.8055 5.5254 1.0000
50.0939 1.9555 5.5261 1.0000
50.0939 2.2555 5.5274 1.0000
50.0939 2.4056 5.5282 1.0000
50.0939 2.7059 5.5299 1.0000
50.0939 3.1567 5.5328 1.0000
50.0939 3.7587 5.5374 1.0000
50.0939 3.9093 5.5386 1.0000
50.0939 4.2108 5.5413 1.0000
50.0939 4.3616 5.5427 1.0000
50.0939 4.6636 5.5457 1.0000
50.0939 4.9659 5.5489 1.0000
50.0939 5.5715 5.5559 1.0000
50.0939 5.7232 5.5578 1.0000
50.0939 5.8749 5.5597 1.0000
50.0939 6.3309 5.5658 1.0000
50.0939 6.4831 5.5679 1.0000
50.0939 6.7879 5.5723 1.0000
50.0939 7.7052 5.5868 1.0000
50.0939 7.8586 5.5894 1.0000
50.0939 8.1658 5.5947 1.0000
50.0939 8.3196 5.5975 1.0000
50.0939 8.4736 5.6003 1.0000
50.0939 8.6277 5.6032 1.0000
50.0939 8.7820 5.6061 1.0000
50.0939 8.9364 5.6090 1.0000
50.0939 9.4008 5.6182 1.0000
50.0939 9.7112 5.6247 1.0000
50.0939 9.8666 5.6279 1.0000
50.0939 10.4904 5.6416 1.0000
50.0939 10.9603 5.6525 1.0000
50.0939 12.6996 5.6965 1.0000
50.0939 12.8591 5.7009 1.0000
50.0939 13.1789 5.7097 1.0000
50.0939 -13.3457 5.7145 1.0000
50.0940 -13.1855 5.7099 1.0000
50.0940 -13.0255 5.7055 1.0000
50.0940 -12.8657 5.7011 1.0000
50.0940 -12.7062 5.6967 1.0000
50.0939 -12.5469 5.6924 1.0000
50.0939 -12.3879 5.6882 1.0000
50.0940 -12.2291 5.6840 1.0000
50.0940 -11.9122 5.6758 1.0000
50.0940 -10.9668 5.6526 1.0000
50.0939 -10.8100 5.6490 1.0000
50.0939 -10.6533 5.6453 1.0000
50.0940 -10.3407 5.6383 1.0000
50.0940 -10.0287 5.6314 1.0000
50.0940 -9.8731 5.6281 1.0000
50.0940 -9.7176 5.6248 1.0000
50.0940 -9.5623 5.6216 1.0000
50.0940 -9.2522 5.6152 1.0000
50.0940 -9.0974 5.6122 1.0000
50.0940 -8.9429 5.6092 1.0000
50.0939 -8.7883 5.6062 1.0000
50.0940 -8.6341 5.6033 1.0000
50.0940 -7.8650 5.5895 1.0000
50.0940 -7.5584 5.5844 1.0000
50.0939 -7.4052 5.5819 1.0000
50.0939 -7.2523 5.5794 1.0000
50.0939 -7.0995 5.5770 1.0000
50.0939 -6.9468 5.5747 1.0000
50.0939 -6.7942 5.5724 1.0000
50.0939 -6.3372 5.5659 1.0000
50.0939 -6.1851 5.5638 1.0000
50.0939 -5.8812 5.5598 1.0000
50.0939 -5.7294 5.5578 1.0000
50.0939 -5.5778 5.5560 1.0000
50.0939 -5.4262 5.5542 1.0000
50.0939 -5.1234 5.5507 1.0000
50.0939 -4.8209 5.5474 1.0000
50.0939 -4.6698 5.5458 1.0000
50.0939 -4.5188 5.5443 1.0000
50.0939 -4.3679 5.5428 1.0000
50.0939 -4.2170 5.5414 1.0000
50.0939 -3.9155 5.5387 1.0000
50.0939 -3.7649 5.5374 1.0000
50.0939 -3.4638 5.5350 1.0000
50.0939 -3.0127 5.5318 1.0000
50.0939 -2.7121 5.5299 1.0000
50.0939 -1.9617 5.5261 1.0000
50.0939 -1.5119 5.5244 1.0000
50.0939 -1.3620 5.5239 1.0000
50.0939 -1.2122 5.5235 1.0000
50.0939 -1.0623 5.5231 1.0000
50.0939 -0.7627 5.5225 1.0000
50.0939 -0.6130 5.5223 1.0000
50.0939 -0.4631 5.5221 1.0000
50.0939 -0.0139 5.5219 1.0000
50.0939 0.1359 5.5219 1.0000
50.0939 0.2857 5.5219 1.0000
50.0939 0.5852 5.5222 1.0000
50.0939 1.1845 5.5234 1.0000
50.0939 1.9339 5.5260 1.0000
50.0939 2.0839 5.5266 1.0000
50.0939 2.2340 5.5273 1.0000
50.0939 2.5341 5.5289 1.0000
50.0939 2.9848 5.5316 1.0000
50.0939 3.1351 5.5327 1.0000
50.0939 3.4359 5.5348 1.0000
50.0939 3.8876 5.5385 1.0000
50.0939 4.0383 5.5398 1.0000
50.0939 4.4909 5.5440 1.0000
50.0939 4.7929 5.5471 1.0000
50.0939 4.9441 5.5487 1.0000
50.0939 5.2467 5.5521 1.0000
50.0939 5.5497 5.5556 1.0000
50.0939 -9.3848 4.7482 1.0000
50.0939 -9.2299 4.7455 1.0000
50.0939 -8.9205 4.7404 1.0000
50.0939 -8.7662 4.7379 1.0000
50.0939 -8.6119 4.7354 1.0000
50.0939 -8.4578 4.7330 1.0000
50.0939 -8.3038 4.7307 1.0000
50.0939 -7.9964 4.7261 1.0000
50.0939 -7.6895 4.7217 1.0000
50.0939 -7.5362 4.7195 1.0000
50.0938 -7.3832 4.7174 1.0000
50.0938 -7.0775 4.7133 1.0000
50.0938 -6.6198 4.7076 1.0000
50.0938 -6.3153 4.7039 1.0000
50.0938 -6.1632 4.7022 1.0000
50.0938 -6.0112 4.7005 1.0000
50.0938 -5.5559 4.6956 1.0000
50.0938 -5.4044 4.6941 1.0000
50.0938 -4.9503 4.6897 1.0000
50.0938 -4.4971 4.6857 1.0000
50.0938 -4.3461 4.6845 1.0000
50.0938 -4.0445 4.6822 1.0000
50.0938 -3.8938 4.6811 1.0000
50.0938 -3.7432 4.6800 1.0000
50.0938 -3.5927 4.6790 1.0000
50.0938 -3.1413 4.6761 1.0000
50.0938 -2.9910 4.6753 1.0000
50.0938 -2.8407 4.6745 1.0000
50.0938 -2.3902 4.6723 1.0000
50.0939 -2.2402 4.6716 1.0000
50.0939 -2.0901 4.6710 1.0000
50.0939 -1.0407 4.6680 1.0000
50.0939 -0.8910 4.6677 1.0000
50.0939 -0.2918 4.6671 1.0000
50.0939 -0.1421 4.6670 1.0000
50.0939 0.0077 4.6670 1.0000
50.0939 0.4570 4.6672 1.0000
50.0939 0.9063 4.6677 1.0000
50.0939 1.3558 4.6687 1.0000
50.0939 1.6556 4.6695 1.0000
50.0939 1.9555 4.6705 1.0000
50.0939 2.2556 4.6717 1.0000
50.0939 2.4057 4.6724 1.0000
50.0939 2.7059 4.6738 1.0000
50.0939 3.0064 4.6754 1.0000
50.0939 3.1568 4.6762 1.0000
50.0939 3.3071 4.6771 1.0000
50.0939 3.4576 4.6781 1.0000
50.0939 3.6081 4.6791 1.0000
50.0939 4.0600 4.6823 1.0000
50.0939 4.2107 4.6834 1.0000
50.0939 4.3616 4.6846 1.0000
50.0939 4.8146 4.6885 1.0000
50.0939 5.1171 4.6913 1.0000
50.0939 5.4200 4.6942 1.0000
50.0939 5.5715 4.6958 1.0000
50.0939 6.1788 4.7023 1.0000
50.0939 6.3309 4.7041 1.0000
50.0939 6.4831 4.7059 1.0000
50.0939 6.6354 4.7077 1.0000
50.0939 6.7879 4.7096 1.0000
50.0939 6.9404 4.7116 1.0000
50.0939 7.2459 4.7156 1.0000
50.0939 7.3989 4.7176 1.0000
50.0939 7.8586 4.7241 1.0000
50.0939 8.1658 4.7286 1.0000
50.0939 8.3196 4.7309 1.0000
50.0939 8.4736 4.7333 1.0000
50.0939 8.7820 4.7382 1.0000
50.0939 9.0910 4.7432 1.0000
50.0939 9.2458 4.7458 1.0000
50.0939 9.4007 4.7485 1.0000
50.0939 9.5559 4.7511 1.0000
50.0939 9.7111 4.7539 1.0000
50.0939 9.8666 4.7566 1.0000
50.0939 10.0223 4.7595 1.0000
50.0939 10.1781 4.7623 1.0000
50.0939 10.3342 4.7653 1.0000
50.0939 10.4904 4.7682 1.0000
50.0939 10.9603 4.7774 1.0000
50.0939 11.2745 4.7837 1.0000
50.0939 12.0639 4.8004 1.0000
50.0939 12.2225 4.8039 1.0000
50.0939 12.3813 4.8074 1.0000
50.0939 12.5403 4.8110 1.0000
50.0939 12.6996 4.8146 1.0000
50.0939 13.0189 4.8220 1.0000
50.0939 13.1789 4.8258 1.0000
50.0939 13.3391 4.8296 1.0000
50.0939 -13.3457 4.8298 1.0000
50.0939 -13.1855 4.8259 1.0000
50.0939 -12.5470 4.8111 1.0000
50.0939 -12.3879 4.8076 1.0000
50.0939 -12.2291 4.8040 1.0000
50.0939 -12.0705 4.8006 1.0000
50.0939 -11.4385 4.7871 1.0000
50.0939 -11.2810 4.7839 1.0000
50.0939 -10.9668 4.7775 1.0000
50.0939 -10.8099 4.7744 1.0000
