ply
format ascii 1.0
element vertex 1610
property float32 x
property float32 y
property float32 z
property float32 I
end_header
50.0940 2.4529 7.2504 1.0000
50.0940 3.0550 7.2551 1.0000
50.0940 3.2056 7.2565 1.0000
50.0940 3.3563 7.2579 1.0000
50.0940 3.5070 7.2594 1.0000
50.0940 3.6579 7.2610 1.0000
50.0940 3.8087 7.2626 1.0000
50.0940 3.9597 7.2643 1.0000
50.0939 4.1107 7.2660 1.0000
50.0939 4.4130 7.2697 1.0000
50.0939 4.5643 7.2717 1.0000
50.0939 4.7156 7.2737 1.0000
50.0940 4.8670 7.2758 1.0000
50.0939 5.1702 7.2802 1.0000
50.0939 5.3218 7.2824 1.0000
50.0940 5.6255 7.2872 1.0000
50.0939 5.7775 7.2897 1.0000
50.0940 5.9296 7.2922 1.0000
50.0939 6.2342 7.2975 1.0000
50.0939 6.3866 7.3003 1.0000
50.0939 6.5391 7.3031 1.0000
50.0940 6.6918 7.3060 1.0000
50.0940 6.8446 7.3090 1.0000
50.0940 7.1506 7.3151 1.0000
50.0939 7.3037 7.3182 1.0000
50.0940 7.4570 7.3215 1.0000
50.0940 7.6105 7.3248 1.0000
50.0940 7.7641 7.3281 1.0000
50.0939 8.0717 7.3351 1.0000
50.0939 8.2257 7.3387 1.0000
50.0940 8.3799 7.3423 1.0000
50.0940 8.9982 7.3576 1.0000
50.0940 9.1531 7.3616 1.0000
50.0939 9.4636 7.3698 1.0000
50.0940 9.6191 7.3740 1.0000
50.0940 9.9306 7.3826 1.0000
50.0940 10.0866 7.3870 1.0000
50.0940 10.7127 7.4054 1.0000
50.0940 11.0270 7.4151 1.0000
50.0940 11.3420 7.4250 1.0000
50.0940 11.8162 7.4404 1.0000
50.0940 11.9748 7.4457 1.0000
50.0939 12.1335 7.4511 1.0000
50.0940 12.2925 7.4565 1.0000
50.0940 12.4517 7.4620 1.0000
50.0940 12.6111 7.4676 1.0000
50.0940 12.9307 7.4791 1.0000
50.0939 13.4120 7.4967 1.0000
50.0940 -13.2726 7.4916 1.0000
50.0940 -12.9519 7.4798 1.0000
50.0940 -12.7920 7.4741 1.0000
50.0940 -12.4728 7.4628 1.0000
50.0940 -12.3136 7.4573 1.0000
50.0940 -12.1545 7.4518 1.0000
50.0940 -11.9958 7.4464 1.0000
50.0940 -11.8372 7.4411 1.0000
50.0940 -11.6789 7.4359 1.0000
50.0940 -11.2053 7.4206 1.0000
50.0939 4.0506 6.4007 1.0000
50.0939 4.2016 6.4023 1.0000
50.0939 4.5040 6.4056 1.0000
50.0939 4.8068 6.4092 1.0000
50.0939 5.1098 6.4130 1.0000
50.0939 5.7170 6.4213 1.0000
50.0939 5.8690 6.4236 1.0000
50.0939 6.1735 6.4282 1.0000
50.0939 6.3259 6.4306 1.0000
50.0939 6.4784 6.4330 1.0000
50.0939 7.3960 6.4491 1.0000
50.0939 7.5494 6.4520 1.0000
50.0939 8.0104 6.4610 1.0000
50.0939 8.4727 6.4705 1.0000
50.0939 8.6271 6.4738 1.0000
50.0939 8.9364 6.4806 1.0000
50.0939 9.0914 6.4841 1.0000
50.0939 9.2465 6.4877 1.0000
50.0939 9.4017 6.4913 1.0000
50.0939 9.5571 6.4950 1.0000
50.0939 9.7127 6.4987 1.0000
50.0939 10.1806 6.5103 1.0000
50.0939 10.4936 6.5184 1.0000
50.0939 10.8072 6.5267 1.0000
50.0939 10.9643 6.5309 1.0000
50.0939 11.1217 6.5353 1.0000
50.0939 11.2792 6.5396 1.0000
50.0939 11.4370 6.5441 1.0000
50.0939 11.5950 6.5486 1.0000
50.0939 11.7532 6.5532 1.0000
50.0939 11.9116 6.5578 1.0000
50.0939 12.0702 6.5625 1.0000
50.0939 12.2291 6.5673 1.0000
50.0939 12.3882 6.5721 1.0000
50.0939 13.0271 6.5921 1.0000
50.0939 13.1874 6.5973 1.0000
50.0939 13.3480 6.6025 1.0000
50.0940 -12.8557 6.5867 1.0000
50.0940 -12.6959 6.5816 1.0000
50.0940 -12.2179 6.5669 1.0000
50.0940 -12.0590 6.5622 1.0000
50.0940 -11.7420 6.5528 1.0000
50.0940 -11.5838 6.5483 1.0000
50.0940 -11.4258 6.5438 1.0000
50.0940 -10.7961 6.5264 1.0000
50.0940 -10.4824 6.5181 1.0000
50.0940 -10.1696 6.5101 1.0000
50.0940 -10.0134 6.5061 1.0000
50.0940 -9.8575 6.5023 1.0000
50.0940 -9.5461 6.4947 1.0000
50.0940 -9.3907 6.4910 1.0000
50.0940 -9.2355 6.4874 1.0000
50.0940 -9.0804 6.4839 1.0000
50.0940 -8.7708 6.4770 1.0000
50.0940 -8.4618 6.4703 1.0000
50.0940 -8.1534 6.4639 1.0000
50.0940 -7.9995 6.4607 1.0000
50.0940 -7.6920 6.4547 1.0000
50.0940 -7.5385 6.4518 1.0000
50.0939 -7.3851 6.4489 1.0000
50.0939 -7.2318 6.4461 1.0000
50.0939 -6.4675 6.4329 1.0000
50.0939 -6.3150 6.4304 1.0000
50.0939 -6.1627 6.4280 1.0000
50.0939 -5.4024 6.4169 1.0000
50.0939 -4.7960 6.4091 1.0000
50.0939 -4.6446 6.4073 1.0000
50.0939 -4.4933 6.4055 1.0000
50.0939 -4.3421 6.4038 1.0000
50.0939 -4.1909 6.4022 1.0000
50.0939 -3.8889 6.3991 1.0000
50.0939 -3.4363 6.3949 1.0000
50.0939 -3.2856 6.3936 1.0000
50.0939 -3.1349 6.3924 1.0000
50.0939 -2.9843 6.3912 1.0000
50.0939 -2.5328 6.3881 1.0000
50.0939 -2.2320 6.3862 1.0000
50.0939 -2.0816 6.3854 1.0000
50.0939 -1.7811 6.3840 1.0000
50.0939 -1.6308 6.3833 1.0000
50.0939 -1.0302 6.3813 1.0000
50.0939 -0.8801 6.3809 1.0000
50.0939 -0.2798 6.3800 1.0000
50.0939 -0.1298 6.3799 1.0000
50.0939 0.3204 6.3800 1.0000
50.0939 0.7706 6.3807 1.0000
50.0939 0.9207 6.3810 1.0000
50.0939 1.0708 6.3814 1.0000
50.0939 1.2209 6.3818 1.0000
50.0939 1.5213 6.3829 1.0000
50.0939 1.8217 6.3841 1.0000
50.0939 2.5734 6.3883 1.0000
50.0939 3.0250 6.3915 1.0000
50.0939 3.1756 6.3927 1.0000
50.0939 3.3263 6.3940 1.0000
50.0939 3.6279 6.3966 1.0000
50.0939 3.7787 6.3980 1.0000
50.0939 3.9296 6.3995 1.0000
50.0939 4.0807 6.4010 1.0000
50.0939 4.3829 6.4043 1.0000
50.0939 4.5342 6.4060 1.0000
50.0939 4.6855 6.4078 1.0000
50.0939 4.9884 6.4115 1.0000
50.0939 5.4434 6.4175 1.0000
50.0939 5.5953 6.4196 1.0000
50.0939 6.0515 6.4263 1.0000
50.0939 6.2038 6.4287 1.0000
50.0939 6.3562 6.4311 1.0000
50.0939 6.8142 6.4387 1.0000
50.0939 6.9671 6.4413 1.0000
50.0939 7.1201 6.4440 1.0000
50.0939 7.4265 6.4496 1.0000
50.0939 7.5800 6.4525 1.0000
50.0939 7.7335 6.4555 1.0000
50.0939 7.8872 6.4585 1.0000
50.0939 8.1950 6.4647 1.0000
50.0939 8.6579 6.4745 1.0000
50.0939 8.8125 6.4779 1.0000
50.0939 9.8996 6.5033 1.0000
50.0939 10.0556 6.5072 1.0000
50.0939 10.2118 6.5111 1.0000
50.0939 10.6815 6.5233 1.0000
50.0939 10.8385 6.5275 1.0000
50.0939 10.9957 6.5318 1.0000
50.0939 11.4685 6.5450 1.0000
50.0939 11.7847 6.5541 1.0000
50.0939 12.2608 6.5682 1.0000
50.0939 12.4200 6.5731 1.0000
50.0939 12.7390 6.5830 1.0000
50.0939 12.8989 6.5880 1.0000
50.0939 13.0590 6.5931 1.0000
50.0939 13.2193 6.5983 1.0000
50.0940 -13.3046 6.6011 1.0000
50.0940 -13.1441 6.5959 1.0000
50.0940 -12.9838 6.5907 1.0000
50.0940 -12.8238 6.5856 1.0000
50.0940 -12.3453 6.5708 1.0000
50.0940 -12.1862 6.5660 1.0000
50.0940 -12.0274 6.5612 1.0000
50.0940 -11.8688 6.5565 1.0000
50.0940 -11.5523 6.5474 1.0000
50.0940 -11.0792 6.5341 1.0000
50.0940 -10.9219 6.5298 1.0000
50.0940 -10.7648 6.5256 1.0000
50.0940 -10.6079 6.5214 1.0000
50.0940 -10.4512 6.5173 1.0000
50.0940 -9.9824 6.5054 1.0000
50.0940 -9.8264 6.5015 1.0000
50.0940 -9.5151 6.4940 1.0000
50.0940 -9.3597 6.4903 1.0000
50.0940 -9.2046 6.4867 1.0000
50.0940 -9.0495 6.4832 1.0000
50.0940 -8.8947 6.4797 1.0000
50.0940 -8.7400 6.4763 1.0000
50.0940 -8.2768 6.4664 1.0000
50.0940 -8.1228 6.4633 1.0000
50.0940 -7.9689 6.4601 1.0000
50.0939 -6.7425 6.4374 1.0000
50.0939 -6.4371 6.4324 1.0000
50.0939 -6.2847 6.4299 1.0000
50.0939 -5.8279 6.4229 1.0000
50.0939 -5.6759 6.4207 1.0000
50.0939 -5.5240 6.4186 1.0000
50.0939 -5.3721 6.4165 1.0000
50.0939 -5.2204 6.4145 1.0000
50.0939 -4.9173 6.4106 1.0000
50.0939 -4.6144 6.4069 1.0000
50.0939 -4.4632 6.4052 1.0000
50.0939 -3.5571 6.3960 1.0000
50.0939 -3.1049 6.3922 1.0000
50.0939 -2.9543 6.3910 1.0000
50.0939 -2.6532 6.3889 1.0000
50.0939 -2.3524 6.3869 1.0000
50.0939 -2.0517 6.3853 1.0000
50.0939 -1.9014 6.3845 1.0000
50.0939 -1.7511 6.3838 1.0000
50.0939 -1.4507 6.3826 1.0000
50.0939 -1.0004 6.3812 1.0000
50.0939 -0.8502 6.3808 1.0000
50.0939 -0.5500 6.3803 1.0000
50.0939 -0.2500 6.3800 1.0000
50.0939 0.0502 6.3799 1.0000
50.0939 0.2002 6.3800 1.0000
50.0939 0.8005 6.3807 1.0000
50.0939 0.9506 6.3811 1.0000
50.0939 1.1007 6.3815 1.0000
50.0939 1.2508 6.3819 1.0000
50.0939 1.7014 6.3836 1.0000
50.0939 2.0019 6.3850 1.0000
50.0939 2.3025 6.3867 1.0000
50.0939 2.7539 6.3895 1.0000
50.0939 2.9044 6.3906 1.0000
50.0939 3.0550 6.3918 1.0000
50.0939 3.2056 6.3930 1.0000
50.0939 3.5071 6.3955 1.0000
50.0939 3.9597 6.3998 1.0000
50.0939 4.1107 6.4014 1.0000
50.0939 4.5643 6.4063 1.0000
50.0939 4.8671 6.4100 1.0000
50.0939 5.1702 6.4138 1.0000
50.0939 5.4737 6.4179 1.0000
50.0939 6.0819 6.4268 1.0000
50.0939 6.2342 6.4291 1.0000
50.0939 6.3866 6.4316 1.0000
50.0939 6.5392 6.4340 1.0000
50.0939 6.8446 6.4392 1.0000
50.0939 7.3038 6.4474 1.0000
50.0939 7.6105 6.4531 1.0000
50.0939 7.9179 6.4591 1.0000
50.0939 8.2257 6.4654 1.0000
50.0939 8.5342 6.4718 1.0000
50.0939 8.6887 6.4752 1.0000
50.0939 8.8434 6.4786 1.0000
50.0939 9.1532 6.4855 1.0000
50.0939 9.3083 6.4891 1.0000
50.0939 9.6191 6.4965 1.0000
50.0939 9.7748 6.5002 1.0000
50.0939 9.9307 6.5041 1.0000
50.0939 10.5560 6.5200 1.0000
50.0939 10.7128 6.5242 1.0000
50.0939 11.1844 6.5370 1.0000
50.0939 11.4999 6.5459 1.0000
50.0939 12.2925 6.5692 1.0000
50.0939 12.7708 6.5840 1.0000
50.0939 12.9307 6.5890 1.0000
50.0939 13.0909 6.5942 1.0000
50.0939 13.2514 6.5994 1.0000
50.0940 -13.2726 6.6001 1.0000
50.0940 -12.7920 6.5846 1.0000
50.0940 -12.6322 6.5796 1.0000
50.0940 -12.4728 6.5747 1.0000
50.0940 -12.3136 6.5698 1.0000
50.0940 -11.8372 6.5556 1.0000
50.0940 -11.6789 6.5510 1.0000
50.0940 -11.5208 6.5465 1.0000
50.0940 -11.3629 6.5420 1.0000
50.0940 -11.2053 6.5376 1.0000
50.0939 4.3528 5.5427 1.0000
50.0939 4.6553 5.5456 1.0000
50.0939 4.9582 5.5488 1.0000
50.0939 5.4132 5.5540 1.0000
50.0939 5.5650 5.5558 1.0000
50.0939 5.8690 5.5596 1.0000
50.0939 6.0212 5.5616 1.0000
50.0939 6.1735 5.5636 1.0000
50.0939 6.3259 5.5657 1.0000
50.0939 6.4784 5.5678 1.0000
50.0939 6.6310 5.5700 1.0000
50.0939 6.7838 5.5723 1.0000
50.0939 6.9366 5.5745 1.0000
50.0939 7.8566 5.5893 1.0000
50.0939 8.4727 5.6003 1.0000
50.0939 8.9364 5.6090 1.0000
50.0939 9.0914 5.6121 1.0000
50.0939 9.2464 5.6151 1.0000
50.0939 9.4017 5.6183 1.0000
50.0939 9.5571 5.6215 1.0000
50.0939 9.7127 5.6247 1.0000
50.0939 9.8685 5.6280 1.0000
50.0939 10.0245 5.6313 1.0000
50.0939 10.8072 5.6489 1.0000
50.0939 10.9643 5.6526 1.0000
50.0939 11.1216 5.6563 1.0000
50.0939 11.2792 5.6601 1.0000
50.0939 11.9116 5.6758 1.0000
50.0939 12.0702 5.6799 1.0000
50.0939 12.2291 5.6840 1.0000
50.0939 12.7072 5.6967 1.0000
50.0939 13.0271 5.7055 1.0000
50.0940 -13.3366 5.7142 1.0000
50.0940 -13.1760 5.7097 1.0000
50.0939 -13.0157 5.7052 1.0000
50.0940 -12.8557 5.7008 1.0000
50.0939 -12.6958 5.6964 1.0000
50.0940 -12.5363 5.6921 1.0000
50.0940 -12.3769 5.6879 1.0000
50.0939 -12.0590 5.6796 1.0000
50.0940 -11.9004 5.6755 1.0000
50.0940 -11.7420 5.6715 1.0000
50.0940 -11.5838 5.6676 1.0000
50.0940 -11.2680 5.6598 1.0000
50.0939 -11.1105 5.6560 1.0000
50.0940 -10.4824 5.6415 1.0000
50.0940 -10.3259 5.6379 1.0000
50.0940 -9.8575 5.6277 1.0000
50.0940 -9.3907 5.6180 1.0000
50.0940 -9.2354 5.6149 1.0000
50.0940 -9.0804 5.6118 1.0000
50.0940 -8.9255 5.6088 1.0000
50.0939 -8.7707 5.6059 1.0000
50.0940 -8.6162 5.6029 1.0000
50.0939 -8.1534 5.5945 1.0000
50.0940 -7.8457 5.5892 1.0000
50.0940 -7.6920 5.5866 1.0000
50.0940 -7.5384 5.5840 1.0000
50.0939 -6.9257 5.5744 1.0000
50.0939 -6.4675 5.5677 1.0000
50.0939 -6.3150 5.5656 1.0000
50.0939 -6.1627 5.5635 1.0000
50.0939 -6.0104 5.5614 1.0000
50.0939 -5.8582 5.5595 1.0000
50.0939 -5.7062 5.5576 1.0000
50.0939 -5.5543 5.5557 1.0000
50.0939 -5.2506 5.5521 1.0000
50.0939 -5.0990 5.5504 1.0000
50.0939 -4.9474 5.5487 1.0000
50.0939 -4.6446 5.5455 1.0000
50.0939 -4.1909 5.5411 1.0000
50.0939 -4.0398 5.5398 1.0000
50.0939 -3.8888 5.5385 1.0000
50.0939 -3.4363 5.5348 1.0000
50.0939 -3.1349 5.5327 1.0000
50.0939 -2.8337 5.5307 1.0000
50.0939 -2.6832 5.5298 1.0000
50.0939 -2.5328 5.5289 1.0000
50.0939 -2.2320 5.5273 1.0000
50.0939 -2.0816 5.5266 1.0000
50.0939 -1.0302 5.5230 1.0000
50.0939 -0.5800 5.5222 1.0000
50.0939 0.0202 5.5219 1.0000
50.0939 0.6205 5.5223 1.0000
50.0939 0.7706 5.5225 1.0000
50.0939 0.9207 5.5228 1.0000
50.0939 1.0708 5.5231 1.0000
50.0939 1.2209 5.5235 1.0000
50.0939 1.3711 5.5239 1.0000
50.0939 1.5213 5.5244 1.0000
50.0939 1.8217 5.5255 1.0000
50.0939 2.2726 5.5275 1.0000
50.0939 2.4230 5.5283 1.0000
50.0939 2.7239 5.5300 1.0000
50.0939 3.0250 5.5319 1.0000
50.0939 3.1756 5.5329 1.0000
50.0939 3.3263 5.5340 1.0000
50.0939 3.6278 5.5363 1.0000
50.0939 4.0806 5.5401 1.0000
50.0939 4.2318 5.5415 1.0000
50.0939 4.3829 5.5429 1.0000
50.0939 4.5341 5.5444 1.0000
50.0939 4.6855 5.5460 1.0000
50.0939 4.8369 5.5475 1.0000
50.0939 5.4434 5.5544 1.0000
50.0939 5.8993 5.5600 1.0000
50.0939 6.3562 5.5661 1.0000
50.0939 6.5087 5.5683 1.0000
50.0939 6.6614 5.5705 1.0000
50.0939 6.8141 5.5727 1.0000
50.0939 6.9670 5.5750 1.0000
50.0939 7.7335 5.5873 1.0000
50.0939 8.0410 5.5925 1.0000
50.0939 8.1950 5.5953 1.0000
50.0939 8.3491 5.5980 1.0000
50.0939 8.5034 5.6008 1.0000
50.0939 9.7437 5.6253 1.0000
50.0939 9.8996 5.6286 1.0000
50.0939 10.0555 5.6320 1.0000
50.0939 10.2118 5.6354 1.0000
50.0939 10.5247 5.6424 1.0000
50.0939 10.8384 5.6496 1.0000
50.0939 11.3106 5.6609 1.0000
50.0939 11.4684 5.6647 1.0000
50.0939 11.6265 5.6686 1.0000
50.0939 11.9432 5.6766 1.0000
50.0939 12.5793 5.6933 1.0000
50.0939 12.7390 5.6976 1.0000
50.0939 12.8989 5.7020 1.0000
50.0939 13.0590 5.7064 1.0000
50.0939 13.2194 5.7109 1.0000
50.0940 -13.1441 5.7088 1.0000
50.0940 -12.9838 5.7043 1.0000
50.0939 -12.6640 5.6956 1.0000
50.0940 -12.3453 5.6871 1.0000
50.0940 -11.8688 5.6747 1.0000
50.0940 -11.7104 5.6707 1.0000
50.0940 -11.5523 5.6668 1.0000
50.0939 -11.2366 5.6591 1.0000
50.0940 -11.0791 5.6553 1.0000
50.0940 -10.9219 5.6516 1.0000
50.0940 -10.6079 5.6443 1.0000
50.0940 -10.4512 5.6407 1.0000
50.0940 -10.2947 5.6373 1.0000
50.0940 -9.9823 5.6304 1.0000
50.0940 -9.6707 5.6238 1.0000
50.0940 -9.5151 5.6206 1.0000
50.0939 -9.2045 5.6143 1.0000
50.0940 -8.8946 5.6082 1.0000
50.0939 -8.7400 5.6053 1.0000
50.0940 -8.5854 5.6024 1.0000
50.0940 -8.4311 5.5995 1.0000
50.0940 -8.2768 5.5967 1.0000
50.0940 -7.9688 5.5913 1.0000
50.0939 -7.8150 5.5886 1.0000
50.0940 -7.5079 5.5835 1.0000
50.0939 -6.8953 5.5739 1.0000
50.0939 -6.7424 5.5716 1.0000
50.0939 -6.5897 5.5694 1.0000
50.0939 -6.4371 5.5673 1.0000
50.0939 -6.2846 5.5651 1.0000
50.0939 -5.8279 5.5591 1.0000
50.0939 -5.6759 5.5572 1.0000
50.0939 -5.3721 5.5535 1.0000
50.0939 -4.9172 5.5484 1.0000
50.0939 -4.6144 5.5452 1.0000
50.0939 -4.3119 5.5423 1.0000
50.0939 -4.1608 5.5409 1.0000
50.0939 -3.5571 5.5358 1.0000
50.0939 -2.9543 5.5314 1.0000
50.0939 -2.8037 5.5305 1.0000
50.0939 -2.5028 5.5287 1.0000
50.0939 -2.3523 5.5279 1.0000
50.0939 -2.0517 5.5265 1.0000
50.0939 -1.9014 5.5258 1.0000
50.0939 -1.7512 5.5252 1.0000
50.0939 -1.6009 5.5247 1.0000
50.0939 -1.3006 5.5237 1.0000
50.0939 -1.1505 5.5233 1.0000
50.0939 -0.8502 5.5226 1.0000
50.0939 -0.2499 5.5219 1.0000
50.0939 -0.0999 5.5219 1.0000
50.0939 0.0502 5.5219 1.0000
50.0939 0.5003 5.5221 1.0000
50.0939 0.6504 5.5223 1.0000
50.0939 1.1007 5.5232 1.0000
50.0939 1.2509 5.5236 1.0000
50.0939 1.5512 5.5245 1.0000
50.0939 1.7014 5.5250 1.0000
50.0939 1.8516 5.5256 1.0000
50.0939 2.0019 5.5263 1.0000
50.0939 2.1522 5.5269 1.0000
50.0939 2.3025 5.5277 1.0000
50.0939 2.7538 5.5302 1.0000
50.0939 2.9044 5.5311 1.0000
50.0939 3.2056 5.5331 1.0000
50.0939 3.3563 5.5342 1.0000
50.0939 3.8087 5.5378 1.0000
50.0939 4.4130 5.5432 1.0000
50.0939 4.5643 5.5447 1.0000
50.0939 4.7156 5.5463 1.0000
50.0939 4.8670 5.5479 1.0000
50.0939 5.0186 5.5495 1.0000
50.0939 5.1702 5.5512 1.0000
50.0939 5.3219 5.5529 1.0000
50.0939 5.9296 5.5604 1.0000
50.0939 6.2341 5.5644 1.0000
50.0939 6.5391 5.5687 1.0000
50.0939 6.6918 5.5709 1.0000
50.0939 6.8446 5.5732 1.0000
50.0939 7.1506 5.5778 1.0000
50.0939 7.3038 5.5802 1.0000
50.0939 7.4570 5.5827 1.0000
50.0939 7.7641 5.5878 1.0000
50.0939 8.0716 5.5931 1.0000
50.0939 8.2257 5.5958 1.0000
50.0939 8.3799 5.5986 1.0000
50.0939 8.5342 5.6014 1.0000
50.0939 8.6887 5.6043 1.0000
50.0939 8.8434 5.6072 1.0000
50.0939 8.9982 5.6102 1.0000
50.0939 9.1531 5.6133 1.0000
50.0939 10.0866 5.6327 1.0000
50.0939 10.7127 5.6467 1.0000
50.0939 10.8698 5.6504 1.0000
50.0939 11.1844 5.6578 1.0000
50.0939 11.6580 5.6694 1.0000
50.0939 11.8162 5.6734 1.0000
50.0939 12.4517 5.6899 1.0000
50.0939 12.6111 5.6942 1.0000
50.0939 13.0909 5.7073 1.0000
50.0939 13.2513 5.7118 1.0000
50.0940 -13.1121 5.7079 1.0000
50.0939 -12.9519 5.7034 1.0000
50.0939 -12.3135 5.6862 1.0000
50.0940 -11.9957 5.6780 1.0000
50.0940 -11.6789 5.6699 1.0000
50.0940 -11.3629 5.6621 1.0000
50.0939 4.0505 4.6822 1.0000
50.0939 4.3528 4.6846 1.0000
50.0939 4.6553 4.6871 1.0000
50.0939 4.8067 4.6884 1.0000
50.0939 4.9582 4.6898 1.0000
50.0939 5.1097 4.6912 1.0000
50.0939 5.4132 4.6941 1.0000
50.0939 5.5650 4.6957 1.0000
50.0939 6.1734 4.7023 1.0000
50.0939 6.3258 4.7040 1.0000
50.0939 6.6310 4.7077 1.0000
50.0939 6.9366 4.7115 1.0000
50.0939 7.5493 4.7197 1.0000
50.0939 7.7029 4.7218 1.0000
50.0939 8.0104 4.7263 1.0000
50.0939 8.1643 4.7286 1.0000
50.0939 8.3184 4.7309 1.0000
50.0939 8.4727 4.7333 1.0000
50.0939 8.7817 4.7382 1.0000
50.0939 8.9364 4.7407 1.0000
50.0939 9.2464 4.7458 1.0000
50.0939 9.5571 4.7512 1.0000
50.0939 9.7127 4.7539 1.0000
50.0939 10.0245 4.7595 1.0000
50.0939 10.3370 4.7653 1.0000
50.0939 10.6502 4.7713 1.0000
50.0939 10.9643 4.7775 1.0000
50.0939 11.2792 4.7838 1.0000
50.0939 11.9116 4.7971 1.0000
50.0939 12.2291 4.8040 1.0000
50.0939 12.3882 4.8076 1.0000
50.0939 12.5475 4.8112 1.0000
50.0939 12.7071 4.8148 1.0000
50.0939 12.8670 4.8185 1.0000
50.0939 13.3479 4.8298 1.0000
50.0939 -13.3366 4.8295 1.0000
50.0939 -12.3769 4.8073 1.0000
50.0939 -12.0590 4.8003 1.0000
50.0939 -11.7420 4.7935 1.0000
50.0939 -11.4258 4.7868 1.0000
50.0939 -10.9532 4.7772 1.0000
50.0939 -10.7961 4.7741 1.0000
50.0939 -10.6391 4.7711 1.0000
50.0939 -10.1695 4.7622 1.0000
50.0939 -10.0134 4.7593 1.0000
50.0939 -9.8575 4.7565 1.0000
50.0939 -9.3907 4.7483 1.0000
50.0939 -9.2354 4.7456 1.0000
50.0939 -9.0804 4.7430 1.0000
50.0939 -8.9255 4.7405 1.0000
50.0939 -8.4618 4.7331 1.0000
50.0939 -8.3075 4.7307 1.0000
50.0939 -8.1534 4.7284 1.0000
50.0939 -7.8457 4.7239 1.0000
50.0939 -7.6920 4.7217 1.0000
50.0939 -7.5384 4.7195 1.0000
50.0938 -7.2318 4.7154 1.0000
50.0938 -6.9257 4.7114 1.0000
50.0938 -6.7729 4.7094 1.0000
50.0938 -6.6202 4.7076 1.0000
50.0938 -6.4675 4.7057 1.0000
50.0938 -6.3150 4.7039 1.0000
50.0938 -6.0104 4.7004 1.0000
50.0938 -5.8582 4.6988 1.0000
50.0938 -5.7062 4.6972 1.0000
50.0938 -5.5542 4.6956 1.0000
50.0938 -5.4024 4.6940 1.0000
50.0938 -5.2506 4.6925 1.0000
50.0938 -5.0990 4.6911 1.0000
50.0938 -4.9474 4.6897 1.0000
50.0938 -4.7959 4.6883 1.0000
50.0938 -4.1909 4.6833 1.0000
50.0938 -3.8888 4.6810 1.0000
50.0938 -3.5870 4.6789 1.0000
50.0938 -3.2855 4.6770 1.0000
50.0938 -2.9843 4.6753 1.0000
50.0938 -2.0816 4.6710 1.0000
50.0939 -1.9314 4.6704 1.0000
50.0939 -1.6309 4.6695 1.0000
50.0939 -1.4807 4.6690 1.0000
50.0939 -1.1804 4.6683 1.0000
50.0939 -1.0302 4.6680 1.0000
50.0939 -0.8801 4.6677 1.0000
50.0939 -0.7300 4.6675 1.0000
50.0939 -0.4299 4.6671 1.0000
50.0939 0.1704 4.6670 1.0000
50.0939 0.4704 4.6672 1.0000
50.0939 0.6205 4.6673 1.0000
50.0939 0.9207 4.6678 1.0000
50.0939 1.3711 4.6687 1.0000
50.0939 1.5213 4.6691 1.0000
50.0939 1.8217 4.6701 1.0000
50.0939 2.5734 4.6731 1.0000
50.0939 2.8744 4.6746 1.0000
50.0939 3.7787 4.6802 1.0000
50.0939 4.0807 4.6824 1.0000
50.0939 4.2317 4.6836 1.0000
50.0939 4.5341 4.6861 1.0000
50.0939 4.9884 4.6901 1.0000
50.0939 5.1399 4.6915 1.0000
50.0939 5.4434 4.6945 1.0000
50.0939 5.5953 4.6960 1.0000
50.0939 5.8993 4.6992 1.0000
50.0939 6.0515 4.7009 1.0000
50.0939 6.2038 4.7026 1.0000
50.0939 6.3562 4.7044 1.0000
50.0939 6.5087 4.7062 1.0000
50.0939 6.8142 4.7100 1.0000
50.0939 7.2732 4.7159 1.0000
50.0939 7.4265 4.7180 1.0000
50.0939 7.7335 4.7223 1.0000
50.0939 7.8871 4.7245 1.0000
50.0939 8.0410 4.7267 1.0000
50.0939 8.1950 4.7290 1.0000
50.0939 8.3491 4.7314 1.0000
50.0939 8.5034 4.7337 1.0000
50.0939 9.2774 4.7463 1.0000
50.0939 9.5881 4.7517 1.0000
50.0939 10.0555 4.7601 1.0000
50.0939 10.8385 4.7750 1.0000
50.0939 10.9956 4.7781 1.0000
50.0939 11.1530 4.7813 1.0000
50.0939 11.4684 4.7877 1.0000
50.0939 11.6264 4.7910 1.0000
50.0939 11.9432 4.7978 1.0000
50.0939 12.4199 4.8083 1.0000
50.0939 12.5793 4.8119 1.0000
50.0939 13.0589 4.8230 1.0000
50.0939 13.2193 4.8268 1.0000
50.0939 -13.3045 4.8288 1.0000
50.0939 -13.1441 4.8250 1.0000
50.0939 -12.9838 4.8212 1.0000
50.0939 -12.8237 4.8175 1.0000
50.0939 -12.6640 4.8138 1.0000
50.0939 -11.8687 4.7962 1.0000
50.0939 -11.7104 4.7928 1.0000
50.0939 -11.5523 4.7895 1.0000
50.0939 -11.3943 4.7862 1.0000
50.0939 -11.2366 4.7830 1.0000
50.0939 -11.0791 4.7798 1.0000
50.0939 -10.4512 4.7675 1.0000
50.0939 -10.2947 4.7645 1.0000
50.0939 -10.1384 4.7616 1.0000
50.0939 -9.5151 4.7504 1.0000
50.0939 -9.2045 4.7451 1.0000
50.0939 -9.0495 4.7425 1.0000
50.0939 -8.8946 4.7400 1.0000
50.0939 -8.1227 4.7279 1.0000
50.0939 -7.6614 4.7213 1.0000
50.0938 -7.3545 4.7170 1.0000
50.0938 -7.2013 4.7150 1.0000
50.0938 -7.0482 4.7129 1.0000
50.0938 -6.7424 4.7091 1.0000
50.0938 -6.5897 4.7072 1.0000
50.0938 -6.4371 4.7054 1.0000
50.0938 -6.2846 4.7036 1.0000
50.0938 -6.1323 4.7018 1.0000
50.0938 -5.9801 4.7001 1.0000
50.0938 -5.6759 4.6968 1.0000
50.0938 -5.5240 4.6953 1.0000
50.0938 -5.2204 4.6923 1.0000
50.0938 -4.9173 4.6894 1.0000
50.0938 -4.4631 4.6855 1.0000
50.0938 -4.1608 4.6831 1.0000
50.0938 -4.0098 4.6819 1.0000
50.0938 -3.8588 4.6808 1.0000
50.0938 -3.4063 4.6778 1.0000
50.0938 -3.2555 4.6768 1.0000
50.0938 -2.9543 4.6751 1.0000
50.0938 -2.6532 4.6735 1.0000
50.0938 -2.5028 4.6728 1.0000
50.0938 -2.3524 4.6721 1.0000
50.0939 -2.2020 4.6715 1.0000
50.0939 -2.0517 4.6709 1.0000
50.0939 -1.6009 4.6694 1.0000
50.0939 -1.4507 4.6689 1.0000
50.0939 -1.3006 4.6686 1.0000
50.0939 -1.1504 4.6682 1.0000
50.0939 -1.0003 4.6679 1.0000
50.0939 -0.8502 4.6677 1.0000
50.0939 -0.7001 4.6674 1.0000
50.0939 -0.5500 4.6673 1.0000
50.0939 -0.2500 4.6670 1.0000
50.0939 0.2002 4.6670 1.0000
50.0939 0.6504 4.6674 1.0000
50.0939 0.8005 4.6676 1.0000
50.0939 0.9506 4.6678 1.0000
50.0939 1.1007 4.6681 1.0000
50.0939 1.2508 4.6684 1.0000
50.0939 1.7014 4.6697 1.0000
50.0939 1.8516 4.6702 1.0000
50.0939 2.3025 4.6719 1.0000
50.0939 2.4529 4.6726 1.0000
50.0939 2.6034 4.6733 1.0000
50.0939 2.7539 4.6740 1.0000
50.0939 2.9044 4.6748 1.0000
50.0939 3.0550 4.6757 1.0000
50.0939 3.2056 4.6765 1.0000
50.0939 3.3563 4.6774 1.0000
50.0939 3.5071 4.6784 1.0000
50.0939 3.6579 4.6794 1.0000
50.0939 3.8087 4.6804 1.0000
50.0939 4.5643 4.6863 1.0000
50.0939 4.8670 4.6890 1.0000
50.0939 5.0185 4.6903 1.0000
50.0939 5.3218 4.6932 1.0000
50.0939 5.4736 4.6948 1.0000
50.0939 5.7775 4.6979 1.0000
50.0939 6.0818 4.7012 1.0000
50.0939 6.3866 4.7048 1.0000
50.0939 6.5391 4.7066 1.0000
50.0939 6.6918 4.7084 1.0000
50.0939 6.8446 4.7103 1.0000
50.0939 7.3037 4.7163 1.0000
50.0939 7.4570 4.7184 1.0000
50.0939 7.7641 4.7227 1.0000
50.0939 8.0717 4.7272 1.0000
50.0939 8.2257 4.7295 1.0000
50.0939 8.5342 4.7342 1.0000
50.0939 8.6887 4.7367 1.0000
50.0939 8.8433 4.7391 1.0000
50.0939 9.1531 4.7443 1.0000
50.0939 9.4636 4.7495 1.0000
50.0939 9.6191 4.7522 1.0000
50.0939 9.9306 4.7578 1.0000
50.0939 10.0866 4.7606 1.0000
50.0939 10.8697 4.7756 1.0000
50.0939 11.0270 4.7787 1.0000
50.0939 11.1844 4.7819 1.0000
50.0939 11.4999 4.7884 1.0000
50.0939 11.8162 4.7951 1.0000
50.0939 11.9748 4.7985 1.0000
50.0939 12.1335 4.8019 1.0000
50.0939 12.2925 4.8054 1.0000
50.0939 12.4517 4.8090 1.0000
50.0939 12.7708 4.8163 1.0000
50.0939 12.9307 4.8200 1.0000
50.0939 13.2513 4.8275 1.0000
50.0939 -12.4728 4.8095 1.0000
50.0939 -12.1545 4.8024 1.0000
50.0939 -11.9957 4.7989 1.0000
50.0939 -11.6789 4.7921 1.0000
50.0939 -11.5208 4.7888 1.0000
50.0939 -11.2052 4.7823 1.0000
50.0939 4.2017 3.8282 1.0000
50.0939 4.3528 3.8292 1.0000
50.0939 4.8067 3.8323 1.0000
50.0939 5.1098 3.8346 1.0000
50.0939 5.2614 3.8358 1.0000
50.0939 5.4132 3.8370 1.0000
50.0939 5.7170 3.8396 1.0000
50.0939 5.8690 3.8409 1.0000
50.0939 6.0212 3.8423 1.0000
50.0939 6.3259 3.8451 1.0000
50.0939 6.9366 3.8512 1.0000
50.0939 7.0896 3.8528 1.0000
50.0939 7.3960 3.8561 1.0000
50.0939 7.5493 3.8579 1.0000
50.0939 7.7029 3.8596 1.0000
50.0939 7.8566 3.8614 1.0000
50.0939 8.4727 3.8690 1.0000
50.0939 8.6271 3.8710 1.0000
50.0939 9.2464 3.8792 1.0000
50.0939 9.5571 3.8836 1.0000
50.0939 9.8685 3.8881 1.0000
50.0939 10.0245 3.8904 1.0000
50.0939 10.3370 3.8952 1.0000
50.0939 11.4370 3.9130 1.0000
50.0939 12.2291 3.9268 1.0000
50.0939 12.5476 3.9326 1.0000
50.0939 12.7071 3.9356 1.0000
50.0939 12.8670 3.9386 1.0000
50.0939 -13.3366 3.9477 1.0000
50.0939 -13.1760 3.9445 1.0000
50.0939 -12.8557 3.9384 1.0000
50.0939 -12.6958 3.9354 1.0000
50.0939 -12.3769 3.9295 1.0000
50.0939 -12.2179 3.9266 1.0000
50.0939 -11.9004 3.9210 1.0000
50.0939 -11.7419 3.9182 1.0000
50.0939 -11.4257 3.9128 1.0000
50.0939 -11.2680 3.9101 1.0000
50.0939 -11.1105 3.9075 1.0000
50.0939 -10.9532 3.9049 1.0000
50.0939 -10.1696 3.8926 1.0000
50.0939 -9.3907 3.8812 1.0000
50.0939 -9.0804 3.8770 1.0000
50.0939 -8.7707 3.8728 1.0000
50.0939 -8.6161 3.8708 1.0000
50.0939 -8.4618 3.8688 1.0000
50.0939 -8.3075 3.8669 1.0000
50.0939 -8.1534 3.8650 1.0000
50.0938 -7.3850 3.8560 1.0000
50.0938 -7.0787 3.8527 1.0000
50.0938 -6.7729 3.8495 1.0000
50.0938 -6.6201 3.8480 1.0000
50.0938 -6.3150 3.8450 1.0000
50.0938 -6.0104 3.8422 1.0000
50.0938 -5.8582 3.8408 1.0000
50.0938 -5.5542 3.8382 1.0000
50.0938 -5.4024 3.8369 1.0000
50.0938 -5.0990 3.8345 1.0000
50.0938 -4.9474 3.8334 1.0000
50.0938 -4.7959 3.8322 1.0000
50.0938 -4.4932 3.8301 1.0000
50.0938 -4.3421 3.8291 1.0000
50.0938 -3.5871 3.8246 1.0000
50.0938 -3.4363 3.8238 1.0000
50.0938 -3.2855 3.8230 1.0000
50.0938 -3.1349 3.8223 1.0000
50.0938 -2.9843 3.8216 1.0000
50.0938 -2.6832 3.8203 1.0000
50.0939 -1.9313 3.8176 1.0000
50.0939 -1.7811 3.8172 1.0000
50.0939 -1.4806 3.8165 1.0000
50.0939 -1.3305 3.8161 1.0000
50.0939 -1.1803 3.8159 1.0000
50.0939 -0.7300 3.8152 1.0000
50.0939 -0.5799 3.8151 1.0000
50.0939 0.3204 3.8149 1.0000
50.0939 0.4705 3.8150 1.0000
50.0939 0.7706 3.8152 1.0000
50.0939 0.9207 3.8154 1.0000
50.0939 1.0708 3.8157 1.0000
50.0939 1.3711 3.8162 1.0000
50.0939 1.5213 3.8166 1.0000
50.0939 1.9720 3.8177 1.0000
50.0939 2.2726 3.8187 1.0000
50.0939 2.4230 3.8193 1.0000
50.0939 2.5734 3.8198 1.0000
50.0939 2.8744 3.8211 1.0000
50.0939 3.0250 3.8217 1.0000
50.0939 3.1756 3.8225 1.0000
50.0939 3.7787 3.8256 1.0000
50.0939 4.3829 3.8294 1.0000
50.0939 4.5341 3.8304 1.0000
50.0939 4.9884 3.8337 1.0000
50.0939 5.1400 3.8348 1.0000
50.0939 5.4434 3.8372 1.0000
50.0939 5.7473 3.8398 1.0000
50.0939 6.0515 3.8425 1.0000
50.0939 6.3562 3.8454 1.0000
50.0939 6.9671 3.8515 1.0000
50.0939 7.1201 3.8531 1.0000
50.0939 7.2732 3.8548 1.0000
50.0939 7.5799 3.8582 1.0000
50.0939 7.8872 3.8618 1.0000
50.0939 8.1950 3.8655 1.0000
50.0939 8.3492 3.8674 1.0000
50.0939 8.5035 3.8694 1.0000
50.0939 8.6579 3.8714 1.0000
50.0939 9.2774 3.8797 1.0000
50.0939 9.5881 3.8840 1.0000
50.0939 9.7437 3.8863 1.0000
50.0939 9.8996 3.8886 1.0000
50.0939 10.0556 3.8909 1.0000
50.0939 10.2118 3.8932 1.0000
50.0939 10.3682 3.8956 1.0000
50.0939 10.8385 3.9031 1.0000
50.0939 10.9957 3.9056 1.0000
50.0939 12.5793 3.9332 1.0000
50.0939 12.7390 3.9362 1.0000
50.0939 12.8989 3.9392 1.0000
50.0939 13.2193 3.9454 1.0000
50.0939 -13.3045 3.9471 1.0000
50.0939 -12.9838 3.9409 1.0000
50.0939 -12.5045 3.9318 1.0000
50.0939 -11.5523 3.9149 1.0000
50.0939 -11.2366 3.9096 1.0000
50.0939 -11.0791 3.9070 1.0000
50.0939 -10.6079 3.8994 1.0000
50.0939 -10.4512 3.8969 1.0000
50.0939 -10.2947 3.8945 1.0000
50.0939 -10.1384 3.8921 1.0000
50.0939 -9.9823 3.8898 1.0000
50.0939 -9.8264 3.8875 1.0000
50.0939 -9.6707 3.8852 1.0000
50.0939 -9.5151 3.8830 1.0000
50.0939 -9.2045 3.8787 1.0000
50.0939 -8.8946 3.8745 1.0000
50.0939 -8.7399 3.8724 1.0000
50.0939 -8.1227 3.8646 1.0000
50.0939 -7.9688 3.8628 1.0000
50.0939 -7.8150 3.8609 1.0000
50.0938 -7.2013 3.8540 1.0000
50.0938 -7.0482 3.8524 1.0000
50.0938 -6.8953 3.8508 1.0000
50.0938 -6.5897 3.8477 1.0000
50.0938 -6.4371 3.8462 1.0000
50.0938 -6.1323 3.8433 1.0000
50.0938 -5.8279 3.8405 1.0000
50.0938 -5.3721 3.8367 1.0000
50.0938 -5.2204 3.8355 1.0000
50.0938 -5.0688 3.8343 1.0000
50.0938 -4.9172 3.8331 1.0000
50.0938 -4.7658 3.8320 1.0000
50.0938 -4.6144 3.8309 1.0000
50.0938 -4.4631 3.8299 1.0000
50.0938 -4.3119 3.8289 1.0000
50.0938 -3.7079 3.8252 1.0000
50.0938 -3.4063 3.8236 1.0000
50.0938 -3.1049 3.8221 1.0000
50.0938 -2.9543 3.8214 1.0000
50.0939 -2.5028 3.8196 1.0000
50.0939 -2.3523 3.8190 1.0000
50.0939 -2.0517 3.8180 1.0000
50.0939 -1.9014 3.8175 1.0000
50.0939 -1.6009 3.8167 1.0000
50.0939 -1.4507 3.8164 1.0000
50.0939 -0.5500 3.8150 1.0000
50.0939 -0.2499 3.8148 1.0000
50.0939 -0.0999 3.8148 1.0000
50.0939 0.2002 3.8148 1.0000
50.0939 0.3503 3.8149 1.0000
50.0939 0.6504 3.8151 1.0000
50.0939 1.1007 3.8157 1.0000
50.0939 1.2509 3.8160 1.0000
50.0939 1.5512 3.8166 1.0000
50.0939 1.7014 3.8170 1.0000
50.0939 1.8516 3.8174 1.0000
50.0939 2.3026 3.8188 1.0000
50.0939 2.4530 3.8194 1.0000
50.0939 2.6034 3.8199 1.0000
50.0939 3.2057 3.8226 1.0000
50.0939 3.5071 3.8241 1.0000
50.0939 3.8088 3.8258 1.0000
50.0939 3.9597 3.8267 1.0000
50.0939 4.1107 3.8276 1.0000
50.0939 4.5643 3.8306 1.0000
50.0939 4.8670 3.8328 1.0000
50.0939 5.0186 3.8339 1.0000
50.0939 5.1702 3.8351 1.0000
50.0939 5.3219 3.8363 1.0000
50.0939 5.6256 3.8388 1.0000
50.0939 5.7775 3.8401 1.0000
50.0939 6.5392 3.8472 1.0000
50.0939 6.6918 3.8487 1.0000
50.0939 6.9975 3.8518 1.0000
50.0939 7.1506 3.8535 1.0000
50.0939 7.3038 3.8551 1.0000
50.0939 7.4571 3.8568 1.0000
50.0939 7.9178 3.8622 1.0000
50.0939 8.0717 3.8640 1.0000
50.0939 8.2257 3.8659 1.0000
50.0939 8.5342 3.8698 1.0000
50.0939 8.6887 3.8718 1.0000
50.0939 8.9982 3.8759 1.0000
50.0939 9.3083 3.8801 1.0000
50.0939 9.7748 3.8867 1.0000
50.0939 9.9307 3.8890 1.0000
50.0939 10.0867 3.8914 1.0000
50.0939 10.2429 3.8937 1.0000
50.0939 10.3993 3.8961 1.0000
50.0939 10.5559 3.8986 1.0000
50.0939 10.8698 3.9036 1.0000
50.0939 11.0270 3.9061 1.0000
50.0939 11.1844 3.9087 1.0000
50.0939 11.3420 3.9114 1.0000
50.0939 11.6580 3.9167 1.0000
50.0939 12.2925 3.9280 1.0000
50.0939 12.9307 3.9398 1.0000
50.0939 13.2513 3.9460 1.0000
50.0939 13.4120 3.9492 1.0000
50.0939 -13.2725 3.9464 1.0000
50.0939 -13.1121 3.9433 1.0000
50.0939 -12.4728 3.9313 1.0000
50.0939 -12.3135 3.9284 1.0000
50.0939 -12.1545 3.9255 1.0000
50.0939 -11.8372 3.9199 1.0000
50.0939 -11.6789 3.9171 1.0000
50.0939 4.5040 2.9768 1.0000
50.0939 4.8067 2.9784 1.0000
50.0939 4.9582 2.9793 1.0000
50.0939 5.7170 2.9840 1.0000
50.0939 5.8690 2.9851 1.0000
50.0939 6.0212 2.9861 1.0000
50.0939 6.3259 2.9883 1.0000
50.0939 6.4784 2.9895 1.0000
50.0939 6.7837 2.9919 1.0000
50.0939 6.9366 2.9931 1.0000
50.0939 7.0896 2.9944 1.0000
50.0939 7.2427 2.9956 1.0000
50.0939 7.7029 2.9996 1.0000
50.0939 7.8566 3.0010 1.0000
50.0939 8.0104 3.0025 1.0000
50.0939 8.1643 3.0039 1.0000
50.0939 8.3184 3.0054 1.0000
50.0939 8.4727 3.0069 1.0000
50.0939 8.6271 3.0084 1.0000
50.0939 8.7817 3.0100 1.0000
50.0939 9.4017 3.0166 1.0000
50.0939 9.5571 3.0183 1.0000
50.0939 9.7127 3.0200 1.0000
50.0939 10.0245 3.0236 1.0000
50.0939 10.1806 3.0254 1.0000
50.0939 10.4935 3.0292 1.0000
50.0939 11.1216 3.0370 1.0000
50.0939 11.4370 3.0411 1.0000
50.0939 12.0702 3.0497 1.0000
50.0939 12.2291 3.0519 1.0000
50.0939 12.5476 3.0564 1.0000
50.0939 13.1873 3.0658 1.0000
50.0939 13.3480 3.0682 1.0000
50.0939 -13.3365 3.0681 1.0000
50.0939 -12.6958 3.0585 1.0000
50.0939 -12.5363 3.0562 1.0000
50.0939 -12.3769 3.0540 1.0000
50.0939 -12.2178 3.0517 1.0000
50.0939 -12.0589 3.0495 1.0000
50.0939 -11.7419 3.0452 1.0000
50.0939 -11.5837 3.0430 1.0000
50.0939 -11.2680 3.0389 1.0000
50.0939 -11.1105 3.0368 1.0000
50.0939 -10.9532 3.0348 1.0000
50.0939 -10.7960 3.0329 1.0000
50.0939 -10.4824 3.0290 1.0000
50.0939 -10.3259 3.0271 1.0000
50.0939 -10.0134 3.0235 1.0000
50.0939 -9.7017 3.0199 1.0000
50.0939 -9.5461 3.0182 1.0000
50.0939 -9.3907 3.0164 1.0000
50.0939 -9.0804 3.0131 1.0000
50.0939 -8.9254 3.0115 1.0000
50.0939 -8.7707 3.0099 1.0000
50.0939 -8.6161 3.0083 1.0000
50.0939 -8.4618 3.0068 1.0000
50.0938 -6.9257 2.9930 1.0000
50.0938 -6.7729 2.9918 1.0000
50.0938 -6.6201 2.9906 1.0000
50.0938 -6.4675 2.9894 1.0000
50.0938 -6.3150 2.9883 1.0000
50.0938 -6.1627 2.9872 1.0000
50.0938 -6.0104 2.9861 1.0000
50.0938 -5.7061 2.9840 1.0000
50.0938 -5.4024 2.9820 1.0000
50.0938 -5.0990 2.9801 1.0000
25.0527 -2.3229 1.4891 1.0000
25.0513 -2.0203 1.4875 1.0000
25.0510 -1.9448 1.4871 1.0000
25.0506 -1.8693 1.4867 1.0000
25.0504 -1.7938 1.4864 1.0000
25.0524 -1.6432 1.4859 1.0000
25.0537 -1.5679 1.4857 1.0000
25.0536 -1.2667 1.4847 1.0000
25.0523 -1.1162 1.4842 1.0000
25.0517 -1.0411 1.4840 1.0000
25.0510 -0.9658 1.4837 1.0000
25.0515 -0.8907 1.4836 1.0000
25.0527 -0.8157 1.4835 1.0000
25.0540 -0.7406 1.4835 1.0000
25.0553 -0.6655 1.4834 1.0000
25.0592 -0.4403 1.4834 1.0000
25.0605 -0.2151 1.4833 1.0000
25.0609 -0.1400 1.4832 1.0000
25.0616 0.0101 1.4833 1.0000
25.0643 0.5358 1.4838 1.0000
25.0650 0.6860 1.4840 1.0000
25.0654 0.7612 1.4842 1.0000
50.0939 1.9720 2.9671 1.0000
50.0939 2.2726 2.9678 1.0000
50.0939 2.4230 2.9683 1.0000
50.0939 3.1756 2.9708 1.0000
50.0939 3.4770 2.9719 1.0000
50.0939 3.6279 2.9726 1.0000
50.0939 3.7787 2.9732 1.0000
50.0939 4.0806 2.9746 1.0000
50.0939 4.2317 2.9754 1.0000
50.0939 4.3829 2.9761 1.0000
50.0939 4.5341 2.9769 1.0000
50.0939 4.8369 2.9786 1.0000
50.0939 4.9884 2.9795 1.0000
50.0939 5.1399 2.9804 1.0000
50.0939 5.2916 2.9813 1.0000
50.0939 5.4434 2.9822 1.0000
50.0939 5.5953 2.9832 1.0000
50.0939 5.8993 2.9853 1.0000
50.0939 6.3562 2.9886 1.0000
50.0939 6.5087 2.9897 1.0000
50.0939 6.6614 2.9909 1.0000
50.0939 6.8141 2.9921 1.0000
50.0939 7.1201 2.9946 1.0000
50.0939 7.7334 2.9999 1.0000
50.0939 8.1950 3.0042 1.0000
50.0939 8.9673 3.0119 1.0000
50.0939 9.4327 3.0169 1.0000
50.0939 9.8995 3.0221 1.0000
50.0939 10.0555 3.0239 1.0000
50.0939 10.2117 3.0258 1.0000
50.0939 10.5247 3.0295 1.0000
50.0939 10.6815 3.0315 1.0000
50.0939 10.8385 3.0334 1.0000
50.0939 11.1530 3.0374 1.0000
50.0939 11.3106 3.0394 1.0000
50.0939 11.4684 3.0415 1.0000
50.0939 11.7847 3.0457 1.0000
50.0939 12.2608 3.0523 1.0000
50.0939 12.4199 3.0546 1.0000
50.0939 12.5793 3.0568 1.0000
50.0939 12.8988 3.0615 1.0000
50.0939 13.3800 3.0687 1.0000
50.0939 -13.3046 3.0676 1.0000
50.0939 -12.6640 3.0581 1.0000
50.0939 -12.5045 3.0558 1.0000
50.0939 -12.1861 3.0513 1.0000
50.0939 -12.0273 3.0491 1.0000
50.0939 -11.3943 3.0405 1.0000
50.0939 -11.0791 3.0364 1.0000
50.0939 -10.9218 3.0345 1.0000
50.0939 -10.4512 3.0286 1.0000
50.0939 -9.3597 3.0161 1.0000
50.0939 -9.2045 3.0144 1.0000
50.0939 -9.0495 3.0128 1.0000
50.0939 -8.7399 3.0096 1.0000
50.0939 -8.5854 3.0080 1.0000
50.0939 -7.9688 3.0021 1.0000
50.0939 -7.8150 3.0007 1.0000
50.0939 -7.6614 2.9993 1.0000
50.0939 -7.5079 2.9979 1.0000
50.0938 -7.3545 2.9966 1.0000
50.0938 -7.0482 2.9940 1.0000
50.0938 -6.8953 2.9928 1.0000
50.0938 -6.7424 2.9915 1.0000
50.0938 -6.4371 2.9892 1.0000
50.0938 -5.9801 2.9859 1.0000
50.0938 -5.8279 2.9848 1.0000
50.0938 -5.5239 2.9828 1.0000
50.0938 -5.3721 2.9818 1.0000
50.0938 -5.2204 2.9809 1.0000
50.0938 -5.0688 2.9799 1.0000
25.0530 -2.3835 1.4895 1.0000
25.0520 -2.1564 1.4882 1.0000
25.0513 -2.0052 1.4874 1.0000
25.0509 -1.9297 1.4870 1.0000
25.0506 -1.8542 1.4867 1.0000
25.0513 -1.7035 1.4861 1.0000
25.0548 -1.4776 1.4854 1.0000
25.0545 -1.4023 1.4852 1.0000
25.0541 -1.3270 1.4849 1.0000
25.0523 -1.1013 1.4841 1.0000
25.0516 -1.0260 1.4839 1.0000
25.0568 -0.5755 1.4834 1.0000
25.0595 -0.4254 1.4834 1.0000
25.0598 -0.3503 1.4833 1.0000
25.0606 -0.2002 1.4833 1.0000
25.0609 -0.1250 1.4832 1.0000
25.0613 -0.0500 1.4833 1.0000
25.0632 0.3254 1.4835 1.0000
25.0636 0.4005 1.4836 1.0000
25.0639 0.4756 1.4837 1.0000
50.0939 1.7014 2.9665 1.0000
50.0939 2.3026 2.9679 1.0000
50.0939 2.6034 2.9688 1.0000
50.0939 2.9044 2.9698 1.0000
50.0939 3.0550 2.9703 1.0000
50.0939 3.6579 2.9727 1.0000
50.0939 3.8087 2.9734 1.0000
50.0939 4.1107 2.9748 1.0000
50.0939 4.4130 2.9763 1.0000
50.0939 4.7156 2.9779 1.0000
50.0939 4.8670 2.9788 1.0000
50.0939 5.0186 2.9796 1.0000
50.0939 5.4736 2.9824 1.0000
50.0939 5.6255 2.9834 1.0000
50.0939 5.9296 2.9855 1.0000
50.0939 6.0819 2.9866 1.0000
50.0939 6.5391 2.9900 1.0000
50.0939 6.9975 2.9936 1.0000
50.0939 7.3038 2.9961 1.0000
50.0939 7.4570 2.9975 1.0000
50.0939 7.6105 2.9988 1.0000
50.0939 7.9178 3.0016 1.0000
50.0939 8.0717 3.0030 1.0000
50.0939 8.2257 3.0045 1.0000
50.0939 8.6887 3.0091 1.0000
50.0939 8.8434 3.0106 1.0000
50.0939 8.9981 3.0122 1.0000
50.0939 9.3082 3.0156 1.0000
50.0939 9.4636 3.0172 1.0000
50.0939 9.7748 3.0207 1.0000
50.0939 9.9306 3.0225 1.0000
50.0939 10.2429 3.0261 1.0000
50.0939 10.3993 3.0280 1.0000
50.0939 10.7127 3.0318 1.0000
50.0939 10.8697 3.0338 1.0000
50.0939 11.0270 3.0358 1.0000
50.0939 11.3420 3.0398 1.0000
50.0939 11.4999 3.0419 1.0000
50.0939 12.6111 3.0573 1.0000
50.0939 12.9307 3.0620 1.0000
50.0939 13.2513 3.0668 1.0000
50.0939 13.4120 3.0692 1.0000
50.0939 -12.9519 3.0623 1.0000
50.0939 -12.1545 3.0508 1.0000
50.0939 -11.8372 3.0464 1.0000
50.0939 -11.6789 3.0443 1.0000
50.0939 -11.5207 3.0422 1.0000
50.0939 -11.3629 3.0401 1.0000
50.0939 -11.2052 3.0381 1.0000
25.2512 2.0418 1.0704 1.0000
24.8476 2.1591 1.0538 1.0000
25.2808 2.3494 1.0727 1.0000
25.2849 2.4262 1.0732 1.0000
25.2933 2.5800 1.0742 1.0000
50.0938 5.2614 2.1281 1.0000
50.0938 5.5650 2.1295 1.0000
50.0938 5.8690 2.1310 1.0000
50.0938 6.1735 2.1325 1.0000
50.0938 6.6310 2.1350 1.0000
50.0938 6.7837 2.1358 1.0000
50.0938 6.9366 2.1367 1.0000
50.0938 7.2427 2.1385 1.0000
50.0938 7.5493 2.1404 1.0000
50.0938 7.7029 2.1414 1.0000
50.0938 8.0104 2.1434 1.0000
50.0938 8.1643 2.1444 1.0000
50.0938 8.3184 2.1455 1.0000
50.0938 8.4727 2.1466 1.0000
50.0938 8.6271 2.1477 1.0000
50.0938 8.7817 2.1488 1.0000
50.0938 8.9364 2.1499 1.0000
50.0938 9.5571 2.1547 1.0000
50.0938 9.8685 2.1572 1.0000
50.0938 10.1806 2.1598 1.0000
50.0938 11.1217 2.1680 1.0000
50.0938 11.7532 2.1740 1.0000
50.0938 12.3882 2.1803 1.0000
50.0938 12.5475 2.1819 1.0000
50.0938 12.8670 2.1852 1.0000
50.0938 13.3479 2.1904 1.0000
50.0939 -13.3366 2.1902 1.0000
50.0939 -13.1760 2.1885 1.0000
50.0939 -12.6958 2.1834 1.0000
50.0939 -12.5363 2.1818 1.0000
50.0939 -12.0589 2.1770 1.0000
50.0939 -11.9003 2.1754 1.0000
50.0939 -11.7419 2.1739 1.0000
50.0939 -11.5837 2.1724 1.0000
50.0939 -11.2680 2.1694 1.0000
50.0939 -11.1105 2.1679 1.0000
50.0939 -10.9531 2.1665 1.0000
50.0939 -10.7960 2.1651 1.0000
50.0939 -10.6391 2.1637 1.0000
50.0939 -10.4823 2.1623 1.0000
50.0939 -10.3259 2.1610 1.0000
50.0939 -10.1695 2.1597 1.0000
50.0939 -10.0134 2.1584 1.0000
50.0939 -9.8574 2.1571 1.0000
50.0939 -9.3907 2.1534 1.0000
50.0938 -9.2354 2.1522 1.0000
50.0939 -9.0804 2.1510 1.0000
50.0939 -8.9255 2.1498 1.0000
50.0939 -8.7707 2.1487 1.0000
50.0939 -8.3075 2.1454 1.0000
50.0939 -7.9995 2.1433 1.0000
50.0939 -7.8456 2.1423 1.0000
50.0939 -7.6920 2.1413 1.0000
50.0938 -6.7729 2.1358 1.0000
50.0938 -6.6201 2.1349 1.0000
50.0938 -6.4675 2.1341 1.0000
50.0938 -6.3150 2.1333 1.0000
50.0938 -6.1627 2.1325 1.0000
50.0938 -5.8582 2.1309 1.0000
50.0938 -5.2506 2.1281 1.0000
50.0938 -5.0990 2.1274 1.0000
50.0938 -4.9474 2.1268 1.0000
25.0075 -2.3942 1.0614 1.0000
25.0173 -1.7161 1.0595 1.0000
25.0186 -1.6409 1.0593 1.0000
25.0198 -1.5657 1.0592 1.0000
25.0210 -1.4906 1.0590 1.0000
25.0219 -1.4155 1.0589 1.0000
25.0228 -1.3403 1.0588 1.0000
25.0238 -1.2652 1.0586 1.0000
25.0238 -1.1900 1.0585 1.0000
25.0248 -1.0399 1.0582 1.0000
25.0258 -0.9648 1.0581 1.0000
25.0268 -0.8898 1.0581 1.0000
25.0281 -0.8148 1.0580 1.0000
25.0334 -0.5148 1.0579 1.0000
25.0359 -0.3648 1.0579 1.0000
25.0386 -0.2149 1.0579 1.0000
25.0439 0.0851 1.0581 1.0000
25.0452 0.1602 1.0582 1.0000
25.0491 0.3853 1.0585 1.0000
25.0505 0.4604 1.0586 1.0000
25.0516 0.6106 1.0588 1.0000
25.0520 0.6857 1.0589 1.0000
25.0523 0.7608 1.0590 1.0000
25.2377 0.8421 1.0669 1.0000
25.2364 0.9178 1.0670 1.0000
25.2325 1.0690 1.0670 1.0000
25.2317 1.1446 1.0672 1.0000
25.2332 1.2205 1.0674 1.0000
25.2321 1.2962 1.0675 1.0000
25.2309 1.4478 1.0678 1.0000
25.2329 1.5237 1.0681 1.0000
25.2375 1.6757 1.0687 1.0000
25.2445 1.9803 1.0699 1.0000
25.2528 2.0571 1.0705 1.0000
25.2614 2.1340 1.0711 1.0000
25.2775 2.2879 1.0724 1.0000
50.0938 5.1400 2.1276 1.0000
50.0938 5.4434 2.1290 1.0000
50.0938 5.7473 2.1304 1.0000
50.0938 6.3562 2.1335 1.0000
50.0938 6.5087 2.1343 1.0000
50.0938 6.8141 2.1360 1.0000
50.0938 6.9671 2.1369 1.0000
50.0938 7.2732 2.1387 1.0000
50.0938 7.4265 2.1396 1.0000
50.0938 7.8871 2.1426 1.0000
50.0938 8.0410 2.1436 1.0000
50.0938 8.3492 2.1457 1.0000
50.0938 8.6579 2.1479 1.0000
50.0938 8.9673 2.1501 1.0000
50.0938 9.1222 2.1513 1.0000
50.0938 9.4326 2.1537 1.0000
50.0938 9.7437 2.1562 1.0000
50.0938 9.8996 2.1574 1.0000
50.0938 10.2118 2.1600 1.0000
50.0938 10.3681 2.1614 1.0000
50.0938 10.5247 2.1627 1.0000
50.0938 11.3106 2.1698 1.0000
50.0938 11.6264 2.1728 1.0000
50.0938 11.9432 2.1758 1.0000
50.0938 12.2607 2.1790 1.0000
50.0938 12.7389 2.1839 1.0000
50.0938 13.0589 2.1872 1.0000
50.0938 13.2193 2.1890 1.0000
50.0939 -12.6640 2.1831 1.0000
50.0939 -12.5045 2.1815 1.0000
50.0939 -12.0273 2.1767 1.0000
50.0939 -11.8687 2.1751 1.0000
50.0939 -11.5523 2.1721 1.0000
50.0939 -11.3943 2.1706 1.0000
50.0939 -11.2366 2.1691 1.0000
50.0939 -10.9218 2.1662 1.0000
50.0939 -10.7648 2.1648 1.0000
50.0939 -10.1384 2.1594 1.0000
50.0939 -9.9823 2.1581 1.0000
50.0939 -9.8264 2.1568 1.0000
50.0939 -9.6707 2.1556 1.0000
50.0938 -9.3597 2.1531 1.0000
50.0939 -9.2045 2.1519 1.0000
50.0939 -8.8946 2.1496 1.0000
50.0939 -8.7399 2.1485 1.0000
50.0939 -8.5854 2.1474 1.0000
50.0939 -8.1227 2.1442 1.0000
50.0939 -7.8150 2.1421 1.0000
50.0939 -7.6614 2.1411 1.0000
50.0939 -7.5079 2.1401 1.0000
50.0938 -7.0482 2.1373 1.0000
50.0938 -6.8952 2.1365 1.0000
50.0938 -6.7424 2.1356 1.0000
50.0938 -6.4371 2.1339 1.0000
50.0938 -5.8279 2.1308 1.0000
50.0938 -5.3721 2.1286 1.0000
50.0938 -5.2204 2.1280 1.0000
50.0938 -4.9172 2.1267 1.0000
25.0074 -2.3791 1.0614 1.0000
25.0072 -2.3036 1.0610 1.0000
25.0085 -2.2282 1.0608 1.0000
25.0124 -2.0021 1.0602 1.0000
25.0137 -1.9268 1.0600 1.0000
25.0149 -1.8516 1.0598 1.0000
25.0188 -1.6260 1.0593 1.0000
25.0201 -1.5508 1.0591 1.0000
25.0211 -1.4756 1.0590 1.0000
25.0221 -1.4005 1.0589 1.0000
25.0230 -1.3254 1.0587 1.0000
25.0238 -1.2502 1.0586 1.0000
25.0260 -0.9499 1.0581 1.0000
25.0271 -0.8749 1.0581 1.0000
25.0284 -0.7999 1.0580 1.0000
25.0323 -0.5749 1.0579 1.0000
25.0350 -0.4249 1.0579 1.0000
25.0388 -0.1999 1.0579 1.0000
25.0415 -0.0500 1.0580 1.0000
25.0441 0.1001 1.0581 1.0000
25.0468 0.2502 1.0583 1.0000
25.0520 0.7007 1.0589 1.0000
25.2359 0.9328 1.0670 1.0000
25.2338 1.0085 1.0670 1.0000
25.2312 1.4629 1.0678 1.0000
25.2333 1.5388 1.0681 1.0000
25.2355 1.6149 1.0684 1.0000
25.2380 1.6909 1.0687 1.0000
25.2402 1.7671 1.0690 1.0000
25.2434 1.9193 1.0696 1.0000
25.2461 1.9955 1.0700 1.0000
25.0045 2.1273 1.0603 1.0000
24.8476 2.1889 1.0539 1.0000
25.2783 2.3032 1.0725 1.0000
25.2866 2.4568 1.0734 1.0000
25.2908 2.5337 1.0739 1.0000
50.0938 5.7775 2.1305 1.0000
50.0938 6.2342 2.1328 1.0000
50.0938 6.3866 2.1336 1.0000
50.0938 6.5391 2.1345 1.0000
50.0938 6.6918 2.1353 1.0000
50.0938 6.9975 2.1371 1.0000
50.0938 7.1505 2.1380 1.0000
50.0938 7.3037 2.1389 1.0000
50.0938 7.6105 2.1408 1.0000
50.0938 7.9178 2.1428 1.0000
50.0938 8.2257 2.1448 1.0000
50.0938 8.3799 2.1459 1.0000
50.0938 8.5342 2.1470 1.0000
50.0938 8.6887 2.1481 1.0000
50.0938 8.9981 2.1504 1.0000
50.0938 9.1531 2.1515 1.0000
50.0938 9.3082 2.1527 1.0000
50.0938 9.7748 2.1564 1.0000
50.0938 10.2429 2.1603 1.0000
50.0938 10.3993 2.1616 1.0000
50.0938 10.7127 2.1644 1.0000
50.0938 10.8698 2.1658 1.0000
50.0938 11.0270 2.1672 1.0000
50.0938 11.4999 2.1716 1.0000
50.0938 12.6111 2.1825 1.0000
50.0938 12.7708 2.1842 1.0000
50.0938 12.9307 2.1859 1.0000
50.0939 -12.7920 2.1844 1.0000
50.0939 -12.6322 2.1828 1.0000
50.0939 -12.3135 2.1795 1.0000
50.0939 -11.9957 2.1763 1.0000
50.0939 -11.8372 2.1748 1.0000
50.0938 -11.3629 2.1703 1.0000
25.2152 2.1149 0.6412 1.0000
25.2221 2.2678 0.6417 1.0000
25.2254 2.3442 0.6420 1.0000
25.2288 2.4208 0.6423 1.0000
25.2320 2.4974 0.6425 1.0000
25.2354 2.5741 0.6428 1.0000
50.0938 5.2614 1.2764 1.0000
50.0938 5.5650 1.2772 1.0000
50.0938 5.7170 1.2777 1.0000
50.0938 6.0212 1.2786 1.0000
50.0938 6.4784 1.2800 1.0000
50.0938 6.6310 1.2805 1.0000
50.0938 6.7837 1.2810 1.0000
50.0938 7.0896 1.2821 1.0000
50.0938 7.5493 1.2838 1.0000
50.0938 8.0104 1.2855 1.0000
50.0938 8.3184 1.2868 1.0000
50.0938 8.6271 1.2881 1.0000
50.0938 8.7818 1.2888 1.0000
50.0938 8.9365 1.2895 1.0000
50.0938 9.2464 1.2909 1.0000
50.0938 9.7127 1.2931 1.0000
50.0938 10.0245 1.2946 1.0000
50.0938 10.1806 1.2954 1.0000
50.0938 10.4936 1.2970 1.0000
50.0938 10.6503 1.2978 1.0000
50.0938 10.8072 1.2986 1.0000
50.0938 11.4370 1.3021 1.0000
50.0938 11.5950 1.3030 1.0000
50.0938 11.7532 1.3039 1.0000
50.0938 11.9116 1.3048 1.0000
50.0938 12.3882 1.3077 1.0000
50.0938 12.8670 1.3106 1.0000
50.0938 13.0271 1.3116 1.0000
50.0938 13.1874 1.3127 1.0000
50.0938 13.3480 1.3137 1.0000
50.0939 -13.3365 1.3136 1.0000
50.0939 -13.1760 1.3126 1.0000
50.0938 -12.8556 1.3106 1.0000
50.0939 -12.2179 1.3066 1.0000
50.0939 -12.0590 1.3057 1.0000
50.0938 -11.9003 1.3047 1.0000
50.0939 -11.5837 1.3029 1.0000
50.0938 -11.2680 1.3011 1.0000
50.0938 -10.6391 1.2977 1.0000
50.0939 -10.4824 1.2969 1.0000
50.0939 -10.3259 1.2961 1.0000
50.0939 -10.1696 1.2953 1.0000
50.0938 -9.5461 1.2923 1.0000
50.0938 -9.3907 1.2915 1.0000
50.0938 -9.0804 1.2901 1.0000
50.0939 -8.9255 1.2894 1.0000
50.0939 -8.7707 1.2887 1.0000
50.0939 -8.6162 1.2881 1.0000
50.0938 -8.4618 1.2874 1.0000
50.0938 -8.1534 1.2861 1.0000
50.0938 -7.9994 1.2855 1.0000
50.0938 -7.2318 1.2826 1.0000
50.0938 -7.0787 1.2820 1.0000
50.0938 -6.7729 1.2810 1.0000
50.0938 -6.4675 1.2800 1.0000
50.0938 -6.1626 1.2790 1.0000
50.0938 -6.0104 1.2785 1.0000
50.0938 -5.7062 1.2776 1.0000
50.0938 -5.4024 1.2768 1.0000
50.0938 -5.2507 1.2764 1.0000
50.0938 -4.9474 1.2756 1.0000
24.9752 -2.1648 0.6353 1.0000
24.9765 -2.0896 0.6351 1.0000
24.9783 -2.0145 0.6350 1.0000
24.9807 -1.9393 0.6349 1.0000
24.9830 -1.8642 0.6349 1.0000
24.9902 -1.6391 0.6346 1.0000
24.9971 -1.4141 0.6345 1.0000
25.0017 -1.1890 0.6343 1.0000
25.0040 -1.0391 0.6342 1.0000
25.0065 -0.9641 0.6342 1.0000
25.0112 -0.8143 0.6341 1.0000
25.0136 -0.7394 0.6341 1.0000
25.0159 -0.6644 0.6341 1.0000
25.0229 -0.4396 0.6342 1.0000
25.0252 -0.3647 0.6342 1.0000
25.0298 -0.2148 0.6343 1.0000
25.0406 0.3102 0.6346 1.0000
25.0444 0.5353 0.6348 1.0000
25.0457 0.6104 0.6349 1.0000
25.0469 0.6855 0.6349 1.0000
25.0481 0.7607 0.6350 1.0000
25.2070 0.9923 0.6393 1.0000
25.2055 1.0678 0.6393 1.0000
25.2024 1.2947 0.6395 1.0000
25.2013 1.3703 0.6396 1.0000
25.2037 1.5977 0.6400 1.0000
25.2045 1.6736 0.6401 1.0000
25.2054 1.7495 0.6403 1.0000
25.2058 1.8254 0.6404 1.0000
25.2227 2.2830 0.6418 1.0000
25.2261 2.3595 0.6420 1.0000
50.0938 5.2916 1.2765 1.0000
50.0938 5.4434 1.2769 1.0000
50.0938 5.5953 1.2773 1.0000
50.0938 5.7473 1.2777 1.0000
50.0938 6.5088 1.2801 1.0000
50.0938 6.6614 1.2806 1.0000
50.0938 7.2732 1.2827 1.0000
50.0938 7.7335 1.2845 1.0000
50.0938 7.8872 1.2851 1.0000
50.0938 8.0411 1.2857 1.0000
50.0938 8.1950 1.2863 1.0000
50.0938 8.3492 1.2869 1.0000
50.0938 8.9673 1.2896 1.0000
50.0938 9.1223 1.2903 1.0000
50.0938 9.2774 1.2910 1.0000
50.0938 9.8996 1.2940 1.0000
50.0938 10.3682 1.2963 1.0000
50.0938 10.5247 1.2971 1.0000
50.0938 10.6815 1.2980 1.0000
50.0938 10.8385 1.2988 1.0000
50.0938 10.9957 1.2996 1.0000
50.0938 11.1530 1.3005 1.0000
50.0938 11.3106 1.3014 1.0000
50.0938 11.4684 1.3023 1.0000
50.0938 11.9432 1.3050 1.0000
50.0938 12.1019 1.3059 1.0000
50.0938 12.4200 1.3079 1.0000
50.0938 12.5793 1.3088 1.0000
50.0938 13.3800 1.3139 1.0000
50.0939 -13.3046 1.3134 1.0000
50.0939 -12.6640 1.3094 1.0000
50.0939 -12.3452 1.3074 1.0000
50.0938 -12.0273 1.3055 1.0000
50.0938 -11.8687 1.3046 1.0000
50.0939 -11.3943 1.3018 1.0000
50.0939 -11.2366 1.3010 1.0000
50.0938 -10.9218 1.2992 1.0000
50.0939 -10.7648 1.2984 1.0000
50.0938 -10.6079 1.2976 1.0000
50.0938 -10.4512 1.2968 1.0000
50.0939 -9.9823 1.2944 1.0000
50.0939 -9.8264 1.2936 1.0000
50.0938 -9.5151 1.2921 1.0000
50.0938 -9.0495 1.2900 1.0000
50.0939 -8.8946 1.2893 1.0000
50.0938 -8.4310 1.2873 1.0000
50.0938 -8.2768 1.2866 1.0000
50.0939 -7.9688 1.2854 1.0000
50.0939 -7.8150 1.2848 1.0000
50.0939 -7.6614 1.2842 1.0000
50.0938 -7.5079 1.2836 1.0000
