ply
format ascii 1.0
element vertex 1594
property float32 x
property float32 y
property float32 z
property float32 I
end_header
50.0941 -12.2934 11.0548 1.0000
50.0941 -11.9761 11.0388 1.0000
50.0941 -11.3442 11.0081 1.0000
50.0941 -10.8725 10.9863 1.0000
50.0941 -10.7157 10.9792 1.0000
50.0941 -10.4027 10.9653 1.0000
50.0941 -10.2464 10.9586 1.0000
50.0941 -10.0904 10.9519 1.0000
50.0941 -9.7789 10.9389 1.0000
50.0941 -9.3130 10.9202 1.0000
50.0941 -8.6942 10.8968 1.0000
50.0941 -8.2318 10.8803 1.0000
50.0941 -7.9243 10.8698 1.0000
50.0941 -7.7708 10.8647 1.0000
50.0941 -7.6174 10.8597 1.0000
50.0940 -7.1581 10.8453 1.0000
50.0940 -7.0053 10.8407 1.0000
50.0939 -6.5474 10.8276 1.0000
50.0940 -6.3951 10.8234 1.0000
50.0939 -6.0907 10.8153 1.0000
50.0940 -5.7868 10.8077 1.0000
50.0939 -5.6350 10.8040 1.0000
50.0939 -5.1802 10.7935 1.0000
50.0939 -4.5750 10.7810 1.0000
50.0939 -4.4240 10.7781 1.0000
50.0939 -4.2730 10.7753 1.0000
50.0939 -3.9713 10.7700 1.0000
50.0940 -3.6698 10.7650 1.0000
50.0940 -3.2182 10.7584 1.0000
50.0939 -2.7670 10.7526 1.0000
50.0940 -2.3162 10.7477 1.0000
50.0940 -1.8659 10.7437 1.0000
50.0941 -1.7159 10.7426 1.0000
50.0941 -1.5659 10.7415 1.0000
50.0941 -1.4159 10.7406 1.0000
50.0941 -1.2659 10.7397 1.0000
50.0940 -1.1159 10.7389 1.0000
50.0941 -0.9660 10.7383 1.0000
50.0941 -0.3665 10.7366 1.0000
50.0941 0.2329 10.7364 1.0000
50.0940 0.6825 10.7373 1.0000
50.0940 1.1323 10.7390 1.0000
50.0941 1.5821 10.7416 1.0000
50.0941 1.7321 10.7427 1.0000
50.0941 1.8822 10.7438 1.0000
50.0940 2.0323 10.7451 1.0000
50.0941 2.3326 10.7479 1.0000
50.0940 2.4828 10.7494 1.0000
50.0941 2.7833 10.7528 1.0000
50.0940 3.0840 10.7566 1.0000
50.0941 3.2345 10.7586 1.0000
50.0941 3.6862 10.7653 1.0000
50.0941 3.8369 10.7677 1.0000
50.0941 4.5914 10.7813 1.0000
50.0941 4.7426 10.7843 1.0000
50.0941 5.0452 10.7906 1.0000
50.0940 5.3481 10.7973 1.0000
50.0941 5.4997 10.8008 1.0000
50.0941 6.2594 10.8198 1.0000
50.0940 6.4116 10.8239 1.0000
50.0941 6.5640 10.8280 1.0000
50.0940 6.8691 10.8367 1.0000
50.0940 7.0218 10.8412 1.0000
50.0940 7.1747 10.8458 1.0000
50.0941 7.3277 10.8505 1.0000
50.0940 7.4808 10.8553 1.0000
50.0941 7.9411 10.8703 1.0000
50.0941 8.2486 10.8808 1.0000
50.0941 8.4026 10.8863 1.0000
50.0941 8.5567 10.8918 1.0000
50.0940 8.7111 10.8974 1.0000
50.0941 9.0201 10.9089 1.0000
50.0940 9.4850 10.9270 1.0000
50.0941 9.6404 10.9333 1.0000
50.0941 9.7958 10.9396 1.0000
50.0941 9.9515 10.9461 1.0000
50.0940 10.4196 10.9661 1.0000
50.0940 10.5761 10.9729 1.0000
50.0940 11.0466 10.9942 1.0000
50.0940 11.2039 11.0015 1.0000
50.0940 11.3613 11.0089 1.0000
50.0941 11.6768 11.0241 1.0000
50.0941 11.8350 11.0318 1.0000
50.0941 11.9933 11.0397 1.0000
50.0940 12.3107 11.0557 1.0000
50.0940 12.4697 11.0639 1.0000
50.0940 12.7884 11.0806 1.0000
50.0940 12.9482 11.0891 1.0000
50.0940 13.1082 11.0978 1.0000
50.0941 -13.4164 11.1147 1.0000
50.0941 -13.0957 11.0971 1.0000
50.0941 -12.9358 11.0885 1.0000
50.0941 -12.7760 11.0800 1.0000
50.0941 -12.6166 11.0716 1.0000
50.0941 -12.2983 11.0551 1.0000
50.0941 -11.9810 11.0391 1.0000
50.0941 -11.8227 11.0312 1.0000
50.0941 -11.3491 11.0084 1.0000
50.0941 -11.1916 11.0010 1.0000
50.0941 -10.8773 10.9865 1.0000
50.0941 -10.2513 10.9588 1.0000
50.0941 -10.0953 10.9521 1.0000
50.0941 -9.7837 10.9391 1.0000
50.0941 -9.6283 10.9328 1.0000
50.0941 -9.4730 10.9266 1.0000
50.0941 -9.3179 10.9204 1.0000
50.0941 -9.1629 10.9144 1.0000
50.0941 -8.6991 10.8970 1.0000
50.0941 -8.2366 10.8804 1.0000
50.0941 -8.0828 10.8751 1.0000
50.0941 -7.9291 10.8699 1.0000
50.0941 -7.7755 10.8648 1.0000
50.0940 -7.4689 10.8549 1.0000
50.0939 -7.0100 10.8409 1.0000
50.0940 -6.8573 10.8364 1.0000
50.0940 -6.7047 10.8320 1.0000
50.0939 -6.3998 10.8235 1.0000
50.0940 -4.8821 10.7871 1.0000
50.0940 -4.7309 10.7840 1.0000
50.0940 -4.5798 10.7810 1.0000
50.0940 -4.1268 10.7726 1.0000
50.0940 -3.9760 10.7700 1.0000
50.0939 -3.0724 10.7564 1.0000
50.0939 -2.7716 10.7527 1.0000
50.0940 -2.6214 10.7510 1.0000
50.0941 -2.1708 10.7463 1.0000
50.0939 -2.0207 10.7450 1.0000
50.0941 -1.7205 10.7426 1.0000
50.0940 -1.5705 10.7415 1.0000
50.0941 -1.4205 10.7406 1.0000
50.0941 -1.1207 10.7390 1.0000
50.0941 -0.9707 10.7383 1.0000
50.0941 -0.3712 10.7366 1.0000
50.0940 -0.0715 10.7363 1.0000
50.0941 0.2282 10.7364 1.0000
50.0940 0.3781 10.7366 1.0000
50.0940 0.6779 10.7373 1.0000
50.0941 -12.7711 10.1696 1.0000
50.0940 -12.6116 10.1619 1.0000
50.0940 -12.4523 10.1543 1.0000
50.0940 -12.2933 10.1468 1.0000
50.0940 -12.1346 10.1394 1.0000
50.0941 -11.9761 10.1321 1.0000
50.0941 -11.8178 10.1249 1.0000
50.0940 -11.6596 10.1178 1.0000
50.0941 -11.3442 10.1039 1.0000
50.0941 -11.1867 10.0971 1.0000
50.0940 -10.5590 10.0710 1.0000
50.0941 -10.4027 10.0647 1.0000
50.0941 -10.0904 10.0523 1.0000
50.0941 -9.7789 10.0404 1.0000
50.0941 -9.6234 10.0346 1.0000
50.0941 -9.3130 10.0233 1.0000
50.0941 -9.0034 10.0123 1.0000
50.0940 -8.8487 10.0070 1.0000
50.0940 -8.6943 10.0017 1.0000
50.0941 -8.3859 9.9915 1.0000
50.0941 -8.2319 9.9866 1.0000
50.0940 -8.0780 9.9817 1.0000
50.0941 -7.9243 9.9769 1.0000
50.0941 -7.7708 9.9723 1.0000
50.0939 -7.4641 9.9632 1.0000
50.0939 -7.3110 9.9588 1.0000
50.0939 -6.8525 9.9462 1.0000
50.0939 -6.6999 9.9421 1.0000
50.0939 -5.9387 9.9234 1.0000
50.0939 -5.3317 9.9101 1.0000
50.0939 -5.1802 9.9070 1.0000
50.0939 -5.0287 9.9039 1.0000
50.0939 -4.8775 9.9010 1.0000
50.0939 -4.7262 9.8982 1.0000
50.0939 -4.5751 9.8954 1.0000
50.0939 -3.6698 9.8808 1.0000
50.0939 -3.3686 9.8767 1.0000
50.0939 -3.2181 9.8747 1.0000
50.0939 -3.0677 9.8729 1.0000
50.0939 -2.9173 9.8711 1.0000
50.0939 -2.6167 9.8678 1.0000
50.0940 -2.1661 9.8636 1.0000
50.0939 -2.0160 9.8624 1.0000
50.0940 -1.8659 9.8612 1.0000
50.0940 -1.2659 9.8575 1.0000
50.0940 -1.1159 9.8568 1.0000
50.0940 -0.5163 9.8549 1.0000
50.0940 -0.2166 9.8545 1.0000
50.0940 -0.0667 9.8544 1.0000
50.0940 0.0831 9.8544 1.0000
50.0940 0.2330 9.8545 1.0000
50.0940 0.5327 9.8550 1.0000
50.0940 0.6826 9.8553 1.0000
50.0940 0.8324 9.8558 1.0000
50.0940 1.5822 9.8593 1.0000
50.0940 1.8823 9.8614 1.0000
50.0940 2.1824 9.8638 1.0000
50.0940 2.6330 9.8680 1.0000
50.0940 3.0841 9.8731 1.0000
50.0940 3.2345 9.8749 1.0000
50.0940 3.5356 9.8789 1.0000
50.0940 3.9877 9.8856 1.0000
50.0940 4.1385 9.8880 1.0000
50.0940 4.2894 9.8905 1.0000
50.0940 4.5915 9.8957 1.0000
50.0940 4.8939 9.9013 1.0000
50.0940 5.0452 9.9043 1.0000
50.0940 5.1966 9.9073 1.0000
50.0940 5.4998 9.9136 1.0000
50.0940 5.6515 9.9169 1.0000
50.0940 5.9552 9.9238 1.0000
50.0940 7.1747 9.9550 1.0000
50.0940 7.3277 9.9593 1.0000
50.0940 8.0947 9.9822 1.0000
50.0940 8.2486 9.9871 1.0000
50.0940 8.4026 9.9921 1.0000
50.0940 8.7110 10.0023 1.0000
50.0940 8.8655 10.0075 1.0000
50.0940 9.3299 10.0239 1.0000
50.0941 9.7959 10.0410 1.0000
50.0941 9.9515 10.0470 1.0000
50.0941 10.1073 10.0530 1.0000
50.0941 10.2634 10.0591 1.0000
50.0941 10.4197 10.0653 1.0000
50.0941 10.7327 10.0781 1.0000
50.0941 10.8895 10.0846 1.0000
50.0941 11.0466 10.0912 1.0000
50.0941 11.3613 10.1047 1.0000
50.0941 11.5190 10.1116 1.0000
50.0941 11.6769 10.1186 1.0000
50.0941 11.9933 10.1329 1.0000
50.0941 12.1519 10.1402 1.0000
50.0941 12.3106 10.1476 1.0000
50.0941 12.6289 10.1627 1.0000
50.0941 12.7884 10.1705 1.0000
50.0941 13.1082 10.1862 1.0000
50.0941 13.2684 10.1942 1.0000
50.0941 -13.4164 10.2017 1.0000
50.0941 -12.9358 10.1777 1.0000
50.0941 -12.7761 10.1699 1.0000
50.0940 -12.2983 10.1470 1.0000
50.0940 -11.6646 10.1180 1.0000
50.0941 -11.0344 10.0907 1.0000
50.0941 -10.8774 10.0840 1.0000
50.0941 -10.7205 10.0776 1.0000
50.0940 -10.5639 10.0711 1.0000
50.0941 -9.9394 10.0465 1.0000
50.0941 -9.7837 10.0406 1.0000
50.0940 -9.4729 10.0291 1.0000
50.0941 -9.0081 10.0125 1.0000
50.0941 -8.0828 9.9819 1.0000
50.0941 -7.7756 9.9724 1.0000
50.0939 -7.3159 9.9589 1.0000
50.0939 -7.0100 9.9504 1.0000
50.0939 -6.8573 9.9463 1.0000
50.0939 -6.7047 9.9423 1.0000
50.0939 -6.3998 9.9345 1.0000
50.0939 -5.9434 9.9235 1.0000
50.0939 -4.8822 9.9011 1.0000
50.0939 -4.7309 9.8983 1.0000
50.0939 -4.2777 9.8903 1.0000
50.0939 -3.9760 9.8854 1.0000
50.0939 -3.8252 9.8831 1.0000
50.0939 -3.6745 9.8809 1.0000
50.0939 -3.3734 9.8767 1.0000
50.0939 -3.0724 9.8729 1.0000
50.0939 -2.7716 9.8695 1.0000
50.0939 -2.6214 9.8679 1.0000
50.0939 -2.4711 9.8664 1.0000
50.0940 -2.0206 9.8624 1.0000
50.0940 -1.7205 9.8602 1.0000
50.0940 -1.5705 9.8593 1.0000
50.0940 -1.4205 9.8584 1.0000
50.0940 -0.9706 9.8563 1.0000
50.0940 -0.8208 9.8557 1.0000
50.0940 -0.6709 9.8553 1.0000
50.0940 -0.5210 9.8549 1.0000
50.0940 -0.3711 9.8547 1.0000
50.0940 -0.2213 9.8545 1.0000
50.0940 0.0784 9.8544 1.0000
50.0940 0.3781 9.8547 1.0000
50.0941 -12.7711 9.2656 1.0000
50.0941 -12.6116 9.2586 1.0000
50.0941 -11.9761 9.2314 1.0000
50.0941 -11.8177 9.2249 1.0000
50.0941 -11.6596 9.2184 1.0000
50.0941 -11.3441 9.2057 1.0000
50.0940 -10.8725 9.1874 1.0000
50.0940 -10.7157 9.1815 1.0000
50.0940 -10.5591 9.1757 1.0000
50.0940 -10.4027 9.1699 1.0000
50.0940 -10.2464 9.1643 1.0000
50.0940 -9.9346 9.1533 1.0000
50.0940 -9.7789 9.1479 1.0000
50.0940 -9.6234 9.1426 1.0000
50.0940 -9.3130 9.1322 1.0000
50.0940 -9.1580 9.1272 1.0000
50.0940 -8.6942 9.1126 1.0000
50.0940 -8.3858 9.1033 1.0000
50.0941 -8.2319 9.0988 1.0000
50.0940 -8.0780 9.0944 1.0000
50.0940 -7.9243 9.0900 1.0000
50.0940 -7.6174 9.0816 1.0000
50.0939 -7.4642 9.0775 1.0000
50.0939 -7.3111 9.0735 1.0000
50.0939 -7.1581 9.0696 1.0000
50.0939 -7.0052 9.0657 1.0000
50.0939 -6.8525 9.0620 1.0000
50.0939 -6.6999 9.0583 1.0000
50.0939 -6.3951 9.0513 1.0000
50.0939 -6.0907 9.0445 1.0000
50.0939 -5.9387 9.0413 1.0000
50.0939 -5.6350 9.0350 1.0000
50.0939 -5.3317 9.0291 1.0000
50.0939 -5.0288 9.0235 1.0000
50.0939 -4.8775 9.0208 1.0000
50.0939 -4.7262 9.0183 1.0000
50.0939 -4.4240 9.0133 1.0000
50.0939 -3.6698 9.0025 1.0000
50.0939 -3.5193 9.0005 1.0000
50.0939 -3.3687 8.9987 1.0000
50.0939 -3.2182 8.9969 1.0000
50.0939 -3.0677 8.9952 1.0000
50.0939 -2.6167 8.9906 1.0000
50.0940 -2.3162 8.9880 1.0000
50.0940 -2.0160 8.9857 1.0000
50.0940 -1.7158 8.9837 1.0000
50.0940 -1.5658 8.9828 1.0000
50.0940 -1.2659 8.9813 1.0000
50.0940 -1.1159 8.9806 1.0000
50.0940 -0.8161 8.9796 1.0000
50.0940 -0.6662 8.9792 1.0000
50.0940 -0.2166 8.9785 1.0000
50.0940 0.2329 8.9785 1.0000
50.0940 0.3828 8.9787 1.0000
50.0940 0.5327 8.9789 1.0000
50.0940 0.6825 8.9792 1.0000
50.0940 0.9823 8.9801 1.0000
50.0940 1.1322 8.9807 1.0000
50.0940 1.4321 8.9821 1.0000
50.0940 1.8822 8.9847 1.0000
50.0940 2.1824 8.9869 1.0000
50.0940 2.4828 8.9894 1.0000
50.0940 3.0840 8.9954 1.0000
50.0940 3.2345 8.9971 1.0000
50.0940 3.5356 9.0007 1.0000
50.0940 3.8369 9.0047 1.0000
50.0940 4.2894 9.0112 1.0000
50.0940 4.4404 9.0136 1.0000
50.0940 4.5915 9.0160 1.0000
50.0940 4.7427 9.0185 1.0000
50.0940 4.8939 9.0211 1.0000
50.0940 5.6514 9.0353 1.0000
50.0940 6.8691 9.0624 1.0000
50.0940 7.0218 9.0662 1.0000
50.0940 7.1747 9.0700 1.0000
50.0940 7.4808 9.0780 1.0000
50.0940 7.7875 9.0862 1.0000
50.0940 7.9410 9.0905 1.0000
50.0940 8.4025 9.1038 1.0000
50.0940 8.5567 9.1084 1.0000
50.0940 9.0201 9.1228 1.0000
50.0940 9.4850 9.1379 1.0000
50.0940 9.6404 9.1431 1.0000
50.0940 10.1074 9.1593 1.0000
50.0940 10.5761 9.1763 1.0000
50.0940 10.7327 9.1822 1.0000
50.0940 10.8895 9.1881 1.0000
50.0940 11.0466 9.1941 1.0000
50.0940 11.2038 9.2002 1.0000
50.0940 11.5190 9.2127 1.0000
50.0940 11.8350 9.2256 1.0000
50.0940 11.9933 9.2321 1.0000
50.0940 12.1519 9.2388 1.0000
50.0940 12.4697 9.2524 1.0000
50.0940 12.7884 9.2663 1.0000
50.0940 13.2684 9.2880 1.0000
50.0941 -13.4164 9.2948 1.0000
50.0941 -13.2560 9.2874 1.0000
50.0941 -12.7761 9.2658 1.0000
50.0941 -12.6166 9.2588 1.0000
50.0941 -12.4573 9.2518 1.0000
50.0941 -12.2983 9.2450 1.0000
50.0941 -12.1395 9.2383 1.0000
50.0941 -11.9810 9.2316 1.0000
50.0941 -11.3491 9.2059 1.0000
50.0940 -11.0344 9.1936 1.0000
50.0940 -10.8774 9.1876 1.0000
50.0940 -10.7206 9.1817 1.0000
50.0940 -10.5640 9.1759 1.0000
50.0940 -10.4075 9.1701 1.0000
50.0940 -10.0953 9.1589 1.0000
50.0940 -9.6283 9.1427 1.0000
50.0940 -9.3178 9.1324 1.0000
50.0940 -9.1629 9.1274 1.0000
50.0940 -8.8535 9.1175 1.0000
50.0940 -8.6991 9.1128 1.0000
50.0940 -8.0828 9.0945 1.0000
50.0940 -7.7755 9.0859 1.0000
50.0940 -7.6222 9.0817 1.0000
50.0939 -7.4689 9.0776 1.0000
50.0939 -7.1629 9.0697 1.0000
50.0939 -7.0100 9.0659 1.0000
50.0939 -6.8572 9.0621 1.0000
50.0939 -6.7046 9.0584 1.0000
50.0939 -6.2476 9.0479 1.0000
50.0939 -5.9435 9.0414 1.0000
50.0939 -5.3364 9.0292 1.0000
50.0939 -5.1850 9.0264 1.0000
50.0939 -4.8822 9.0209 1.0000
50.0939 -4.5798 9.0158 1.0000
50.0939 -4.4288 9.0134 1.0000
50.0939 -4.1268 9.0088 1.0000
50.0939 -3.8253 9.0045 1.0000
50.0939 -3.6746 9.0025 1.0000
50.0940 -3.5239 9.0006 1.0000
50.0939 -3.0724 8.9953 1.0000
50.0939 -2.9220 8.9937 1.0000
50.0939 -2.7717 8.9921 1.0000
50.0939 -2.4712 8.9893 1.0000
50.0940 -2.3209 8.9880 1.0000
50.0940 -2.1707 8.9868 1.0000
50.0940 -1.7205 8.9837 1.0000
50.0940 -1.4205 8.9820 1.0000
50.0940 -1.2705 8.9813 1.0000
50.0940 -1.1206 8.9806 1.0000
50.0940 -0.9707 8.9801 1.0000
50.0940 -0.8208 8.9796 1.0000
50.0940 -0.6709 8.9792 1.0000
50.0940 -0.3711 8.9786 1.0000
50.0940 0.0784 8.9784 1.0000
50.0940 0.5280 8.9789 1.0000
50.0940 -13.0907 8.3799 1.0000
50.0940 -12.9308 8.3734 1.0000
50.0940 -12.6116 8.3607 1.0000
50.0940 -12.4524 8.3544 1.0000
50.0940 -12.2934 8.3482 1.0000
50.0940 -12.1346 8.3422 1.0000
50.0940 -11.9761 8.3361 1.0000
50.0940 -11.5018 8.3186 1.0000
50.0940 -11.3441 8.3130 1.0000
50.0940 -11.1868 8.3074 1.0000
50.0940 -10.7157 8.2911 1.0000
50.0940 -10.4027 8.2806 1.0000
50.0940 -10.0904 8.2705 1.0000
50.0940 -9.9346 8.2656 1.0000
50.0940 -9.7789 8.2607 1.0000
50.0940 -9.6234 8.2559 1.0000
50.0940 -9.3130 8.2466 1.0000
50.0940 -9.0032 8.2376 1.0000
50.0940 -8.5400 8.2246 1.0000
50.0940 -7.9243 8.2085 1.0000
50.0940 -7.7708 8.2046 1.0000
50.0940 -7.6174 8.2009 1.0000
50.0939 -7.4641 8.1972 1.0000
50.0939 -7.3111 8.1935 1.0000
50.0939 -7.0052 8.1865 1.0000
50.0939 -6.6999 8.1798 1.0000
50.0939 -6.3950 8.1735 1.0000
50.0939 -6.2428 8.1704 1.0000
50.0939 -6.0907 8.1674 1.0000
50.0939 -5.9387 8.1644 1.0000
50.0939 -5.7868 8.1616 1.0000
50.0939 -5.6350 8.1588 1.0000
50.0939 -5.3317 8.1534 1.0000
50.0939 -5.1802 8.1509 1.0000
50.0939 -5.0287 8.1484 1.0000
50.0939 -4.2730 8.1371 1.0000
50.0939 -4.1221 8.1351 1.0000
50.0939 -3.9713 8.1331 1.0000
50.0939 -3.5192 8.1276 1.0000
50.0939 -3.3686 8.1260 1.0000
50.0939 -3.2181 8.1244 1.0000
50.0939 -3.0677 8.1228 1.0000
50.0939 -2.3162 8.1163 1.0000
50.0939 -1.8659 8.1133 1.0000
50.0940 -1.5659 8.1116 1.0000
50.0939 -1.1159 8.1097 1.0000
50.0939 -0.9660 8.1092 1.0000
50.0940 -0.5163 8.1081 1.0000
50.0939 -0.0668 8.1077 1.0000
50.0939 0.0831 8.1077 1.0000
50.0939 0.2330 8.1077 1.0000
50.0939 0.3828 8.1079 1.0000
50.0940 0.5327 8.1081 1.0000
50.0939 0.6825 8.1084 1.0000
50.0939 0.9823 8.1092 1.0000
50.0939 1.2822 8.1103 1.0000
50.0939 1.5821 8.1117 1.0000
50.0939 1.7322 8.1125 1.0000
50.0939 2.0323 8.1143 1.0000
50.0939 2.1824 8.1153 1.0000
50.0939 2.6330 8.1189 1.0000
50.0940 2.7833 8.1202 1.0000
50.0939 3.3850 8.1262 1.0000
50.0940 3.6862 8.1296 1.0000
50.0940 4.1385 8.1353 1.0000
50.0939 4.2895 8.1373 1.0000
50.0940 4.4404 8.1394 1.0000
50.0940 4.5915 8.1416 1.0000
50.0940 4.7426 8.1439 1.0000
50.0940 5.0452 8.1487 1.0000
50.0940 5.1966 8.1512 1.0000
50.0940 6.7165 8.1802 1.0000
50.0940 6.8691 8.1835 1.0000
50.0940 7.1747 8.1904 1.0000
50.0939 7.3277 8.1939 1.0000
50.0939 7.6341 8.2013 1.0000
50.0940 7.7875 8.2050 1.0000
50.0939 8.0947 8.2128 1.0000
50.0939 8.2486 8.2168 1.0000
50.0939 8.4026 8.2209 1.0000
50.0939 9.0201 8.2380 1.0000
50.0939 9.3298 8.2471 1.0000
50.0940 9.4850 8.2517 1.0000
50.0940 9.9515 8.2661 1.0000
50.0940 10.1073 8.2710 1.0000
50.0940 10.2634 8.2761 1.0000
50.0940 10.5761 8.2864 1.0000
50.0939 11.0466 8.3025 1.0000
50.0939 11.2038 8.3080 1.0000
50.0939 11.3613 8.3136 1.0000
50.0939 11.6769 8.3250 1.0000
50.0939 11.8349 8.3309 1.0000
50.0939 12.6289 8.3613 1.0000
50.0939 12.7884 8.3677 1.0000
50.0939 12.9482 8.3741 1.0000
50.0940 13.2684 8.3872 1.0000
50.0940 -13.4164 8.3934 1.0000
50.0940 -13.0957 8.3801 1.0000
50.0940 -12.9358 8.3736 1.0000
50.0940 -12.1395 8.3423 1.0000
50.0940 -11.9810 8.3363 1.0000
50.0940 -11.8227 8.3304 1.0000
50.0940 -11.6646 8.3246 1.0000
50.0940 -11.5068 8.3188 1.0000
50.0940 -11.3491 8.3131 1.0000
50.0940 -11.1916 8.3075 1.0000
50.0940 -11.0344 8.3020 1.0000
50.0940 -10.8774 8.2966 1.0000
50.0940 -10.5639 8.2860 1.0000
50.0940 -10.2513 8.2757 1.0000
50.0940 -9.7837 8.2609 1.0000
50.0940 -9.6283 8.2561 1.0000
50.0940 -9.3179 8.2467 1.0000
50.0940 -9.1629 8.2422 1.0000
50.0940 -7.9291 8.2086 1.0000
50.0940 -7.6221 8.2010 1.0000
50.0939 -7.4689 8.1973 1.0000
50.0939 -7.3158 8.1937 1.0000
50.0939 -6.8572 8.1833 1.0000
50.0939 -6.3998 8.1736 1.0000
50.0939 -6.2475 8.1705 1.0000
50.0939 -6.0954 8.1675 1.0000
50.0939 -5.4880 8.1562 1.0000
50.0939 -5.0334 8.1485 1.0000
50.0939 -4.4287 8.1393 1.0000
50.0939 -4.2777 8.1372 1.0000
50.0939 -3.9760 8.1332 1.0000
50.0939 -3.8252 8.1313 1.0000
50.0939 -3.0724 8.1229 1.0000
50.0939 -2.7716 8.1201 1.0000
50.0939 -2.6214 8.1188 1.0000
50.0939 -2.4711 8.1175 1.0000
50.0939 -2.3209 8.1164 1.0000
50.0939 -2.1708 8.1153 1.0000
50.0939 -2.0206 8.1142 1.0000
50.0940 -1.8706 8.1133 1.0000
50.0939 -1.7205 8.1124 1.0000
50.0939 -1.5705 8.1116 1.0000
50.0939 -1.1206 8.1097 1.0000
50.0939 -0.9707 8.1092 1.0000
50.0939 -0.8208 8.1088 1.0000
50.0939 -0.6709 8.1084 1.0000
50.0939 -0.3712 8.1079 1.0000
50.0939 -0.2212 8.1077 1.0000
50.0939 0.0784 8.1077 1.0000
50.0940 0.5280 8.1081 1.0000
50.0940 -12.9308 7.4791 1.0000
50.0940 -12.2934 7.4566 1.0000
50.0940 -12.1346 7.4511 1.0000
50.0940 -11.9761 7.4458 1.0000
50.0940 -11.8178 7.4405 1.0000
50.0940 -11.6597 7.4353 1.0000
50.0940 -11.3442 7.4250 1.0000
50.0940 -10.8725 7.4103 1.0000
50.0940 -10.7157 7.4055 1.0000
50.0940 -10.4027 7.3962 1.0000
50.0940 -10.2465 7.3916 1.0000
50.0940 -10.0904 7.3871 1.0000
50.0940 -9.9346 7.3827 1.0000
50.0940 -9.7789 7.3784 1.0000
50.0940 -9.6234 7.3741 1.0000
50.0940 -8.8487 7.3538 1.0000
50.0940 -8.5400 7.3462 1.0000
50.0940 -8.3859 7.3424 1.0000
50.0940 -8.2319 7.3388 1.0000
50.0940 -7.9243 7.3317 1.0000
50.0940 -7.6174 7.3249 1.0000
50.0939 -7.1580 7.3152 1.0000
50.0939 -7.0052 7.3121 1.0000
50.0939 -6.6999 7.3062 1.0000
50.0939 -6.3951 7.3004 1.0000
50.0939 -5.9387 7.2924 1.0000
50.0939 -5.7868 7.2898 1.0000
50.0939 -5.6350 7.2873 1.0000
50.0939 -5.4833 7.2849 1.0000
50.0939 -4.8774 7.2759 1.0000
50.0939 -4.7262 7.2738 1.0000
50.0939 -4.4240 7.2699 1.0000
50.0939 -4.2730 7.2680 1.0000
50.0939 -4.1221 7.2662 1.0000
50.0939 -3.9713 7.2644 1.0000
50.0939 -3.6698 7.2611 1.0000
50.0939 -3.2181 7.2566 1.0000
50.0939 -2.7670 7.2527 1.0000
50.0939 -2.4665 7.2504 1.0000
50.0940 -2.0160 7.2475 1.0000
50.0940 -1.8659 7.2467 1.0000
50.0940 -1.7159 7.2459 1.0000
50.0940 -1.1160 7.2435 1.0000
50.0940 -0.9660 7.2430 1.0000
50.0940 -0.8161 7.2426 1.0000
50.0940 -0.5164 7.2421 1.0000
50.0940 -0.2166 7.2417 1.0000
50.0940 -0.0668 7.2417 1.0000
50.0940 0.2329 7.2418 1.0000
50.0940 0.9823 7.2431 1.0000
50.0940 1.1322 7.2435 1.0000
50.0940 1.2821 7.2441 1.0000
50.0940 1.8821 7.2468 1.0000
50.0940 2.0322 7.2476 1.0000
50.0940 2.1824 7.2485 1.0000
50.0940 2.6330 7.2517 1.0000
50.0940 2.7833 7.2528 1.0000
50.0940 3.5355 7.2597 1.0000
50.0940 3.8369 7.2629 1.0000
50.0940 4.5914 7.2720 1.0000
50.0940 4.8939 7.2762 1.0000
50.0939 5.0452 7.2783 1.0000
50.0940 5.3481 7.2828 1.0000
50.0939 5.4998 7.2852 1.0000
50.0940 5.6514 7.2876 1.0000
50.0939 5.8033 7.2901 1.0000
50.0940 5.9552 7.2927 1.0000
50.0940 6.2593 7.2980 1.0000
50.0940 7.0218 7.3125 1.0000
50.0939 7.3277 7.3188 1.0000
50.0940 7.4808 7.3220 1.0000
50.0940 7.9410 7.3321 1.0000
50.0940 8.4025 7.3428 1.0000
50.0940 8.5567 7.3466 1.0000
50.0940 9.0201 7.3581 1.0000
50.0940 9.3298 7.3662 1.0000
50.0939 9.4850 7.3703 1.0000
50.0940 9.6403 7.3746 1.0000
50.0940 9.7958 7.3788 1.0000
50.0940 10.4196 7.3967 1.0000
50.0939 10.7327 7.4060 1.0000
50.0940 10.8896 7.4108 1.0000
50.0939 11.0465 7.4157 1.0000
50.0940 11.3613 7.4256 1.0000
50.0940 11.5189 7.4307 1.0000
50.0940 11.6768 7.4358 1.0000
50.0940 11.8349 7.4410 1.0000
50.0940 11.9932 7.4463 1.0000
50.0940 12.1518 7.4517 1.0000
50.0940 12.4696 7.4627 1.0000
50.0940 12.6289 7.4683 1.0000
50.0940 12.7884 7.4739 1.0000
50.0940 12.9482 7.4797 1.0000
50.0940 13.1081 7.4855 1.0000
50.0940 13.2684 7.4914 1.0000
50.0940 -13.4164 7.4969 1.0000
50.0940 -13.0958 7.4850 1.0000
50.0940 -12.9358 7.4792 1.0000
50.0940 -12.6166 7.4678 1.0000
50.0940 -12.1396 7.4513 1.0000
50.0940 -11.9810 7.4459 1.0000
50.0940 -11.8227 7.4406 1.0000
50.0940 -11.6646 7.4354 1.0000
50.0940 -11.5068 7.4303 1.0000
50.0940 -11.3491 7.4252 1.0000
50.0940 -11.0345 7.4153 1.0000
50.0940 -10.8774 7.4104 1.0000
50.0940 -10.7206 7.4057 1.0000
50.0940 -10.4076 7.3963 1.0000
50.0940 -10.2513 7.3918 1.0000
50.0940 -10.0953 7.3873 1.0000
50.0940 -9.9395 7.3829 1.0000
50.0940 -9.7837 7.3785 1.0000
50.0940 -9.3179 7.3659 1.0000
50.0940 -9.0081 7.3578 1.0000
50.0940 -8.6991 7.3501 1.0000
50.0940 -8.3906 7.3426 1.0000
50.0940 -8.2366 7.3389 1.0000
50.0940 -8.0828 7.3353 1.0000
50.0940 -7.9291 7.3318 1.0000
50.0940 -7.6222 7.3250 1.0000
50.0939 -7.1628 7.3153 1.0000
50.0939 -6.7046 7.3063 1.0000
50.0939 -6.5522 7.3034 1.0000
50.0939 -6.3998 7.3005 1.0000
50.0939 -6.2476 7.2978 1.0000
50.0939 -6.0955 7.2951 1.0000
50.0939 -5.9434 7.2925 1.0000
50.0939 -5.7915 7.2899 1.0000
50.0939 -5.4880 7.2850 1.0000
50.0939 -5.3364 7.2826 1.0000
50.0939 -5.0335 7.2781 1.0000
50.0939 -4.8822 7.2760 1.0000
50.0939 -4.7309 7.2739 1.0000
50.0939 -4.5798 7.2719 1.0000
50.0939 -4.1268 7.2662 1.0000
50.0939 -3.8252 7.2628 1.0000
50.0939 -3.2229 7.2566 1.0000
50.0939 -3.0724 7.2553 1.0000
50.0939 -2.7717 7.2528 1.0000
50.0940 -2.3210 7.2494 1.0000
50.0940 -1.8706 7.2467 1.0000
50.0940 -1.7205 7.2459 1.0000
50.0940 -1.5705 7.2452 1.0000
50.0940 -0.8208 7.2426 1.0000
50.0940 -0.5211 7.2421 1.0000
50.0940 -0.3712 7.2419 1.0000
50.0940 -0.2213 7.2417 1.0000
50.0940 0.0784 7.2417 1.0000
50.0940 0.2282 7.2418 1.0000
50.0940 0.3781 7.2419 1.0000
50.0940 0.6779 7.2423 1.0000
50.0940 -12.7711 6.5840 1.0000
50.0940 -12.6116 6.5790 1.0000
50.0940 -12.4524 6.5741 1.0000
50.0940 -12.2934 6.5692 1.0000
50.0940 -12.1346 6.5644 1.0000
50.0940 -11.9761 6.5597 1.0000
50.0940 -11.3442 6.5415 1.0000
50.0940 -11.1868 6.5371 1.0000
50.0940 -10.8725 6.5285 1.0000
50.0940 -9.9346 6.5042 1.0000
50.0940 -9.7789 6.5003 1.0000
50.0940 -9.6234 6.4966 1.0000
50.0940 -9.3131 6.4892 1.0000
50.0940 -9.1581 6.4857 1.0000
50.0940 -8.8487 6.4787 1.0000
50.0940 -8.0780 6.4623 1.0000
50.0940 -7.6174 6.4533 1.0000
50.0939 -7.3111 6.4475 1.0000
50.0939 -7.1580 6.4447 1.0000
50.0939 -6.6999 6.4367 1.0000
50.0939 -6.5474 6.4342 1.0000
50.0939 -6.3950 6.4317 1.0000
50.0939 -6.2428 6.4293 1.0000
50.0939 -6.0907 6.4269 1.0000
50.0939 -5.9387 6.4246 1.0000
50.0939 -5.6350 6.4202 1.0000
50.0939 -5.1802 6.4139 1.0000
50.0939 -4.8775 6.4101 1.0000
50.0939 -4.7262 6.4082 1.0000
50.0939 -4.5750 6.4065 1.0000
50.0939 -4.4240 6.4047 1.0000
50.0939 -4.1221 6.4015 1.0000
50.0939 -3.9713 6.3999 1.0000
50.0939 -3.8205 6.3984 1.0000
50.0939 -3.6698 6.3970 1.0000
50.0939 -3.5193 6.3956 1.0000
50.0939 -2.6167 6.3886 1.0000
50.0939 -2.3162 6.3867 1.0000
50.0939 -2.1661 6.3859 1.0000
50.0939 -1.8659 6.3843 1.0000
50.0939 -1.5658 6.3830 1.0000
50.0939 -1.4158 6.3825 1.0000
50.0939 -0.9660 6.3811 1.0000
50.0939 -0.6662 6.3805 1.0000
50.0939 -0.0668 6.3799 1.0000
50.0939 0.0831 6.3799 1.0000
50.0939 0.2329 6.3800 1.0000
50.0939 0.9823 6.3811 1.0000
50.0939 1.1323 6.3815 1.0000
50.0939 1.5821 6.3831 1.0000
50.0939 1.7321 6.3837 1.0000
50.0939 2.0323 6.3852 1.0000
50.0939 2.3326 6.3868 1.0000
50.0939 2.4828 6.3877 1.0000
50.0939 2.6330 6.3887 1.0000
50.0939 2.7833 6.3898 1.0000
50.0939 2.9337 6.3908 1.0000
50.0939 3.0840 6.3920 1.0000
50.0939 3.2345 6.3932 1.0000
50.0939 3.5356 6.3958 1.0000
50.0939 3.8369 6.3986 1.0000
50.0939 4.2894 6.4033 1.0000
50.0939 4.4404 6.4049 1.0000
50.0939 4.5915 6.4067 1.0000
50.0939 4.8939 6.4103 1.0000
50.0939 5.0452 6.4122 1.0000
50.0939 5.1967 6.4141 1.0000
50.0939 5.3482 6.4162 1.0000
50.0939 5.8033 6.4226 1.0000
50.0939 6.1072 6.4272 1.0000
50.0939 6.2594 6.4295 1.0000
50.0939 6.4116 6.4320 1.0000
50.0939 6.7165 6.4370 1.0000
50.0939 7.0218 6.4423 1.0000
50.0939 7.3277 6.4478 1.0000
50.0939 7.4808 6.4507 1.0000
50.0939 7.6341 6.4536 1.0000
50.0939 7.7875 6.4565 1.0000
50.0939 8.0947 6.4627 1.0000
50.0939 8.2486 6.4658 1.0000
50.0939 8.4025 6.4690 1.0000
50.0939 8.5568 6.4723 1.0000
50.0939 8.7111 6.4757 1.0000
50.0939 9.1749 6.4860 1.0000
50.0939 9.6403 6.4970 1.0000
50.0939 9.7958 6.5008 1.0000
50.0939 9.9515 6.5046 1.0000
50.0939 10.2634 6.5124 1.0000
50.0939 10.5761 6.5206 1.0000
50.0939 10.8895 6.5289 1.0000
50.0939 11.2039 6.5375 1.0000
50.0939 11.6768 6.5509 1.0000
50.0939 11.8350 6.5555 1.0000
50.0939 11.9933 6.5602 1.0000
50.0939 12.1518 6.5650 1.0000
50.0939 12.4696 6.5746 1.0000
50.0939 12.6289 6.5795 1.0000
50.0939 12.7884 6.5845 1.0000
50.0939 12.9482 6.5896 1.0000
50.0939 13.1082 6.5947 1.0000
50.0940 -13.4164 6.6048 1.0000
50.0940 -13.2560 6.5995 1.0000
50.0940 -12.7761 6.5841 1.0000
50.0940 -12.4573 6.5742 1.0000
50.0940 -12.2983 6.5694 1.0000
50.0940 -12.1396 6.5646 1.0000
50.0940 -11.3491 6.5416 1.0000
50.0940 -11.0344 6.5329 1.0000
50.0940 -10.2513 6.5121 1.0000
50.0940 -10.0953 6.5082 1.0000
50.0940 -9.6283 6.4967 1.0000
50.0940 -9.3179 6.4893 1.0000
50.0940 -9.0081 6.4823 1.0000
50.0940 -8.0828 6.4624 1.0000
50.0940 -7.9291 6.4593 1.0000
50.0939 -7.4689 6.4504 1.0000
50.0939 -7.3158 6.4476 1.0000
50.0939 -7.1629 6.4448 1.0000
50.0939 -6.8572 6.4394 1.0000
50.0939 -6.7046 6.4368 1.0000
50.0939 -6.5522 6.4343 1.0000
50.0939 -6.2476 6.4293 1.0000
50.0939 -6.0954 6.4270 1.0000
50.0939 -5.9435 6.4247 1.0000
50.0939 -5.7915 6.4224 1.0000
50.0939 -5.1849 6.4140 1.0000
50.0939 -4.8822 6.4101 1.0000
50.0939 -4.5798 6.4065 1.0000
50.0939 -3.9760 6.4000 1.0000
50.0939 -3.5239 6.3957 1.0000
50.0939 -3.3733 6.3944 1.0000
50.0939 -2.7716 6.3897 1.0000
50.0939 -2.6214 6.3886 1.0000
50.0939 -2.4711 6.3877 1.0000
50.0939 -2.3209 6.3868 1.0000
50.0939 -2.1707 6.3859 1.0000
50.0939 -1.8706 6.3844 1.0000
50.0939 -1.7205 6.3837 1.0000
50.0939 -1.4205 6.3825 1.0000
50.0939 -1.1206 6.3815 1.0000
50.0939 -0.8208 6.3808 1.0000
50.0939 -0.5210 6.3803 1.0000
50.0939 -0.3711 6.3801 1.0000
50.0939 -0.0714 6.3799 1.0000
50.0939 0.2283 6.3800 1.0000
50.0939 0.3782 6.3801 1.0000
50.0939 0.6779 6.3805 1.0000
50.0939 -13.0907 5.7073 1.0000
50.0940 -12.9307 5.7029 1.0000
50.0940 -12.6116 5.6942 1.0000
50.0940 -12.1346 5.6816 1.0000
50.0939 -11.8177 5.6734 1.0000
50.0940 -11.6597 5.6695 1.0000
50.0940 -11.5018 5.6655 1.0000
50.0940 -11.3442 5.6617 1.0000
50.0940 -11.0295 5.6541 1.0000
50.0939 -10.8725 5.6504 1.0000
50.0939 -10.5591 5.6432 1.0000
50.0940 -10.4027 5.6397 1.0000
50.0940 -10.2464 5.6362 1.0000
50.0940 -9.7789 5.6261 1.0000
50.0939 -9.4681 5.6196 1.0000
50.0939 -9.1580 5.6134 1.0000
50.0940 -8.6943 5.6044 1.0000
50.0940 -8.5400 5.6015 1.0000
50.0940 -8.2318 5.5959 1.0000
50.0939 -7.9243 5.5905 1.0000
50.0939 -7.7707 5.5879 1.0000
50.0939 -7.3111 5.5803 1.0000
50.0939 -6.5474 5.5688 1.0000
50.0939 -6.3950 5.5667 1.0000
50.0939 -6.2428 5.5646 1.0000
50.0939 -5.9387 5.5605 1.0000
50.0939 -5.7868 5.5586 1.0000
50.0939 -5.4832 5.5548 1.0000
50.0939 -5.3317 5.5530 1.0000
50.0939 -5.1802 5.5513 1.0000
50.0939 -5.0288 5.5496 1.0000
50.0939 -4.8775 5.5480 1.0000
50.0939 -4.2730 5.5419 1.0000
50.0939 -4.1221 5.5405 1.0000
50.0939 -3.9712 5.5392 1.0000
50.0939 -3.2181 5.5332 1.0000
50.0939 -3.0677 5.5322 1.0000
50.0939 -2.7670 5.5303 1.0000
50.0939 -2.6167 5.5294 1.0000
50.0939 -2.4664 5.5285 1.0000
50.0939 -2.1661 5.5270 1.0000
50.0939 -2.0160 5.5263 1.0000
50.0939 -1.7159 5.5251 1.0000
50.0939 -1.2659 5.5236 1.0000
50.0939 -1.1159 5.5232 1.0000
50.0939 -0.9660 5.5229 1.0000
50.0939 -0.8161 5.5226 1.0000
50.0939 -0.5163 5.5221 1.0000
50.0939 -0.0668 5.5219 1.0000
50.0939 0.0830 5.5219 1.0000
50.0939 0.3828 5.5220 1.0000
50.0939 0.5327 5.5222 1.0000
50.0939 0.8324 5.5226 1.0000
50.0939 0.9823 5.5229 1.0000
50.0939 1.1322 5.5233 1.0000
50.0939 1.4321 5.5241 1.0000
50.0939 1.5821 5.5246 1.0000
50.0939 1.7321 5.5252 1.0000
50.0939 2.1824 5.5271 1.0000
50.0939 2.4827 5.5286 1.0000
50.0939 2.6330 5.5295 1.0000
50.0939 2.7833 5.5304 1.0000
50.0939 3.3850 5.5344 1.0000
50.0939 3.5356 5.5356 1.0000
50.0939 3.6862 5.5368 1.0000
50.0939 3.8369 5.5380 1.0000
50.0939 3.9877 5.5393 1.0000
50.0939 4.1385 5.5407 1.0000
50.0939 4.2895 5.5421 1.0000
50.0939 4.4404 5.5435 1.0000
50.0939 4.5915 5.5450 1.0000
50.0939 4.7427 5.5465 1.0000
50.0939 4.8939 5.5481 1.0000
50.0939 5.0452 5.5498 1.0000
50.0939 5.3481 5.5532 1.0000
50.0939 5.4998 5.5550 1.0000
50.0939 5.6515 5.5569 1.0000
50.0939 5.8033 5.5588 1.0000
50.0939 6.2594 5.5648 1.0000
50.0939 6.5640 5.5691 1.0000
50.0939 7.1747 5.5782 1.0000
50.0939 7.3277 5.5806 1.0000
50.0939 7.9410 5.5908 1.0000
50.0939 8.2486 5.5962 1.0000
50.0939 8.4025 5.5990 1.0000
50.0939 8.5567 5.6018 1.0000
50.0939 9.0201 5.6107 1.0000
50.0939 9.1749 5.6137 1.0000
50.0939 9.4850 5.6200 1.0000
50.0939 9.7958 5.6264 1.0000
50.0939 9.9515 5.6298 1.0000
50.0939 10.2634 5.6366 1.0000
50.0939 10.4196 5.6400 1.0000
50.0939 10.5761 5.6436 1.0000
50.0939 10.8895 5.6508 1.0000
50.0939 11.0466 5.6545 1.0000
50.0939 11.2038 5.6583 1.0000
50.0939 11.9933 5.6779 1.0000
50.0939 12.1518 5.6820 1.0000
50.0939 13.1081 5.7078 1.0000
50.0939 13.2684 5.7123 1.0000
50.0939 -13.4164 5.7165 1.0000
50.0939 -13.0957 5.7074 1.0000
50.0939 -12.9357 5.7030 1.0000
50.0939 -12.6165 5.6943 1.0000
50.0939 -12.4573 5.6900 1.0000
50.0940 -12.2983 5.6858 1.0000
50.0940 -12.1396 5.6817 1.0000
50.0940 -11.6646 5.6696 1.0000
50.0940 -11.1916 5.6580 1.0000
50.0940 -10.8774 5.6505 1.0000
50.0940 -10.5639 5.6433 1.0000
50.0940 -10.2513 5.6363 1.0000
50.0940 -10.0953 5.6329 1.0000
50.0940 -9.4730 5.6197 1.0000
50.0939 -8.8535 5.6074 1.0000
50.0940 -8.6990 5.6045 1.0000
50.0940 -8.2366 5.5960 1.0000
50.0939 -8.0828 5.5933 1.0000
50.0940 -7.9291 5.5906 1.0000
50.0939 -7.4689 5.5829 1.0000
50.0939 -7.1629 5.5780 1.0000
50.0939 -7.0100 5.5757 1.0000
50.0939 -6.8572 5.5733 1.0000
50.0939 -6.7046 5.5711 1.0000
50.0939 -6.3998 5.5667 1.0000
50.0939 -6.2475 5.5646 1.0000
50.0939 -6.0954 5.5626 1.0000
50.0939 -5.7915 5.5586 1.0000
50.0939 -5.4880 5.5549 1.0000
50.0939 -5.3364 5.5531 1.0000
50.0939 -5.1849 5.5514 1.0000
50.0939 -4.8821 5.5480 1.0000
50.0939 -4.7309 5.5464 1.0000
50.0939 -4.5798 5.5449 1.0000
50.0939 -3.9760 5.5392 1.0000
50.0939 -3.8252 5.5379 1.0000
50.0939 -3.2229 5.5333 1.0000
50.0939 -2.6214 5.5294 1.0000
50.0939 -2.0207 5.5263 1.0000
50.0939 -1.7205 5.5251 1.0000
50.0939 -1.5705 5.5246 1.0000
50.0939 -1.2705 5.5236 1.0000
50.0939 -1.1206 5.5232 1.0000
50.0939 -0.9707 5.5229 1.0000
50.0939 -0.8208 5.5226 1.0000
50.0939 -0.5210 5.5222 1.0000
50.0939 -0.3712 5.5220 1.0000
50.0939 -0.2213 5.5219 1.0000
50.0939 -0.0715 5.5219 1.0000
50.0939 0.0784 5.5219 1.0000
50.0939 0.2282 5.5219 1.0000
50.0939 0.5280 5.5222 1.0000
50.0939 0.6778 5.5224 1.0000
50.0939 -13.0907 4.8237 1.0000
50.0939 -12.9308 4.8200 1.0000
50.0939 -12.7711 4.8163 1.0000
50.0939 -12.6116 4.8126 1.0000
50.0939 -12.4523 4.8090 1.0000
50.0939 -12.2934 4.8055 1.0000
50.0939 -11.8177 4.7951 1.0000
50.0939 -11.5018 4.7884 1.0000
50.0939 -11.1867 4.7819 1.0000
50.0939 -10.8725 4.7756 1.0000
50.0939 -10.7157 4.7726 1.0000
50.0939 -10.5591 4.7695 1.0000
50.0939 -10.4027 4.7665 1.0000
50.0939 -10.2464 4.7636 1.0000
50.0939 -10.0904 4.7607 1.0000
50.0939 -9.7789 4.7551 1.0000
50.0939 -9.4681 4.7496 1.0000
50.0939 -9.3130 4.7470 1.0000
50.0939 -9.0033 4.7418 1.0000
50.0939 -8.5399 4.7343 1.0000
50.0939 -8.3858 4.7319 1.0000
50.0939 -8.2318 4.7296 1.0000
50.0939 -8.0780 4.7273 1.0000
50.0939 -7.9243 4.7250 1.0000
50.0939 -7.7708 4.7228 1.0000
50.0939 -7.6174 4.7206 1.0000
50.0938 -7.1580 4.7144 1.0000
50.0938 -6.8525 4.7104 1.0000
50.0938 -6.6999 4.7085 1.0000
50.0938 -6.2428 4.7031 1.0000
50.0938 -6.0907 4.7013 1.0000
50.0938 -5.6350 4.6964 1.0000
50.0938 -5.4832 4.6948 1.0000
50.0938 -5.3316 4.6933 1.0000
50.0938 -5.1802 4.6919 1.0000
50.0938 -5.0287 4.6904 1.0000
50.0938 -4.5750 4.6864 1.0000
50.0938 -4.4240 4.6851 1.0000
50.0938 -4.2730 4.6839 1.0000
50.0938 -3.9712 4.6816 1.0000
50.0938 -3.2181 4.6766 1.0000
50.0938 -3.0677 4.6757 1.0000
50.0938 -2.9173 4.6749 1.0000
50.0938 -2.6166 4.6733 1.0000
50.0938 -2.4664 4.6726 1.0000
50.0939 -2.3162 4.6720 1.0000
50.0939 -2.1661 4.6713 1.0000
50.0939 -1.8659 4.6702 1.0000
50.0939 -1.5658 4.6693 1.0000
50.0939 -1.2659 4.6685 1.0000
50.0939 -1.1159 4.6681 1.0000
50.0939 -0.9661 4.6679 1.0000
50.0939 -0.5164 4.6672 1.0000
50.0939 -0.2166 4.6670 1.0000
50.0939 -0.0668 4.6670 1.0000
50.0939 0.5327 4.6672 1.0000
50.0939 0.6825 4.6674 1.0000
50.0939 0.8324 4.6676 1.0000
50.0939 0.9823 4.6679 1.0000
50.0939 1.2822 4.6685 1.0000
50.0939 1.4321 4.6689 1.0000
50.0939 1.5821 4.6693 1.0000
50.0939 1.7321 4.6698 1.0000
50.0939 1.8822 4.6703 1.0000
50.0939 2.0323 4.6708 1.0000
50.0939 2.1824 4.6714 1.0000
50.0939 2.4828 4.6727 1.0000
50.0939 2.6330 4.6734 1.0000
50.0939 2.9336 4.6750 1.0000
50.0939 3.0840 4.6758 1.0000
50.0939 3.3850 4.6776 1.0000
50.0939 3.5355 4.6786 1.0000
50.0939 3.8369 4.6806 1.0000
50.0939 3.9877 4.6817 1.0000
50.0939 4.1385 4.6829 1.0000
50.0939 4.2894 4.6841 1.0000
50.0939 4.4404 4.6853 1.0000
50.0939 4.8939 4.6892 1.0000
50.0939 5.1966 4.6920 1.0000
50.0939 5.3481 4.6935 1.0000
50.0939 5.4997 4.6950 1.0000
50.0939 5.6514 4.6966 1.0000
50.0939 5.8032 4.6982 1.0000
50.0939 5.9552 4.6998 1.0000
50.0939 6.5639 4.7069 1.0000
50.0939 6.7164 4.7087 1.0000
50.0939 7.1747 4.7146 1.0000
50.0939 7.6340 4.7209 1.0000
50.0939 7.7875 4.7230 1.0000
50.0939 8.0947 4.7275 1.0000
50.0939 8.2485 4.7298 1.0000
50.0939 9.3298 4.7472 1.0000
50.0939 9.6403 4.7526 1.0000
50.0939 9.7958 4.7554 1.0000
50.0939 10.1073 4.7610 1.0000
50.0939 10.4196 4.7669 1.0000
50.0939 10.5761 4.7699 1.0000
50.0939 11.0466 4.7791 1.0000
50.0939 11.3613 4.7855 1.0000
50.0939 11.5189 4.7888 1.0000
50.0939 11.6768 4.7921 1.0000
50.0939 12.4696 4.8094 1.0000
50.0939 12.6289 4.8130 1.0000
50.0939 12.9481 4.8204 1.0000
50.0939 13.1081 4.8241 1.0000
50.0939 -13.2559 4.8276 1.0000
50.0939 -12.7760 4.8164 1.0000
50.0939 -12.6166 4.8127 1.0000
50.0939 -12.2983 4.8056 1.0000
50.0939 -12.1395 4.8021 1.0000
50.0939 -11.9810 4.7986 1.0000
50.0939 -11.5067 4.7885 1.0000
50.0939 -11.3491 4.7853 1.0000
50.0939 -11.1916 4.7820 1.0000
50.0939 -11.0344 4.7789 1.0000
50.0939 -10.8773 4.7757 1.0000
50.0939 -10.7205 4.7727 1.0000
50.0939 -10.5639 4.7696 1.0000
50.0939 -10.2513 4.7637 1.0000
50.0939 -10.0952 4.7608 1.0000
50.0939 -9.9394 4.7580 1.0000
50.0939 -9.4730 4.7497 1.0000
50.0939 -9.3179 4.7470 1.0000
50.0939 -9.0081 4.7418 1.0000
50.0939 -8.6991 4.7368 1.0000
50.0939 -7.9291 4.7251 1.0000
50.0938 -7.4689 4.7186 1.0000
50.0938 -7.3158 4.7165 1.0000
50.0938 -7.0100 4.7124 1.0000
50.0938 -6.7046 4.7086 1.0000
50.0938 -6.3998 4.7049 1.0000
50.0938 -6.2476 4.7031 1.0000
50.0938 -5.9434 4.6997 1.0000
50.0938 -5.7915 4.6981 1.0000
50.0938 -5.6397 4.6965 1.0000
50.0938 -5.3364 4.6934 1.0000
50.0938 -5.0335 4.6905 1.0000
50.0938 -4.7309 4.6877 1.0000
50.0938 -4.5798 4.6864 1.0000
50.0938 -4.1268 4.6828 1.0000
50.0938 -3.8252 4.6806 1.0000
50.0938 -3.6745 4.6795 1.0000
50.0938 -3.5239 4.6785 1.0000
50.0938 -3.3733 4.6776 1.0000
50.0938 -3.0724 4.6758 1.0000
50.0938 -2.7716 4.6741 1.0000
50.0938 -2.4711 4.6727 1.0000
50.0939 -2.3209 4.6720 1.0000
50.0939 -1.8706 4.6702 1.0000
50.0939 -1.7205 4.6697 1.0000
50.0939 -1.2705 4.6685 1.0000
50.0939 -0.9707 4.6679 1.0000
50.0939 -0.8208 4.6676 1.0000
50.0939 -0.5211 4.6672 1.0000
50.0939 -0.3712 4.6671 1.0000
50.0939 -0.0714 4.6670 1.0000
50.0939 0.0784 4.6670 1.0000
50.0939 0.3781 4.6671 1.0000
50.0939 0.5280 4.6672 1.0000
50.0939 -12.9307 3.9398 1.0000
50.0939 -12.7711 3.9368 1.0000
50.0939 -12.2933 3.9280 1.0000
50.0939 -12.1346 3.9251 1.0000
50.0939 -11.9761 3.9223 1.0000
50.0939 -11.8178 3.9195 1.0000
50.0939 -11.6596 3.9168 1.0000
50.0939 -11.3441 3.9114 1.0000
50.0939 -11.1867 3.9088 1.0000
50.0939 -10.8725 3.9036 1.0000
50.0939 -10.7157 3.9011 1.0000
50.0939 -10.5591 3.8986 1.0000
50.0939 -10.4026 3.8962 1.0000
50.0939 -10.2464 3.8938 1.0000
50.0939 -9.7789 3.8868 1.0000
50.0939 -9.4681 3.8823 1.0000
50.0939 -9.0033 3.8759 1.0000
50.0939 -8.8486 3.8739 1.0000
50.0939 -8.5400 3.8698 1.0000
50.0939 -8.3858 3.8679 1.0000
50.0939 -8.0780 3.8641 1.0000
50.0939 -7.9243 3.8622 1.0000
50.0939 -7.7707 3.8604 1.0000
50.0939 -7.6174 3.8587 1.0000
50.0938 -7.4641 3.8569 1.0000
50.0938 -7.1580 3.8535 1.0000
50.0938 -6.8525 3.8503 1.0000
50.0938 -6.6999 3.8488 1.0000
50.0938 -6.2428 3.8443 1.0000
50.0938 -6.0907 3.8429 1.0000
50.0938 -5.9387 3.8415 1.0000
50.0938 -5.7868 3.8402 1.0000
50.0938 -5.3317 3.8363 1.0000
50.0938 -4.5750 3.8307 1.0000
50.0938 -4.4239 3.8296 1.0000
50.0938 -3.9712 3.8268 1.0000
50.0938 -3.6698 3.8250 1.0000
50.0938 -3.3686 3.8234 1.0000
50.0938 -3.0677 3.8219 1.0000
50.0938 -2.7669 3.8206 1.0000
50.0938 -2.6167 3.8200 1.0000
50.0939 -2.4664 3.8194 1.0000
50.0939 -2.3162 3.8189 1.0000
50.0939 -2.1661 3.8184 1.0000
50.0939 -1.8658 3.8174 1.0000
50.0939 -1.5658 3.8167 1.0000
50.0939 -1.2658 3.8160 1.0000
50.0939 -1.1159 3.8157 1.0000
50.0939 -0.6662 3.8151 1.0000
50.0939 -0.5163 3.8150 1.0000
50.0939 -0.2166 3.8148 1.0000
50.0939 -0.0668 3.8148 1.0000
50.0939 0.5327 3.8150 1.0000
50.0939 0.9823 3.8155 1.0000
50.0939 1.1323 3.8158 1.0000
50.0939 1.2822 3.8160 1.0000
50.0939 1.5821 3.8167 1.0000
50.0939 2.0323 3.8179 1.0000
50.0939 2.1825 3.8184 1.0000
50.0939 2.3326 3.8189 1.0000
50.0939 2.7833 3.8207 1.0000
50.0939 2.9337 3.8213 1.0000
50.0939 3.2345 3.8227 1.0000
50.0939 3.9877 3.8269 1.0000
50.0939 4.1385 3.8278 1.0000
50.0939 4.4404 3.8298 1.0000
50.0939 4.7427 3.8319 1.0000
50.0939 4.8939 3.8330 1.0000
50.0939 5.3482 3.8365 1.0000
50.0939 5.6514 3.8390 1.0000
50.0939 5.8033 3.8403 1.0000
50.0939 6.1072 3.8430 1.0000
50.0939 6.2594 3.8445 1.0000
50.0939 6.8691 3.8505 1.0000
50.0939 8.0947 3.8643 1.0000
50.0939 8.2486 3.8662 1.0000
50.0939 8.4025 3.8681 1.0000
50.0939 8.5567 3.8700 1.0000
50.0939 8.7110 3.8720 1.0000
50.0939 9.3299 3.8804 1.0000
50.0939 9.4850 3.8826 1.0000
50.0939 9.6404 3.8848 1.0000
50.0939 9.9515 3.8893 1.0000
50.0939 10.4196 3.8964 1.0000
50.0939 10.5761 3.8989 1.0000
50.0939 10.8896 3.9039 1.0000
50.0939 11.0466 3.9064 1.0000
50.0939 11.6768 3.9171 1.0000
50.0939 12.1518 3.9254 1.0000
50.0939 12.4696 3.9312 1.0000
50.0939 12.9482 3.9402 1.0000
50.0939 13.2684 3.9463 1.0000
50.0939 -13.2560 3.9461 1.0000
50.0939 -12.4573 3.9310 1.0000
50.0939 -12.2983 3.9281 1.0000
50.0939 -11.5067 3.9141 1.0000
50.0939 -11.1916 3.9088 1.0000
50.0939 -11.0344 3.9062 1.0000
50.0939 -10.5639 3.8987 1.0000
50.0939 -10.2513 3.8939 1.0000
50.0939 -9.6282 3.8846 1.0000
50.0939 -9.4730 3.8824 1.0000
50.0939 -9.3179 3.8802 1.0000
50.0939 -9.0081 3.8760 1.0000
50.0939 -8.8535 3.8739 1.0000
50.0939 -8.5448 3.8699 1.0000
50.0939 -8.2366 3.8660 1.0000
50.0939 -8.0828 3.8641 1.0000
50.0939 -7.9291 3.8623 1.0000
50.0939 -7.7756 3.8605 1.0000
50.0939 -7.6222 3.8587 1.0000
50.0938 -6.8572 3.8504 1.0000
50.0938 -6.7046 3.8488 1.0000
50.0938 -6.5521 3.8473 1.0000
50.0938 -6.2475 3.8443 1.0000
50.0938 -5.6397 3.8389 1.0000
50.0938 -5.4880 3.8376 1.0000
50.0938 -5.3364 3.8364 1.0000
50.0938 -5.1849 3.8352 1.0000
50.0938 -5.0335 3.8340 1.0000
50.0938 -4.2777 3.8287 1.0000
50.0938 -3.8252 3.8259 1.0000
50.0938 -3.5239 3.8242 1.0000
50.0938 -3.2229 3.8227 1.0000
50.0939 -2.3209 3.8189 1.0000
50.0938 -2.1707 3.8184 1.0000
50.0939 -2.0206 3.8179 1.0000
50.0939 -1.8705 3.8175 1.0000
50.0939 -0.2213 3.8148 1.0000
50.0939 0.2283 3.8148 1.0000
50.0939 0.5280 3.8150 1.0000
50.0939 -12.7710 3.0596 1.0000
50.0939 -12.4523 3.0550 1.0000
50.0939 -12.2933 3.0528 1.0000
50.0939 -12.1346 3.0506 1.0000
50.0939 -11.9760 3.0483 1.0000
50.0939 -11.8177 3.0462 1.0000
50.0939 -11.3441 3.0399 1.0000
50.0939 -11.1867 3.0378 1.0000
50.0939 -11.0295 3.0358 1.0000
50.0939 -10.8725 3.0338 1.0000
50.0939 -10.7157 3.0319 1.0000
50.0939 -10.5591 3.0300 1.0000
50.0939 -10.4026 3.0281 1.0000
50.0939 -10.0904 3.0244 1.0000
50.0939 -9.9345 3.0225 1.0000
50.0939 -9.7789 3.0208 1.0000
50.0939 -9.1580 3.0139 1.0000
50.0939 -8.6942 3.0091 1.0000
50.0939 -8.5400 3.0076 1.0000
50.0939 -8.2318 3.0046 1.0000
50.0939 -7.9243 3.0017 1.0000
50.0939 -7.7708 3.0003 1.0000
50.0938 -7.1580 2.9949 1.0000
50.0938 -7.0052 2.9936 1.0000
50.0938 -6.6999 2.9912 1.0000
50.0938 -6.5474 2.9900 1.0000
50.0938 -6.3950 2.9889 1.0000
50.0938 -5.6350 2.9835 1.0000
50.0938 -5.3316 2.9815 1.0000
50.0938 -5.0287 2.9797 1.0000
50.0938 -4.8774 2.9788 1.0000
25.0525 -2.3636 1.4893 1.0000
25.0522 -2.2880 1.4889 1.0000
25.0519 -2.2125 1.4885 1.0000
25.0516 -2.1369 1.4881 1.0000
25.0506 -1.9105 1.4869 1.0000
25.0502 -1.8352 1.4866 1.0000
25.0527 -1.6095 1.4858 1.0000
25.0540 -1.5343 1.4856 1.0000
25.0527 -1.1584 1.4843 1.0000
25.0545 -0.7082 1.4834 1.0000
25.0557 -0.6332 1.4834 1.0000
25.0571 -0.5582 1.4834 1.0000
25.0584 -0.4833 1.4834 1.0000
25.0599 -0.3333 1.4833 1.0000
25.0603 -0.2584 1.4833 1.0000
25.0606 -0.1834 1.4832 1.0000
25.0610 -0.1084 1.4832 1.0000
25.0618 0.0415 1.4833 1.0000
25.0625 0.1915 1.4834 1.0000
25.0648 0.6415 1.4839 1.0000
50.0939 1.5821 2.9663 1.0000
50.0939 1.8822 2.9669 1.0000
50.0939 2.0323 2.9672 1.0000
50.0939 2.4828 2.9684 1.0000
50.0939 2.7833 2.9694 1.0000
50.0939 3.0840 2.9704 1.0000
50.0939 3.3850 2.9716 1.0000
50.0939 3.6862 2.9728 1.0000
50.0939 4.2894 2.9756 1.0000
50.0939 4.4404 2.9764 1.0000
50.0939 5.3481 2.9816 1.0000
50.0939 5.8033 2.9846 1.0000
50.0939 5.9552 2.9857 1.0000
50.0939 6.1072 2.9868 1.0000
50.0939 6.2594 2.9879 1.0000
50.0939 6.5640 2.9901 1.0000
50.0939 6.7165 2.9913 1.0000
50.0939 6.8691 2.9925 1.0000
50.0939 7.0218 2.9938 1.0000
50.0939 7.4808 2.9977 1.0000
50.0939 7.7875 3.0004 1.0000
50.0939 8.2486 3.0047 1.0000
50.0939 8.4025 3.0062 1.0000
50.0939 9.1749 3.0141 1.0000
50.0939 9.4850 3.0175 1.0000
50.0939 9.6403 3.0192 1.0000
50.0939 9.9515 3.0227 1.0000
50.0939 10.1073 3.0245 1.0000
50.0939 11.0466 3.0360 1.0000
50.0939 11.2038 3.0380 1.0000
50.0939 11.5189 3.0422 1.0000
50.0939 11.8349 3.0464 1.0000
50.0939 11.9933 3.0486 1.0000
50.0939 12.1518 3.0508 1.0000
50.0939 12.7884 3.0599 1.0000
50.0939 12.9481 3.0622 1.0000
50.0939 13.1081 3.0646 1.0000
50.0939 -13.4164 3.0693 1.0000
50.0939 -12.9357 3.0621 1.0000
50.0939 -12.7760 3.0597 1.0000
50.0939 -12.2983 3.0528 1.0000
50.0939 -11.9810 3.0484 1.0000
50.0939 -11.6646 3.0441 1.0000
50.0939 -10.7206 3.0319 1.0000
50.0939 -10.2513 3.0262 1.0000
50.0939 -9.4730 3.0173 1.0000
50.0939 -8.5447 3.0076 1.0000
50.0939 -8.3906 3.0061 1.0000
50.0939 -8.0828 3.0031 1.0000
50.0939 -7.9291 3.0017 1.0000
50.0939 -7.7756 3.0003 1.0000
50.0938 -7.4689 2.9976 1.0000
50.0938 -7.0100 2.9937 1.0000
50.0938 -6.3998 2.9889 1.0000
50.0938 -6.0954 2.9867 1.0000
50.0938 -5.9434 2.9856 1.0000
50.0938 -5.7914 2.9845 1.0000
50.0938 -5.6397 2.9835 1.0000
50.0938 -5.3364 2.9816 1.0000
50.0938 -5.0335 2.9797 1.0000
25.0525 -2.3661 1.4893 1.0000
25.0519 -2.2148 1.4885 1.0000
25.0516 -2.1393 1.4881 1.0000
25.0509 -1.9883 1.4873 1.0000
25.0506 -1.9129 1.4869 1.0000
25.0527 -1.6118 1.4858 1.0000
25.0538 -1.3110 1.4848 1.0000
25.0507 -0.9355 1.4837 1.0000
25.0518 -0.8604 1.4836 1.0000
25.0544 -0.7104 1.4834 1.0000
25.0570 -0.5605 1.4834 1.0000
25.0606 -0.1857 1.4832 1.0000
25.0618 0.0392 1.4833 1.0000
25.0621 0.1142 1.4833 1.0000
25.0625 0.1891 1.4834 1.0000
25.0633 0.3391 1.4835 1.0000
50.0939 -13.0907 2.1876 1.0000
50.0939 -12.9307 2.1859 1.0000
50.0939 -12.4523 2.1809 1.0000
50.0939 -12.2934 2.1793 1.0000
50.0939 -11.6596 2.1731 1.0000
50.0939 -11.5018 2.1716 1.0000
50.0939 -11.3441 2.1701 1.0000
50.0939 -11.1867 2.1686 1.0000
50.0938 -11.0295 2.1672 1.0000
50.0939 -10.8725 2.1658 1.0000
50.0939 -10.7157 2.1644 1.0000
50.0939 -10.5591 2.1630 1.0000
50.0939 -10.4026 2.1617 1.0000
50.0939 -10.0904 2.1590 1.0000
50.0939 -9.9345 2.1577 1.0000
50.0939 -9.7789 2.1565 1.0000
50.0939 -9.4681 2.1540 1.0000
50.0939 -9.0033 2.1504 1.0000
50.0939 -8.5399 2.1470 1.0000
50.0939 -8.3858 2.1460 1.0000
50.0938 -8.2318 2.1449 1.0000
50.0939 -7.9243 2.1428 1.0000
50.0939 -7.6174 2.1408 1.0000
50.0938 -7.4641 2.1399 1.0000
50.0938 -7.3110 2.1389 1.0000
50.0938 -7.1580 2.1380 1.0000
50.0938 -6.8524 2.1362 1.0000
50.0938 -6.3950 2.1337 1.0000
50.0938 -6.0906 2.1321 1.0000
50.0938 -5.4832 2.1291 1.0000
25.0073 -2.4348 1.0616 1.0000
25.0073 -2.2839 1.0610 1.0000
25.0085 -2.2086 1.0607 1.0000
25.0099 -2.1333 1.0605 1.0000
25.0125 -1.9829 1.0601 1.0000
25.0138 -1.9077 1.0599 1.0000
25.0177 -1.6823 1.0594 1.0000
25.0212 -1.4571 1.0590 1.0000
25.0230 -1.3071 1.0587 1.0000
25.0234 -1.1570 1.0584 1.0000
25.0241 -1.0820 1.0583 1.0000
25.0252 -1.0071 1.0582 1.0000
25.0286 -0.7823 1.0580 1.0000
25.0299 -0.7075 1.0580 1.0000
25.0326 -0.5577 1.0579 1.0000
25.0338 -0.4827 1.0579 1.0000
25.0352 -0.4079 1.0579 1.0000
25.0378 -0.2581 1.0579 1.0000
25.0391 -0.1832 1.0580 1.0000
25.0405 -0.1083 1.0580 1.0000
25.0431 0.0415 1.0581 1.0000
25.0471 0.2663 1.0583 1.0000
25.0517 0.6413 1.0588 1.0000
25.2379 0.8727 1.0670 1.0000
25.2357 0.9482 1.0670 1.0000
25.2337 1.0237 1.0670 1.0000
25.2320 1.3263 1.0675 1.0000
25.2309 1.4019 1.0677 1.0000
25.2320 1.4776 1.0679 1.0000
25.2341 1.5536 1.0682 1.0000
25.2428 1.8575 1.0694 1.0000
25.2442 1.9335 1.0697 1.0000
25.2480 2.0098 1.0701 1.0000
24.8661 2.1292 1.0545 1.0000
25.2925 2.5473 1.0740 1.0000
50.0938 5.4998 2.1292 1.0000
50.0938 6.2594 2.1330 1.0000
50.0938 6.5640 2.1346 1.0000
50.0938 7.0218 2.1372 1.0000
50.0938 7.1746 2.1381 1.0000
50.0938 7.3277 2.1390 1.0000
50.0938 7.4808 2.1400 1.0000
50.0938 7.6341 2.1409 1.0000
50.0938 7.7875 2.1419 1.0000
50.0938 8.0947 2.1440 1.0000
50.0938 8.2486 2.1450 1.0000
50.0938 8.4025 2.1461 1.0000
50.0938 8.8655 2.1494 1.0000
50.0938 9.1749 2.1517 1.0000
50.0938 9.3298 2.1529 1.0000
50.0938 9.4850 2.1541 1.0000
50.0938 9.6403 2.1553 1.0000
50.0938 9.7958 2.1566 1.0000
50.0938 10.1073 2.1592 1.0000
50.0938 10.2634 2.1605 1.0000
50.0938 10.7327 2.1645 1.0000
50.0938 10.8895 2.1659 1.0000
50.0938 11.0466 2.1674 1.0000
50.0938 11.3613 2.1703 1.0000
50.0938 11.5189 2.1717 1.0000
50.0938 11.8349 2.1748 1.0000
50.0938 11.9932 2.1763 1.0000
50.0938 12.3106 2.1795 1.0000
50.0938 12.4696 2.1811 1.0000
50.0938 12.6289 2.1827 1.0000
50.0938 12.7884 2.1844 1.0000
50.0939 -13.0957 2.1876 1.0000
50.0939 -12.4573 2.1810 1.0000
50.0939 -12.2983 2.1794 1.0000
50.0939 -12.1395 2.1778 1.0000
50.0939 -11.9810 2.1762 1.0000
50.0939 -11.8227 2.1747 1.0000
50.0939 -11.6645 2.1731 1.0000
50.0939 -11.1916 2.1687 1.0000
50.0939 -11.0344 2.1672 1.0000
50.0939 -10.7205 2.1644 1.0000
50.0939 -10.5639 2.1631 1.0000
50.0939 -10.4075 2.1617 1.0000
50.0939 -9.9394 2.1578 1.0000
50.0939 -9.6283 2.1552 1.0000
50.0939 -9.3178 2.1528 1.0000
50.0939 -9.1629 2.1516 1.0000
50.0938 -8.6990 2.1482 1.0000
50.0939 -8.5447 2.1471 1.0000
50.0939 -8.3906 2.1460 1.0000
50.0938 -7.4689 2.1399 1.0000
50.0938 -7.3158 2.1389 1.0000
50.0938 -7.1628 2.1380 1.0000
50.0938 -6.7046 2.1354 1.0000
50.0938 -6.5521 2.1345 1.0000
50.0938 -6.3998 2.1337 1.0000
50.0938 -6.0954 2.1321 1.0000
50.0938 -5.7915 2.1306 1.0000
50.0938 -5.6397 2.1299 1.0000
50.0938 -5.1848 2.1278 1.0000
25.0070 -2.3617 1.0613 1.0000
25.0072 -2.2862 1.0610 1.0000
25.0098 -2.1357 1.0605 1.0000
25.0111 -2.0604 1.0603 1.0000
25.0137 -1.9101 1.0599 1.0000
25.0163 -1.7598 1.0596 1.0000
25.0176 -1.6846 1.0594 1.0000
25.0189 -1.6096 1.0593 1.0000
25.0212 -1.4595 1.0590 1.0000
25.0240 -1.2344 1.0586 1.0000
25.0241 -1.0844 1.0583 1.0000
25.0251 -1.0095 1.0582 1.0000
25.0261 -0.9345 1.0581 1.0000
25.0273 -0.8596 1.0580 1.0000
25.0312 -0.6349 1.0579 1.0000
25.0325 -0.5600 1.0579 1.0000
25.0338 -0.4851 1.0579 1.0000
25.0352 -0.4102 1.0579 1.0000
25.0378 -0.2604 1.0579 1.0000
25.0417 -0.0357 1.0580 1.0000
25.0457 0.1891 1.0582 1.0000
50.0939 -12.9307 1.3110 1.0000
50.0938 -12.6116 1.3090 1.0000
50.0939 -12.4524 1.3081 1.0000
