ply
format ascii 1.0
element vertex 1602
property float32 x
property float32 y
property float32 z
property float32 I
end_header
50.0964 4.8947 11.6805 1.0000
50.0964 5.1974 11.6875 1.0000
50.0964 5.3488 11.6912 1.0000
50.0964 5.8038 11.7029 1.0000
50.0964 5.9557 11.7070 1.0000
50.0965 6.2597 11.7155 1.0000
50.0964 6.5642 11.7245 1.0000
50.0964 6.8692 11.7339 1.0000
50.0964 7.0219 11.7388 1.0000
50.0964 7.3276 11.7488 1.0000
50.0964 8.2481 11.7816 1.0000
50.0964 8.5562 11.7934 1.0000
50.0964 8.7104 11.7995 1.0000
50.0964 8.8648 11.8057 1.0000
50.0964 9.7948 11.8452 1.0000
50.0964 10.1062 11.8593 1.0000
50.0965 10.4184 11.8739 1.0000
50.0965 10.5748 11.8813 1.0000
50.0965 10.8881 11.8965 1.0000
50.0965 11.2023 11.9122 1.0000
50.0965 11.6752 11.9366 1.0000
50.0965 11.9914 11.9535 1.0000
50.0965 12.1500 11.9621 1.0000
50.0963 -12.4279 11.0622 1.0000
50.0962 -12.1103 11.0460 1.0000
50.0963 -11.9519 11.0381 1.0000
50.0962 -11.7937 11.0303 1.0000
50.0963 -11.6357 11.0226 1.0000
50.0962 -11.3203 11.0075 1.0000
50.0963 -10.8489 10.9857 1.0000
50.0963 -10.6922 10.9786 1.0000
50.0963 -10.5358 10.9716 1.0000
50.0963 -10.3794 10.9648 1.0000
50.0963 -10.2233 10.9581 1.0000
50.0963 -10.0673 10.9514 1.0000
50.0963 -9.9115 10.9449 1.0000
50.0963 -9.4454 10.9259 1.0000
50.0963 -9.2904 10.9198 1.0000
50.0963 -8.9808 10.9079 1.0000
50.0963 -8.8263 10.9021 1.0000
50.0962 -8.6719 10.8964 1.0000
50.0962 -8.5177 10.8909 1.0000
50.0962 -8.0560 10.8747 1.0000
50.0962 -7.7489 10.8644 1.0000
50.0962 -7.5956 10.8595 1.0000
50.0962 -7.1365 10.8451 1.0000
50.0962 -6.8311 10.8361 1.0000
50.0962 -6.6786 10.8317 1.0000
50.0962 -6.3738 10.8233 1.0000
50.0962 -6.0697 10.8153 1.0000
50.0962 -5.9177 10.8114 1.0000
50.0962 -5.7659 10.8076 1.0000
50.0962 -5.6142 10.8040 1.0000
50.0962 -5.4625 10.8004 1.0000
50.0961 -5.3110 10.7969 1.0000
50.0962 -5.0082 10.7903 1.0000
50.0962 -4.7058 10.7840 1.0000
50.0962 -4.5547 10.7810 1.0000
50.0962 -4.1020 10.7727 1.0000
50.0962 -3.8005 10.7676 1.0000
50.0962 -3.1984 10.7586 1.0000
50.0962 -2.8977 10.7547 1.0000
50.0962 -2.5972 10.7512 1.0000
50.0962 -2.2969 10.7480 1.0000
50.0962 -1.8467 10.7441 1.0000
50.0962 -1.6967 10.7429 1.0000
50.0962 -0.9472 10.7387 1.0000
50.0962 -0.6476 10.7376 1.0000
50.0962 -0.3479 10.7370 1.0000
50.0962 -0.1981 10.7368 1.0000
50.0962 -0.0483 10.7368 1.0000
50.0962 0.1015 10.7368 1.0000
50.0962 0.4010 10.7371 1.0000
50.0962 0.5508 10.7374 1.0000
50.0962 0.7007 10.7378 1.0000
50.0962 0.8505 10.7383 1.0000
50.0962 1.1502 10.7396 1.0000
50.0962 1.6000 10.7422 1.0000
50.0962 1.8999 10.7445 1.0000
50.0962 2.5003 10.7501 1.0000
50.0962 2.6505 10.7518 1.0000
50.0962 3.1013 10.7573 1.0000
50.0962 3.2517 10.7593 1.0000
50.0962 3.7033 10.7660 1.0000
50.0962 4.1555 10.7736 1.0000
50.0962 4.7594 10.7851 1.0000
50.0962 5.0619 10.7914 1.0000
50.0962 5.2133 10.7947 1.0000
50.0962 5.6680 10.8053 1.0000
50.0962 5.9716 10.8128 1.0000
50.0962 6.1237 10.8167 1.0000
50.0962 6.8853 10.8377 1.0000
50.0962 7.0379 10.8422 1.0000
50.0962 7.1908 10.8468 1.0000
50.0962 7.3437 10.8515 1.0000
50.0962 7.6500 10.8612 1.0000
50.0962 7.8034 10.8662 1.0000
50.0962 7.9569 10.8713 1.0000
50.0962 8.2643 10.8819 1.0000
50.0962 8.4183 10.8873 1.0000
50.0962 8.5724 10.8928 1.0000
50.0962 8.8811 10.9042 1.0000
50.0962 9.0357 10.9100 1.0000
50.0962 9.1904 10.9159 1.0000
50.0962 9.3453 10.9220 1.0000
50.0962 9.6557 10.9344 1.0000
50.0962 9.8112 10.9407 1.0000
50.0962 10.2787 10.9604 1.0000
50.0963 10.5912 10.9741 1.0000
50.0963 10.7478 10.9811 1.0000
50.0963 10.9046 10.9882 1.0000
50.0963 11.0616 10.9954 1.0000
50.0963 11.5338 11.0177 1.0000
50.0962 11.8498 11.0330 1.0000
50.0962 12.1666 11.0489 1.0000
50.0962 12.4844 11.0651 1.0000
50.0963 12.8030 11.0819 1.0000
50.0962 13.1226 11.0990 1.0000
50.0963 -13.4033 11.1144 1.0000
50.0963 -13.2429 11.1056 1.0000
50.0963 -13.0828 11.0969 1.0000
50.0963 -12.9228 11.0882 1.0000
50.0963 -12.7632 11.0798 1.0000
50.0963 -12.4447 11.0631 1.0000
50.0963 -12.2857 11.0549 1.0000
50.0963 -11.9686 11.0389 1.0000
50.0963 -11.8103 11.0311 1.0000
50.0962 -11.3369 11.0083 1.0000
50.0962 -11.1796 11.0009 1.0000
50.0963 -10.7087 10.9793 1.0000
50.0963 -10.5522 10.9724 1.0000
50.0963 -10.2397 10.9588 1.0000
50.0963 -9.9279 10.9456 1.0000
50.0963 -9.7724 10.9391 1.0000
50.0963 -9.6170 10.9328 1.0000
50.0963 -9.4618 10.9266 1.0000
50.0963 -8.9971 10.9085 1.0000
50.0963 -8.8426 10.9027 1.0000
50.0962 -8.6882 10.8970 1.0000
50.0962 -8.3798 10.8859 1.0000
50.0962 -8.0722 10.8753 1.0000
50.0962 -7.9186 10.8701 1.0000
50.0962 -7.6118 10.8600 1.0000
50.0962 -6.9998 10.8411 1.0000
50.0962 -6.8471 10.8366 1.0000
50.0962 -6.5422 10.8279 1.0000
50.0961 -6.0857 10.8157 1.0000
50.0961 -5.9337 10.8118 1.0000
50.0962 -5.7819 10.8080 1.0000
50.0962 -5.6301 10.8043 1.0000
50.0961 -5.4785 10.8008 1.0000
50.0962 -5.3270 10.7973 1.0000
50.0962 -5.1755 10.7939 1.0000
50.0962 -5.0242 10.7906 1.0000
50.0962 -4.7217 10.7843 1.0000
50.0962 -4.2687 10.7757 1.0000
50.0962 -4.1179 10.7730 1.0000
50.0962 -3.9671 10.7704 1.0000
50.0962 -3.6658 10.7655 1.0000
50.0962 -3.5152 10.7631 1.0000
50.0962 -3.2142 10.7588 1.0000
50.0962 -2.9135 10.7549 1.0000
50.0962 -2.3127 10.7482 1.0000
50.0962 -2.0126 10.7454 1.0000
50.0962 -1.8625 10.7442 1.0000
50.0962 -1.4127 10.7410 1.0000
50.0962 -1.2628 10.7402 1.0000
50.0962 -0.8132 10.7382 1.0000
50.0962 -0.6634 10.7377 1.0000
50.0962 -0.2139 10.7368 1.0000
50.0962 -0.0641 10.7368 1.0000
50.0962 0.0857 10.7368 1.0000
50.0962 0.3853 10.7371 1.0000
50.0962 0.5351 10.7374 1.0000
50.0962 0.9846 10.7388 1.0000
50.0962 1.2844 10.7403 1.0000
50.0962 1.7341 10.7432 1.0000
50.0962 1.8842 10.7443 1.0000
50.0962 2.0342 10.7456 1.0000
50.0962 2.1842 10.7470 1.0000
50.0962 2.3344 10.7484 1.0000
50.0962 2.6347 10.7516 1.0000
50.0962 2.9352 10.7552 1.0000
50.0962 3.0855 10.7571 1.0000
50.0962 3.2359 10.7591 1.0000
50.0962 3.6874 10.7658 1.0000
50.0962 3.8381 10.7682 1.0000
50.0962 4.2904 10.7761 1.0000
50.0962 4.4414 10.7789 1.0000
50.0962 5.1973 10.7944 1.0000
50.0962 5.5004 10.8013 1.0000
50.0962 5.6520 10.8049 1.0000
50.0962 5.8038 10.8086 1.0000
50.0962 5.9556 10.8124 1.0000
50.0962 6.1076 10.8163 1.0000
50.0962 6.2597 10.8202 1.0000
50.0962 6.5642 10.8285 1.0000
50.0962 6.8692 10.8372 1.0000
50.0962 7.0219 10.8417 1.0000
50.0962 7.3276 10.8510 1.0000
50.0962 7.6339 10.8607 1.0000
50.0962 7.9407 10.8708 1.0000
50.0962 8.0943 10.8760 1.0000
50.0962 8.5562 10.8922 1.0000
50.0962 8.7104 10.8978 1.0000
50.0962 8.8648 10.9036 1.0000
50.0962 9.0194 10.9094 1.0000
50.0962 9.1741 10.9153 1.0000
50.0962 9.3290 10.9213 1.0000
50.0962 9.4841 10.9275 1.0000
50.0962 9.6394 10.9337 1.0000
50.0962 9.7948 10.9401 1.0000
50.0962 10.1062 10.9531 1.0000
50.0962 10.2622 10.9597 1.0000
50.0963 10.4184 10.9665 1.0000
50.0963 10.5747 10.9734 1.0000
50.0963 10.7313 10.9803 1.0000
50.0963 10.8881 10.9874 1.0000
50.0963 11.0451 10.9946 1.0000
50.0963 11.2022 11.0019 1.0000
50.0963 11.3596 11.0093 1.0000
50.0963 11.8331 11.0322 1.0000
50.0963 12.1499 11.0480 1.0000
50.0961 -12.5870 10.1611 1.0000
50.0961 -12.4278 10.1536 1.0000
50.0961 -12.2689 10.1461 1.0000
50.0961 -11.7936 10.1242 1.0000
50.0961 -11.6356 10.1172 1.0000
50.0961 -11.1629 10.0965 1.0000
50.0961 -11.0058 10.0898 1.0000
50.0961 -10.8488 10.0833 1.0000
50.0961 -10.3793 10.0641 1.0000
50.0961 -10.0672 10.0519 1.0000
50.0961 -9.7560 10.0400 1.0000
50.0961 -9.4454 10.0285 1.0000
50.0961 -9.2903 10.0229 1.0000
50.0961 -9.1354 10.0173 1.0000
50.0961 -8.9808 10.0119 1.0000
50.0960 -8.6719 10.0014 1.0000
50.0961 -8.2097 9.9863 1.0000
50.0961 -8.0560 9.9814 1.0000
50.0961 -7.9024 9.9767 1.0000
50.0961 -7.7489 9.9720 1.0000
50.0960 -7.4424 9.9630 1.0000
50.0960 -7.1365 9.9543 1.0000
50.0960 -6.8310 9.9460 1.0000
50.0960 -6.6785 9.9420 1.0000
50.0960 -6.0696 9.9269 1.0000
50.0959 -5.7659 9.9199 1.0000
50.0960 -5.6142 9.9165 1.0000
50.0960 -5.1596 9.9069 1.0000
50.0960 -5.0082 9.9039 1.0000
50.0960 -4.8570 9.9010 1.0000
50.0960 -4.7058 9.8982 1.0000
50.0959 -4.5547 9.8955 1.0000
50.0960 -4.4037 9.8928 1.0000
50.0960 -3.8005 9.8831 1.0000
50.0960 -3.4994 9.8788 1.0000
50.0960 -3.3488 9.8768 1.0000
50.0959 -2.7474 9.8696 1.0000
50.0960 -2.5972 9.8680 1.0000
50.0960 -2.4470 9.8666 1.0000
50.0960 -2.2969 9.8652 1.0000
50.0960 -1.9967 9.8626 1.0000
50.0960 -1.6967 9.8605 1.0000
50.0960 -1.5467 9.8595 1.0000
50.0960 -1.3968 9.8586 1.0000
50.0960 -0.9472 9.8566 1.0000
50.0960 -0.4977 9.8553 1.0000
50.0960 -0.3479 9.8550 1.0000
50.0960 -0.0483 9.8548 1.0000
50.0960 0.2513 9.8549 1.0000
50.0960 0.5510 9.8554 1.0000
50.0960 0.7007 9.8558 1.0000
50.0960 0.8506 9.8562 1.0000
50.0960 1.1503 9.8574 1.0000
50.0960 1.4501 9.8589 1.0000
50.0960 1.7500 9.8608 1.0000
50.0960 2.0500 9.8631 1.0000
50.0960 2.2001 9.8643 1.0000
50.0960 2.8008 9.8702 1.0000
50.0960 3.5528 9.8796 1.0000
50.0960 3.8540 9.8839 1.0000
50.0960 4.4573 9.8937 1.0000
50.0960 4.7594 9.8992 1.0000
50.0960 5.2133 9.9080 1.0000
50.0960 5.3647 9.9112 1.0000
50.0960 5.5163 9.9144 1.0000
50.0960 5.6680 9.9177 1.0000
50.0961 5.8197 9.9211 1.0000
50.0961 6.2757 9.9318 1.0000
50.0961 6.4279 9.9356 1.0000
50.0961 6.7327 9.9434 1.0000
50.0961 7.0379 9.9516 1.0000
50.0961 7.1907 9.9558 1.0000
50.0961 7.3437 9.9601 1.0000
50.0961 7.4967 9.9646 1.0000
50.0961 8.1105 9.9831 1.0000
50.0961 8.2642 9.9880 1.0000
50.0960 8.4183 9.9930 1.0000
50.0960 8.5724 9.9981 1.0000
50.0960 9.1904 10.0193 1.0000
50.0961 9.8111 10.0420 1.0000
50.0961 9.9667 10.0480 1.0000
50.0960 10.1226 10.0540 1.0000
50.0960 10.4347 10.0663 1.0000
50.0961 10.7478 10.0791 1.0000
50.0961 11.3762 10.1057 1.0000
50.0961 11.5338 10.1126 1.0000
50.0961 13.1226 10.1873 1.0000
50.0961 13.2828 10.1954 1.0000
50.0961 -13.2428 10.1933 1.0000
50.0961 -12.9228 10.1774 1.0000
50.0961 -12.6038 10.1619 1.0000
50.0961 -12.4446 10.1544 1.0000
50.0961 -12.2856 10.1468 1.0000
50.0961 -11.3369 10.1040 1.0000
50.0961 -11.0224 10.0906 1.0000
50.0961 -10.7087 10.0775 1.0000
50.0961 -10.3958 10.0648 1.0000
50.0961 -10.2396 10.0586 1.0000
50.0961 -10.0837 10.0525 1.0000
50.0961 -9.9279 10.0465 1.0000
50.0961 -9.7723 10.0406 1.0000
50.0961 -9.3066 10.0234 1.0000
50.0961 -9.1518 10.0179 1.0000
50.0961 -8.8425 10.0072 1.0000
50.0961 -8.6881 10.0019 1.0000
50.0960 -8.5339 9.9968 1.0000
50.0961 -8.3799 9.9917 1.0000
50.0961 -8.2259 9.9868 1.0000
50.0961 -7.7651 9.9725 1.0000
50.0961 -7.6117 9.9679 1.0000
50.0960 -7.4585 9.9634 1.0000
50.0959 -6.9998 9.9505 1.0000
50.0959 -6.8471 9.9464 1.0000
50.0960 -5.7819 9.9202 1.0000
50.0959 -5.4785 9.9136 1.0000
50.0960 -5.3270 9.9104 1.0000
50.0960 -5.0242 9.9042 1.0000
50.0960 -4.8729 9.9013 1.0000
50.0960 -4.7217 9.8985 1.0000
50.0960 -4.4197 9.8931 1.0000
50.0960 -4.2687 9.8905 1.0000
50.0960 -4.1179 9.8881 1.0000
50.0960 -3.8164 9.8834 1.0000
50.0959 -3.5152 9.8790 1.0000
50.0959 -3.3647 9.8770 1.0000
50.0960 -3.2142 9.8751 1.0000
50.0960 -3.0638 9.8732 1.0000
50.0960 -2.7633 9.8698 1.0000
50.0959 -2.0125 9.8628 1.0000
50.0960 -1.5626 9.8596 1.0000
50.0960 -1.1128 9.8572 1.0000
50.0960 -0.8131 9.8561 1.0000
50.0960 -0.6633 9.8557 1.0000
50.0960 -0.2138 9.8549 1.0000
50.0960 -0.0640 9.8548 1.0000
50.0960 0.0857 9.8548 1.0000
50.0960 0.2355 9.8549 1.0000
50.0960 0.3853 9.8551 1.0000
50.0960 0.6850 9.8557 1.0000
50.0960 0.8348 9.8562 1.0000
50.0960 0.9846 9.8567 1.0000
50.0960 1.1345 9.8573 1.0000
50.0960 1.2844 9.8580 1.0000
50.0960 1.4343 9.8588 1.0000
50.0960 1.5842 9.8597 1.0000
50.0960 1.7342 9.8607 1.0000
50.0960 1.8842 9.8618 1.0000
50.0960 2.4846 9.8669 1.0000
50.0960 2.6347 9.8684 1.0000
50.0960 2.7849 9.8700 1.0000
50.0960 2.9352 9.8717 1.0000
50.0960 3.0856 9.8735 1.0000
50.0960 3.2360 9.8753 1.0000
50.0960 3.6875 9.8815 1.0000
50.0960 3.8381 9.8837 1.0000
50.0960 4.1396 9.8884 1.0000
50.0960 4.2904 9.8909 1.0000
50.0960 4.4413 9.8935 1.0000
50.0960 4.5924 9.8961 1.0000
50.0960 4.8947 9.9017 1.0000
50.0960 5.0460 9.9047 1.0000
50.0960 5.1973 9.9077 1.0000
50.0960 5.3488 9.9108 1.0000
50.0960 5.5003 9.9140 1.0000
50.0961 5.8037 9.9207 1.0000
50.0961 6.1076 9.9278 1.0000
50.0961 6.5642 9.9391 1.0000
50.0961 6.8691 9.9470 1.0000
50.0961 7.0218 9.9512 1.0000
50.0961 7.1746 9.9554 1.0000
50.0961 7.3275 9.9597 1.0000
50.0961 7.7871 9.9732 1.0000
50.0960 8.7104 10.0027 1.0000
50.0961 8.8647 10.0079 1.0000
50.0960 9.0194 10.0133 1.0000
50.0960 9.1741 10.0187 1.0000
50.0960 9.4840 10.0299 1.0000
50.0960 9.6393 10.0356 1.0000
50.0961 9.7947 10.0414 1.0000
50.0961 10.4183 10.0657 1.0000
50.0961 10.5747 10.0720 1.0000
50.0961 11.0450 10.0915 1.0000
50.0961 11.2022 10.0982 1.0000
50.0961 11.8331 10.1260 1.0000
50.0961 11.9913 10.1332 1.0000
50.0961 12.1498 10.1405 1.0000
50.0959 -12.9059 9.2719 1.0000
50.0959 -12.7463 9.2648 1.0000
50.0959 -11.3203 9.2051 1.0000
50.0959 -11.1629 9.1990 1.0000
50.0959 -10.8489 9.1869 1.0000
50.0959 -10.5356 9.1752 1.0000
50.0959 -10.2232 9.1638 1.0000
50.0959 -10.0672 9.1582 1.0000
50.0959 -9.7559 9.1474 1.0000
50.0959 -9.6005 9.1421 1.0000
50.0959 -9.4453 9.1369 1.0000
50.0959 -9.2903 9.1318 1.0000
50.0959 -9.1354 9.1268 1.0000
50.0959 -8.9807 9.1219 1.0000
50.0959 -8.6718 9.1123 1.0000
50.0959 -8.3636 9.1030 1.0000
50.0959 -8.2097 9.0985 1.0000
50.0959 -8.0560 9.0941 1.0000
50.0959 -7.9023 9.0898 1.0000
50.0958 -7.4424 9.0773 1.0000
50.0958 -7.2893 9.0733 1.0000
50.0958 -7.1364 9.0694 1.0000
50.0958 -6.9837 9.0655 1.0000
50.0958 -6.3738 9.0511 1.0000
50.0958 -6.0696 9.0444 1.0000
50.0958 -5.9177 9.0411 1.0000
50.0958 -5.6141 9.0349 1.0000
50.0958 -5.3109 9.0290 1.0000
50.0958 -5.1596 9.0262 1.0000
50.0958 -5.0082 9.0235 1.0000
50.0958 -4.8569 9.0208 1.0000
50.0958 -4.7058 9.0183 1.0000
50.0958 -4.5547 9.0158 1.0000
50.0958 -3.8005 9.0045 1.0000
50.0957 -3.6499 9.0025 1.0000
50.0957 -3.4993 9.0006 1.0000
50.0958 -3.3488 8.9988 1.0000
50.0957 -3.0479 8.9953 1.0000
50.0958 -2.8976 8.9937 1.0000
50.0957 -2.7474 8.9922 1.0000
50.0958 -2.4470 8.9894 1.0000
50.0958 -2.2968 8.9882 1.0000
50.0958 -2.1468 8.9870 1.0000
50.0958 -1.8467 8.9848 1.0000
50.0958 -1.5467 8.9830 1.0000
50.0958 -1.3968 8.9822 1.0000
50.0958 -0.7974 8.9799 1.0000
50.0958 -0.3479 8.9789 1.0000
50.0958 -0.0483 8.9787 1.0000
50.0958 0.1015 8.9787 1.0000
50.0958 0.4011 8.9790 1.0000
50.0958 0.7007 8.9796 1.0000
50.0958 0.8506 8.9800 1.0000
50.0958 1.0004 8.9805 1.0000
50.0958 1.3001 8.9818 1.0000
50.0958 1.6000 8.9833 1.0000
50.0958 1.7500 8.9842 1.0000
50.0958 2.0500 8.9862 1.0000
50.0958 2.3501 8.9886 1.0000
50.0958 2.9510 8.9943 1.0000
50.0958 3.1014 8.9959 1.0000
50.0958 3.5527 9.0013 1.0000
50.0958 3.7033 9.0032 1.0000
50.0958 3.8540 9.0053 1.0000
50.0958 4.1554 9.0096 1.0000
50.0958 4.6083 9.0166 1.0000
50.0958 4.7594 9.0192 1.0000
50.0959 5.0619 9.0244 1.0000
50.0959 5.2133 9.0272 1.0000
50.0959 5.3647 9.0301 1.0000
50.0959 5.5163 9.0330 1.0000
50.0959 5.9716 9.0423 1.0000
50.0959 6.2756 9.0489 1.0000
50.0958 6.7327 9.0595 1.0000
50.0958 7.0379 9.0669 1.0000
50.0959 7.1907 9.0708 1.0000
50.0959 7.3437 9.0747 1.0000
50.0958 7.4967 9.0787 1.0000
50.0958 7.6499 9.0828 1.0000
50.0959 8.1104 9.0956 1.0000
50.0959 8.4183 9.1046 1.0000
50.0959 8.7266 9.1139 1.0000
50.0959 8.8810 9.1187 1.0000
50.0959 9.5004 9.1388 1.0000
50.0959 9.8111 9.1493 1.0000
50.0959 9.9667 9.1547 1.0000
50.0959 10.1226 9.1602 1.0000
50.0959 10.2785 9.1658 1.0000
50.0959 10.4347 9.1714 1.0000
50.0959 10.5912 9.1772 1.0000
50.0959 11.0615 9.1950 1.0000
50.0959 11.2187 9.2011 1.0000
50.0959 11.5338 9.2136 1.0000
50.0959 11.8497 9.2265 1.0000
50.0959 12.0079 9.2331 1.0000
50.0959 12.1665 9.2397 1.0000
50.0959 12.3253 9.2465 1.0000
50.0959 12.4842 9.2533 1.0000
50.0959 12.6435 9.2603 1.0000
50.0959 12.9626 9.2745 1.0000
50.0959 13.1226 9.2817 1.0000
50.0959 13.2828 9.2890 1.0000
50.0959 -13.4031 9.2945 1.0000
50.0959 -12.7631 9.2656 1.0000
50.0959 -12.6037 9.2585 1.0000
50.0959 -12.4446 9.2516 1.0000
50.0959 -12.1269 9.2381 1.0000
50.0959 -11.9685 9.2314 1.0000
50.0959 -11.8102 9.2249 1.0000
50.0959 -11.3369 9.2058 1.0000
50.0959 -11.0223 9.1935 1.0000
50.0959 -10.3958 9.1700 1.0000
50.0959 -9.4617 9.1375 1.0000
50.0959 -9.3066 9.1324 1.0000
50.0959 -8.6881 9.1128 1.0000
50.0959 -8.5338 9.1081 1.0000
50.0959 -8.3798 9.1035 1.0000
50.0959 -8.0721 9.0946 1.0000
50.0959 -7.7651 9.0860 1.0000
50.0958 -7.4585 9.0777 1.0000
50.0958 -6.9997 9.0660 1.0000
50.0958 -6.8471 9.0622 1.0000
50.0958 -5.9337 9.0415 1.0000
50.0958 -5.6301 9.0353 1.0000
50.0958 -5.3269 9.0293 1.0000
50.0958 -5.1755 9.0265 1.0000
50.0958 -4.8729 9.0211 1.0000
50.0958 -4.7217 9.0185 1.0000
50.0958 -4.5706 9.0160 1.0000
50.0957 -4.4196 9.0136 1.0000
50.0958 -4.2687 9.0113 1.0000
50.0958 -3.9671 9.0068 1.0000
50.0958 -3.8164 9.0047 1.0000
50.0957 -3.5151 9.0008 1.0000
50.0957 -3.3647 8.9990 1.0000
50.0958 -3.0638 8.9955 1.0000
50.0958 -2.9135 8.9939 1.0000
50.0958 -2.6130 8.9909 1.0000
50.0958 -2.3127 8.9883 1.0000
50.0958 -2.1626 8.9871 1.0000
50.0958 -1.7125 8.9840 1.0000
50.0958 -0.9630 8.9804 1.0000
50.0958 -0.8131 8.9799 1.0000
50.0958 -0.6633 8.9795 1.0000
50.0958 -0.5135 8.9792 1.0000
50.0958 -0.3637 8.9790 1.0000
50.0958 -0.2139 8.9788 1.0000
50.0958 0.0857 8.9787 1.0000
50.0958 0.3853 8.9790 1.0000
50.0958 0.6849 8.9796 1.0000
50.0958 1.1345 8.9810 1.0000
50.0958 1.4343 8.9824 1.0000
50.0958 1.5842 8.9832 1.0000
50.0958 1.7342 8.9841 1.0000
50.0958 2.0342 8.9861 1.0000
50.0958 2.6347 8.9911 1.0000
50.0958 2.9352 8.9941 1.0000
50.0958 3.2359 8.9974 1.0000
50.0958 3.5369 9.0011 1.0000
50.0958 3.6874 9.0030 1.0000
50.0958 4.1396 9.0093 1.0000
50.0958 4.2904 9.0116 1.0000
50.0958 4.4414 9.0139 1.0000
50.0958 4.5924 9.0164 1.0000
50.0958 4.7435 9.0189 1.0000
50.0958 4.8947 9.0215 1.0000
50.0959 5.0460 9.0242 1.0000
50.0959 5.1973 9.0269 1.0000
50.0959 5.3488 9.0298 1.0000
50.0959 5.6520 9.0357 1.0000
50.0959 5.9556 9.0420 1.0000
50.0959 6.1076 9.0452 1.0000
50.0958 6.4119 9.0520 1.0000
50.0958 6.7166 9.0591 1.0000
50.0959 6.8691 9.0627 1.0000
50.0958 7.0218 9.0665 1.0000
50.0958 7.1746 9.0703 1.0000
50.0959 7.3275 9.0743 1.0000
50.0958 7.6338 9.0824 1.0000
50.0959 7.9406 9.0908 1.0000
50.0958 8.0943 9.0952 1.0000
50.0959 8.2481 9.0996 1.0000
50.0959 8.5561 9.1088 1.0000
50.0959 8.7104 9.1134 1.0000
50.0959 9.0193 9.1231 1.0000
50.0959 9.3290 9.1331 1.0000
50.0959 9.6393 9.1434 1.0000
50.0959 9.7947 9.1487 1.0000
50.0959 9.9503 9.1541 1.0000
50.0959 10.2621 9.1652 1.0000
50.0959 10.5747 9.1766 1.0000
50.0959 11.0450 9.1944 1.0000
50.0959 11.3595 9.2067 1.0000
50.0959 11.6750 9.2193 1.0000
50.0959 11.8330 9.2258 1.0000
50.0959 11.9913 9.2324 1.0000
50.0957 -12.7462 8.3663 1.0000
50.0957 -12.2688 8.3476 1.0000
50.0957 -11.7935 8.3296 1.0000
50.0957 -11.4778 8.3180 1.0000
50.0957 -11.0057 8.3013 1.0000
50.0957 -10.6921 8.2906 1.0000
50.0957 -10.5356 8.2853 1.0000
50.0957 -10.3792 8.2801 1.0000
50.0957 -10.0672 8.2700 1.0000
50.0957 -9.9114 8.2651 1.0000
50.0957 -9.7559 8.2603 1.0000
50.0957 -9.6005 8.2555 1.0000
50.0957 -9.4453 8.2508 1.0000
50.0957 -9.1353 8.2417 1.0000
50.0957 -8.9806 8.2372 1.0000
50.0957 -8.8262 8.2328 1.0000
50.0957 -8.0559 8.2121 1.0000
50.0957 -7.9023 8.2082 1.0000
50.0956 -7.5955 8.2006 1.0000
50.0955 -7.4424 8.1969 1.0000
50.0955 -6.9837 8.1863 1.0000
50.0955 -6.6785 8.1797 1.0000
50.0955 -6.5261 8.1764 1.0000
50.0955 -6.2216 8.1702 1.0000
50.0956 -5.7658 8.1615 1.0000
50.0956 -5.4625 8.1560 1.0000
50.0955 -5.1595 8.1508 1.0000
50.0956 -4.4037 8.1392 1.0000
50.0956 -4.2528 8.1371 1.0000
50.0956 -4.1019 8.1351 1.0000
50.0956 -3.9512 8.1331 1.0000
50.0955 -3.6499 8.1294 1.0000
50.0955 -3.1984 8.1244 1.0000
50.0956 -3.0480 8.1229 1.0000
50.0956 -2.7474 8.1201 1.0000
50.0956 -2.4470 8.1176 1.0000
50.0956 -2.2969 8.1165 1.0000
50.0956 -1.9967 8.1144 1.0000
50.0956 -1.8467 8.1134 1.0000
50.0956 -0.7974 8.1090 1.0000
50.0956 -0.6476 8.1086 1.0000
50.0956 -0.4977 8.1083 1.0000
50.0956 -0.0483 8.1079 1.0000
50.0956 0.2513 8.1080 1.0000
50.0956 0.5509 8.1084 1.0000
50.0956 0.7007 8.1087 1.0000
50.0956 0.8505 8.1091 1.0000
50.0956 1.0004 8.1096 1.0000
50.0956 1.1502 8.1101 1.0000
50.0956 1.3001 8.1107 1.0000
50.0956 1.6000 8.1121 1.0000
50.0956 1.7499 8.1129 1.0000
50.0956 1.8999 8.1138 1.0000
50.0956 2.6504 8.1193 1.0000
50.0956 2.8007 8.1206 1.0000
50.0956 3.1013 8.1235 1.0000
50.0956 3.2517 8.1250 1.0000
50.0956 3.5527 8.1283 1.0000
50.0956 3.7033 8.1301 1.0000
50.0956 4.1555 8.1358 1.0000
50.0956 4.3063 8.1378 1.0000
50.0956 4.9106 8.1468 1.0000
50.0956 5.0619 8.1492 1.0000
50.0957 5.5162 8.1569 1.0000
50.0956 5.6679 8.1597 1.0000
50.0956 5.8197 8.1625 1.0000
50.0956 6.1235 8.1683 1.0000
50.0956 6.4278 8.1744 1.0000
50.0957 6.8851 8.1842 1.0000
50.0956 7.1907 8.1910 1.0000
50.0956 7.3436 8.1946 1.0000
50.0956 7.8033 8.2057 1.0000
50.0956 8.2642 8.2175 1.0000
50.0956 8.4182 8.2216 1.0000
50.0956 8.7266 8.2300 1.0000
50.0956 9.0355 8.2388 1.0000
50.0956 9.1903 8.2432 1.0000
50.0956 9.5003 8.2525 1.0000
50.0956 9.9667 8.2668 1.0000
50.0957 10.4347 8.2820 1.0000
50.0957 10.7477 8.2924 1.0000
50.0957 10.9045 8.2978 1.0000
50.0957 11.6916 8.3258 1.0000
50.0957 12.0079 8.3376 1.0000
50.0957 12.6434 8.3622 1.0000
50.0957 12.8029 8.3685 1.0000
50.0957 -13.0826 8.3799 1.0000
50.0957 -12.6037 8.3606 1.0000
50.0957 -12.4445 8.3544 1.0000
50.0957 -12.2856 8.3482 1.0000
50.0957 -12.1269 8.3421 1.0000
50.0957 -11.9684 8.3361 1.0000
50.0957 -11.8102 8.3302 1.0000
50.0957 -11.3368 8.3130 1.0000
50.0957 -10.8653 8.2965 1.0000
50.0957 -10.5521 8.2859 1.0000
50.0957 -10.2396 8.2756 1.0000
50.0957 -9.9278 8.2656 1.0000
50.0957 -9.7722 8.2608 1.0000
50.0957 -9.1517 8.2421 1.0000
50.0957 -8.9970 8.2377 1.0000
50.0957 -8.0721 8.2125 1.0000
50.0956 -7.7650 8.2048 1.0000
50.0955 -7.3054 8.1937 1.0000
50.0955 -6.9997 8.1867 1.0000
50.0955 -6.8471 8.1833 1.0000
50.0955 -6.6945 8.1800 1.0000
50.0955 -6.3898 8.1736 1.0000
50.0955 -6.0856 8.1675 1.0000
50.0955 -5.9336 8.1646 1.0000
50.0956 -5.7818 8.1618 1.0000
50.0956 -5.6301 8.1590 1.0000
50.0955 -5.4784 8.1563 1.0000
50.0956 -5.0241 8.1486 1.0000
50.0956 -4.8729 8.1462 1.0000
50.0956 -4.7217 8.1439 1.0000
50.0955 -4.4196 8.1394 1.0000
50.0956 -4.2687 8.1373 1.0000
50.0956 -3.9671 8.1333 1.0000
50.0956 -3.8163 8.1314 1.0000
50.0955 -3.5152 8.1279 1.0000
50.0956 -3.2142 8.1246 1.0000
50.0956 -2.7632 8.1203 1.0000
50.0956 -2.1626 8.1155 1.0000
50.0956 -1.8625 8.1135 1.0000
50.0956 -1.7125 8.1127 1.0000
50.0956 -1.5626 8.1119 1.0000
50.0956 -1.4126 8.1112 1.0000
50.0956 -1.2628 8.1105 1.0000
50.0956 -1.1128 8.1099 1.0000
50.0956 -0.3637 8.1081 1.0000
50.0956 -0.2139 8.1080 1.0000
50.0956 0.0857 8.1079 1.0000
50.0956 0.2354 8.1080 1.0000
50.0956 0.8347 8.1091 1.0000
50.0956 1.5842 8.1120 1.0000
50.0956 1.7341 8.1128 1.0000
50.0956 1.8841 8.1137 1.0000
50.0956 2.0342 8.1146 1.0000
50.0956 2.1842 8.1156 1.0000
50.0956 2.3343 8.1167 1.0000
50.0956 2.6347 8.1191 1.0000
50.0956 3.0854 8.1233 1.0000
50.0956 3.2359 8.1248 1.0000
50.0956 3.3863 8.1264 1.0000
50.0957 3.5369 8.1281 1.0000
50.0957 3.8381 8.1317 1.0000
50.0957 3.9888 8.1336 1.0000
50.0956 4.1396 8.1356 1.0000
50.0957 4.5924 8.1419 1.0000
50.0956 4.7435 8.1442 1.0000
50.0956 4.8946 8.1465 1.0000
50.0956 5.0459 8.1490 1.0000
50.0956 5.1973 8.1515 1.0000
50.0956 5.3487 8.1540 1.0000
50.0956 5.5003 8.1567 1.0000
50.0956 5.8037 8.1622 1.0000
50.0957 6.4118 8.1741 1.0000
50.0956 6.5641 8.1772 1.0000
50.0956 6.7165 8.1805 1.0000
50.0957 7.0217 8.1872 1.0000
50.0957 7.3275 8.1942 1.0000
50.0956 7.4805 8.1978 1.0000
50.0956 7.6338 8.2015 1.0000
50.0956 7.7871 8.2053 1.0000
50.0956 8.4020 8.2212 1.0000
50.0956 8.5560 8.2253 1.0000
50.0956 8.7103 8.2296 1.0000
50.0956 9.0192 8.2383 1.0000
50.0956 9.1740 8.2428 1.0000
50.0956 9.4840 8.2520 1.0000
50.0956 9.6392 8.2567 1.0000
50.0957 10.8879 8.2972 1.0000
50.0957 11.0450 8.3027 1.0000
50.0957 11.3595 8.3138 1.0000
50.0957 11.5171 8.3195 1.0000
50.0957 11.6749 8.3252 1.0000
50.0957 11.8330 8.3311 1.0000
50.0957 11.9912 8.3370 1.0000
50.0957 12.1497 8.3430 1.0000
50.0955 -12.5868 7.4670 1.0000
50.0955 -12.2688 7.4559 1.0000
50.0955 -11.9517 7.4452 1.0000
50.0955 -11.7935 7.4399 1.0000
50.0955 -11.6355 7.4347 1.0000
50.0955 -11.3202 7.4245 1.0000
50.0955 -10.8488 7.4098 1.0000
50.0955 -10.6921 7.4050 1.0000
50.0955 -10.5356 7.4003 1.0000
50.0955 -10.0672 7.3867 1.0000
50.0955 -9.7558 7.3780 1.0000
50.0955 -9.6004 7.3737 1.0000
50.0955 -8.8262 7.3535 1.0000
50.0955 -8.6718 7.3496 1.0000
50.0955 -8.5176 7.3458 1.0000
50.0955 -8.2096 7.3385 1.0000
50.0955 -8.0559 7.3350 1.0000
50.0955 -7.9023 7.3315 1.0000
50.0954 -7.2893 7.3182 1.0000
50.0954 -6.8310 7.3089 1.0000
50.0954 -6.6785 7.3060 1.0000
50.0954 -6.3738 7.3003 1.0000
50.0954 -6.0696 7.2949 1.0000
50.0954 -5.9176 7.2923 1.0000
50.0954 -5.7658 7.2897 1.0000
50.0954 -5.4624 7.2848 1.0000
50.0954 -5.1594 7.2802 1.0000
50.0954 -4.7057 7.2738 1.0000
50.0954 -4.5546 7.2718 1.0000
50.0954 -4.2528 7.2679 1.0000
50.0954 -4.1019 7.2661 1.0000
50.0954 -3.9512 7.2644 1.0000
50.0954 -3.8004 7.2627 1.0000
50.0954 -3.4992 7.2595 1.0000
50.0954 -3.3488 7.2581 1.0000
50.0954 -3.0479 7.2553 1.0000
50.0954 -2.8976 7.2540 1.0000
50.0954 -2.5971 7.2516 1.0000
50.0954 -1.8467 7.2468 1.0000
50.0954 -1.5467 7.2453 1.0000
50.0954 -1.3968 7.2447 1.0000
50.0954 -1.2469 7.2441 1.0000
50.0954 -1.0971 7.2436 1.0000
50.0954 -0.9472 7.2432 1.0000
50.0954 -0.6475 7.2425 1.0000
50.0954 -0.0483 7.2419 1.0000
50.0954 0.2513 7.2420 1.0000
50.0954 0.4011 7.2421 1.0000
50.0954 0.7007 7.2426 1.0000
50.0954 0.8506 7.2429 1.0000
50.0954 1.0004 7.2433 1.0000
50.0954 1.1503 7.2438 1.0000
50.0954 1.3001 7.2443 1.0000
50.0954 1.4501 7.2449 1.0000
50.0954 1.7500 7.2463 1.0000
50.0954 2.0500 7.2480 1.0000
50.0954 2.2001 7.2489 1.0000
50.0954 2.5003 7.2509 1.0000
50.0954 3.1013 7.2558 1.0000
50.0954 3.2517 7.2571 1.0000
50.0955 3.4022 7.2586 1.0000
50.0955 3.5527 7.2601 1.0000
50.0954 3.8540 7.2633 1.0000
50.0954 4.0047 7.2650 1.0000
50.0954 4.1554 7.2668 1.0000
50.0954 4.4572 7.2705 1.0000
50.0954 5.0619 7.2788 1.0000
50.0954 5.5162 7.2857 1.0000
50.0954 5.6679 7.2881 1.0000
50.0954 5.8197 7.2906 1.0000
50.0954 5.9715 7.2932 1.0000
50.0954 6.1235 7.2958 1.0000
50.0954 6.2756 7.2985 1.0000
50.0954 6.5801 7.3041 1.0000
50.0955 6.7326 7.3070 1.0000
50.0955 7.1907 7.3161 1.0000
50.0955 7.3436 7.3193 1.0000
50.0955 7.4967 7.3225 1.0000
50.0955 7.6499 7.3259 1.0000
50.0955 8.1104 7.3362 1.0000
50.0955 8.4181 7.3434 1.0000
50.0955 8.8809 7.3548 1.0000
50.0955 9.0356 7.3587 1.0000
50.0955 9.1903 7.3628 1.0000
50.0955 9.3452 7.3668 1.0000
50.0955 9.5003 7.3710 1.0000
50.0955 10.2785 7.3928 1.0000
50.0955 10.7476 7.4067 1.0000
50.0955 10.9044 7.4115 1.0000
50.0955 11.0614 7.4163 1.0000
50.0955 11.2186 7.4213 1.0000
50.0955 11.3760 7.4263 1.0000
50.0955 12.0078 7.4470 1.0000
50.0955 12.1664 7.4524 1.0000
50.0955 12.9625 7.4804 1.0000
50.0955 13.1224 7.4862 1.0000
50.0955 13.2826 7.4921 1.0000
50.0955 -13.2426 7.4907 1.0000
50.0955 -13.0825 7.4848 1.0000
50.0955 -12.9226 7.4790 1.0000
50.0955 -12.6036 7.4676 1.0000
50.0955 -11.8101 7.4404 1.0000
50.0955 -11.4943 7.4301 1.0000
50.0955 -11.3367 7.4250 1.0000
50.0955 -11.0222 7.4151 1.0000
50.0955 -10.3957 7.3962 1.0000
50.0955 -9.4616 7.3699 1.0000
50.0955 -9.3065 7.3658 1.0000
50.0955 -9.1517 7.3618 1.0000
50.0955 -8.8424 7.3539 1.0000
50.0955 -8.6880 7.3500 1.0000
50.0955 -8.3797 7.3425 1.0000
50.0955 -8.0721 7.3353 1.0000
50.0954 -7.3054 7.3185 1.0000
50.0954 -6.9997 7.3123 1.0000
50.0954 -6.6945 7.3063 1.0000
50.0954 -6.5421 7.3034 1.0000
50.0954 -6.3898 7.3006 1.0000
50.0954 -5.7818 7.2900 1.0000
50.0954 -5.6301 7.2875 1.0000
50.0954 -5.4784 7.2851 1.0000
50.0954 -5.3269 7.2827 1.0000
50.0954 -4.8728 7.2761 1.0000
50.0954 -4.5705 7.2720 1.0000
50.0954 -4.4195 7.2700 1.0000
50.0954 -4.2687 7.2681 1.0000
50.0954 -3.8163 7.2629 1.0000
50.0954 -3.6657 7.2613 1.0000
50.0954 -3.5151 7.2597 1.0000
50.0954 -3.3646 7.2582 1.0000
50.0954 -3.2142 7.2568 1.0000
50.0954 -2.7632 7.2529 1.0000
50.0954 -2.3126 7.2496 1.0000
50.0954 -1.7125 7.2461 1.0000
50.0954 -1.5625 7.2454 1.0000
50.0954 -1.4126 7.2448 1.0000
50.0954 -0.9629 7.2432 1.0000
50.0954 -0.8131 7.2428 1.0000
50.0954 -0.6633 7.2425 1.0000
50.0954 0.3853 7.2421 1.0000
50.0954 0.6849 7.2426 1.0000
50.0954 0.8347 7.2429 1.0000
50.0954 0.9846 7.2433 1.0000
50.0954 1.2844 7.2443 1.0000
50.0954 1.4343 7.2449 1.0000
50.0954 1.8842 7.2470 1.0000
50.0954 2.0342 7.2479 1.0000
50.0954 2.1842 7.2488 1.0000
50.0954 2.3344 7.2498 1.0000
50.0954 2.4845 7.2508 1.0000
50.0954 2.7849 7.2531 1.0000
50.0954 2.9352 7.2543 1.0000
50.0954 3.2359 7.2570 1.0000
50.0954 3.9888 7.2648 1.0000
50.0954 4.1396 7.2666 1.0000
50.0954 4.4414 7.2703 1.0000
50.0954 5.0459 7.2785 1.0000
50.0954 5.5003 7.2854 1.0000
50.0954 5.6519 7.2878 1.0000
50.0954 5.8037 7.2903 1.0000
50.0954 6.1075 7.2955 1.0000
50.0955 6.7165 7.3067 1.0000
50.0955 7.0217 7.3127 1.0000
50.0955 7.3275 7.3190 1.0000
50.0955 8.0942 7.3358 1.0000
50.0955 8.5560 7.3468 1.0000
50.0955 9.1740 7.3623 1.0000
50.0955 9.6392 7.3747 1.0000
50.0955 9.7946 7.3790 1.0000
50.0955 9.9503 7.3834 1.0000
50.0955 10.1060 7.3878 1.0000
50.0955 10.4182 7.3969 1.0000
50.0955 10.5746 7.4015 1.0000
50.0955 11.2021 7.4208 1.0000
50.0955 11.3595 7.4258 1.0000
50.0955 11.6749 7.4360 1.0000
50.0955 11.9912 7.4465 1.0000
50.0955 12.1497 7.4519 1.0000
50.0953 -12.5868 6.5784 1.0000
50.0953 -11.9517 6.5592 1.0000
50.0953 -11.7935 6.5545 1.0000
50.0953 -11.6354 6.5499 1.0000
50.0953 -11.3201 6.5410 1.0000
50.0953 -10.3792 6.5156 1.0000
50.0953 -10.0671 6.5077 1.0000
50.0953 -9.4452 6.4925 1.0000
50.0952 -9.2901 6.4889 1.0000
50.0952 -8.8261 6.4784 1.0000
50.0953 -8.5175 6.4717 1.0000
50.0953 -8.3635 6.4684 1.0000
50.0953 -8.0558 6.4621 1.0000
50.0953 -7.7488 6.4560 1.0000
50.0952 -7.2893 6.4473 1.0000
50.0952 -7.1363 6.4445 1.0000
50.0952 -6.8309 6.4391 1.0000
50.0952 -6.5260 6.4340 1.0000
50.0952 -6.0695 6.4267 1.0000
50.0952 -5.9176 6.4244 1.0000
50.0952 -5.7658 6.4222 1.0000
50.0952 -5.6140 6.4200 1.0000
50.0952 -5.3109 6.4158 1.0000
50.0952 -5.0081 6.4119 1.0000
50.0952 -4.8569 6.4100 1.0000
50.0952 -4.7057 6.4082 1.0000
50.0952 -4.5547 6.4064 1.0000
50.0952 -4.2528 6.4030 1.0000
50.0952 -3.9512 6.3999 1.0000
50.0952 -3.4993 6.3956 1.0000
50.0952 -3.1984 6.3931 1.0000
50.0952 -3.0479 6.3919 1.0000
50.0952 -2.7474 6.3897 1.0000
50.0952 -2.5971 6.3887 1.0000
50.0952 -2.2969 6.3868 1.0000
50.0952 -1.9967 6.3852 1.0000
50.0952 -1.8467 6.3844 1.0000
50.0952 -1.6967 6.3837 1.0000
50.0952 -1.5468 6.3831 1.0000
50.0952 -1.3969 6.3826 1.0000
50.0952 -1.0971 6.3816 1.0000
50.0952 -0.9472 6.3812 1.0000
50.0952 -0.7974 6.3809 1.0000
50.0952 -0.4977 6.3804 1.0000
50.0952 -0.3479 6.3802 1.0000
50.0952 -0.1981 6.3801 1.0000
50.0952 -0.0483 6.3801 1.0000
50.0952 0.1015 6.3801 1.0000
50.0952 0.2513 6.3802 1.0000
50.0952 0.4011 6.3803 1.0000
50.0952 0.5509 6.3805 1.0000
50.0952 0.7007 6.3807 1.0000
50.0952 0.8505 6.3810 1.0000
50.0952 1.4500 6.3828 1.0000
50.0952 1.5999 6.3833 1.0000
50.0952 2.2000 6.3862 1.0000
50.0952 2.3501 6.3871 1.0000
50.0952 2.5003 6.3880 1.0000
50.0952 2.6504 6.3890 1.0000
50.0952 2.8006 6.3901 1.0000
50.0952 2.9510 6.3911 1.0000
50.0952 3.5527 6.3961 1.0000
50.0952 3.7032 6.3975 1.0000
50.0952 3.8538 6.3989 1.0000
50.0952 4.1554 6.4020 1.0000
50.0952 4.6082 6.4070 1.0000
50.0952 5.2132 6.4145 1.0000
50.0952 5.3647 6.4166 1.0000
50.0952 5.5162 6.4187 1.0000
50.0952 5.6679 6.4208 1.0000
50.0952 5.8197 6.4230 1.0000
50.0952 5.9715 6.4253 1.0000
50.0952 6.1235 6.4276 1.0000
50.0952 6.2756 6.4300 1.0000
50.0952 6.4278 6.4324 1.0000
50.0952 6.7326 6.4374 1.0000
50.0952 7.4966 6.4511 1.0000
50.0952 7.8032 6.4570 1.0000
50.0952 8.1104 6.4632 1.0000
50.0952 8.4181 6.4695 1.0000
50.0953 9.0355 6.4830 1.0000
50.0953 9.1903 6.4866 1.0000
50.0953 9.3452 6.4902 1.0000
50.0953 9.8110 6.5013 1.0000
50.0953 10.1224 6.5090 1.0000
50.0952 10.2785 6.5130 1.0000
50.0953 10.7476 6.5253 1.0000
50.0953 11.6915 6.5515 1.0000
50.0953 12.1664 6.5656 1.0000
50.0953 12.3251 6.5704 1.0000
50.0953 12.6433 6.5802 1.0000
50.0953 12.8028 6.5852 1.0000
50.0953 12.9624 6.5902 1.0000
50.0953 13.2826 6.6005 1.0000
50.0954 -13.4031 6.6045 1.0000
50.0953 -13.2426 6.5993 1.0000
50.0953 -13.0825 6.5941 1.0000
50.0953 -12.7629 6.5839 1.0000
50.0954 -12.6036 6.5789 1.0000
50.0953 -12.4444 6.5740 1.0000
50.0954 -12.2855 6.5692 1.0000
50.0953 -11.8101 6.5550 1.0000
50.0953 -11.4943 6.5459 1.0000
50.0953 -11.1793 6.5370 1.0000
50.0953 -10.8653 6.5284 1.0000
50.0953 -10.2395 6.5120 1.0000
50.0953 -10.0835 6.5081 1.0000
50.0953 -9.7721 6.5004 1.0000
50.0953 -9.4615 6.4929 1.0000
50.0952 -8.6879 6.4753 1.0000
50.0953 -7.9184 6.4593 1.0000
50.0953 -7.6116 6.4533 1.0000
50.0952 -7.1525 6.4448 1.0000
50.0952 -6.9997 6.4421 1.0000
50.0952 -6.8470 6.4394 1.0000
50.0952 -6.6945 6.4368 1.0000
50.0952 -6.5421 6.4343 1.0000
50.0952 -6.3898 6.4318 1.0000
50.0952 -6.0855 6.4270 1.0000
50.0952 -5.9336 6.4247 1.0000
50.0952 -5.7817 6.4224 1.0000
50.0952 -5.0241 6.4121 1.0000
50.0952 -4.8728 6.4102 1.0000
50.0952 -4.7217 6.4084 1.0000
50.0952 -3.9671 6.4001 1.0000
50.0952 -3.8163 6.3986 1.0000
50.0952 -3.6657 6.3971 1.0000
50.0952 -3.5151 6.3958 1.0000
50.0952 -3.2142 6.3932 1.0000
50.0952 -2.9135 6.3909 1.0000
50.0952 -2.7632 6.3898 1.0000
50.0952 -2.3127 6.3869 1.0000
50.0952 -1.8625 6.3845 1.0000
50.0952 -1.5626 6.3832 1.0000
50.0952 -1.4126 6.3826 1.0000
50.0952 -1.2627 6.3821 1.0000
50.0952 -1.1129 6.3817 1.0000
50.0952 -0.9630 6.3813 1.0000
50.0952 -0.8132 6.3809 1.0000
50.0952 0.6849 6.3807 1.0000
50.0952 0.9846 6.3813 1.0000
50.0952 1.2843 6.3822 1.0000
50.0952 1.5842 6.3833 1.0000
50.0952 1.8841 6.3846 1.0000
50.0952 2.0341 6.3853 1.0000
50.0952 2.4844 6.3879 1.0000
50.0952 2.6346 6.3889 1.0000
50.0952 2.9351 6.3910 1.0000
50.0952 3.2359 6.3934 1.0000
50.0952 3.3863 6.3946 1.0000
50.0952 3.5368 6.3960 1.0000
50.0952 3.6874 6.3974 1.0000
50.0952 3.8380 6.3988 1.0000
50.0952 4.1395 6.4018 1.0000
50.0952 4.2903 6.4034 1.0000
50.0952 4.4413 6.4051 1.0000
50.0952 4.8946 6.4105 1.0000
50.0952 5.0459 6.4124 1.0000
50.0952 5.3487 6.4163 1.0000
50.0952 5.9555 6.4250 1.0000
50.0952 6.1075 6.4273 1.0000
50.0952 6.2596 6.4297 1.0000
50.0952 6.5641 6.4346 1.0000
50.0952 6.7165 6.4372 1.0000
50.0952 7.3274 6.4480 1.0000
50.0952 7.7870 6.4567 1.0000
50.0952 8.4019 6.4692 1.0000
50.0953 9.0192 6.4827 1.0000
50.0953 9.4839 6.4934 1.0000
50.0953 9.9502 6.5047 1.0000
50.0953 10.1060 6.5086 1.0000
50.0953 10.2620 6.5126 1.0000
50.0952 11.2021 6.5377 1.0000
50.0952 11.5171 6.5465 1.0000
50.0953 11.6748 6.5511 1.0000
50.0953 11.8329 6.5557 1.0000
50.0953 11.9912 6.5603 1.0000
50.0953 12.1497 6.5651 1.0000
50.0951 -12.5867 5.6936 1.0000
50.0951 -12.4276 5.6894 1.0000
50.0951 -11.9516 5.6770 1.0000
50.0951 -10.8487 5.6500 1.0000
50.0951 -10.6920 5.6464 1.0000
50.0951 -10.3791 5.6393 1.0000
50.0951 -10.2230 5.6358 1.0000
50.0951 -9.7558 5.6257 1.0000
50.0951 -9.4452 5.6193 1.0000
50.0951 -9.2901 5.6161 1.0000
50.0951 -8.9806 5.6100 1.0000
50.0951 -8.8260 5.6070 1.0000
50.0951 -8.6717 5.6041 1.0000
50.0951 -8.5175 5.6012 1.0000
50.0951 -8.3634 5.5984 1.0000
50.0951 -7.9022 5.5903 1.0000
50.0951 -7.7488 5.5877 1.0000
50.0951 -7.5955 5.5851 1.0000
50.0950 -7.2892 5.5801 1.0000
50.0950 -6.9836 5.5754 1.0000
50.0950 -6.8310 5.5731 1.0000
50.0950 -6.6785 5.5708 1.0000
50.0950 -6.5260 5.5686 1.0000
50.0950 -6.2216 5.5644 1.0000
50.0950 -6.0695 5.5624 1.0000
50.0950 -5.7657 5.5584 1.0000
50.0950 -5.3109 5.5529 1.0000
50.0950 -5.1595 5.5512 1.0000
50.0950 -4.8568 5.5479 1.0000
50.0950 -3.9511 5.5391 1.0000
50.0950 -3.6499 5.5366 1.0000
50.0950 -3.4992 5.5354 1.0000
50.0950 -3.3487 5.5343 1.0000
50.0950 -2.5971 5.5294 1.0000
50.0951 -2.1467 5.5271 1.0000
50.0951 -1.6967 5.5251 1.0000
50.0951 -1.5467 5.5246 1.0000
50.0951 -1.2469 5.5237 1.0000
50.0951 -1.0971 5.5233 1.0000
50.0951 -0.9471 5.5230 1.0000
50.0951 -0.7974 5.5227 1.0000
50.0951 -0.4977 5.5223 1.0000
50.0951 -0.3479 5.5221 1.0000
50.0951 -0.0483 5.5220 1.0000
50.0951 0.1015 5.5220 1.0000
50.0951 0.4011 5.5222 1.0000
50.0951 0.8505 5.5228 1.0000
50.0951 1.1502 5.5234 1.0000
50.0951 1.7500 5.5254 1.0000
50.0951 1.8999 5.5260 1.0000
50.0951 2.0500 5.5266 1.0000
50.0951 2.2000 5.5273 1.0000
50.0951 2.3501 5.5281 1.0000
50.0950 2.5003 5.5289 1.0000
50.0951 2.8007 5.5306 1.0000
50.0950 3.1013 5.5326 1.0000
50.0950 3.2517 5.5336 1.0000
50.0951 3.7033 5.5371 1.0000
50.0951 4.0046 5.5396 1.0000
50.0951 4.1554 5.5409 1.0000
50.0951 4.3063 5.5423 1.0000
50.0951 4.4572 5.5438 1.0000
50.0951 4.6083 5.5453 1.0000
50.0951 4.7594 5.5469 1.0000
50.0951 4.9105 5.5484 1.0000
50.0951 5.3647 5.5536 1.0000
50.0951 5.6679 5.5572 1.0000
50.0951 6.1235 5.5631 1.0000
50.0951 6.5801 5.5694 1.0000
50.0951 6.7325 5.5716 1.0000
50.0950 7.0378 5.5762 1.0000
50.0951 7.1906 5.5786 1.0000
50.0951 7.3435 5.5810 1.0000
50.0951 7.6498 5.5860 1.0000
50.0951 8.1103 5.5939 1.0000
50.0951 8.2641 5.5966 1.0000
50.0951 8.4181 5.5994 1.0000
50.0951 8.7264 5.6051 1.0000
50.0951 8.8808 5.6081 1.0000
50.0951 9.1902 5.6141 1.0000
50.0951 9.3451 5.6172 1.0000
50.0951 9.5002 5.6204 1.0000
50.0951 9.8109 5.6269 1.0000
50.0951 10.1224 5.6336 1.0000
50.0951 10.2783 5.6370 1.0000
50.0951 10.4346 5.6405 1.0000
50.0951 10.5909 5.6441 1.0000
50.0951 10.7476 5.6476 1.0000
50.0951 10.9043 5.6513 1.0000
50.0951 11.2186 5.6588 1.0000
50.0951 11.5336 5.6664 1.0000
50.0951 11.6914 5.6704 1.0000
50.0951 12.0078 5.6784 1.0000
50.0951 12.1663 5.6825 1.0000
50.0951 12.3250 5.6867 1.0000
50.0951 12.6432 5.6951 1.0000
50.0951 12.8027 5.6995 1.0000
50.0951 12.9624 5.7039 1.0000
50.0951 13.1224 5.7083 1.0000
50.0951 -13.4029 5.7162 1.0000
50.0952 -13.2426 5.7117 1.0000
50.0951 -12.7629 5.6984 1.0000
50.0951 -12.4443 5.6898 1.0000
50.0952 -12.1267 5.6815 1.0000
50.0951 -11.9683 5.6774 1.0000
50.0951 -11.4943 5.6655 1.0000
50.0951 -10.8652 5.6504 1.0000
50.0951 -10.7085 5.6467 1.0000
50.0951 -10.3956 5.6396 1.0000
50.0951 -10.2394 5.6362 1.0000
50.0951 -10.0835 5.6327 1.0000
50.0951 -9.4615 5.6196 1.0000
50.0951 -9.3065 5.6165 1.0000
50.0951 -8.9969 5.6103 1.0000
50.0951 -8.8423 5.6073 1.0000
50.0951 -8.5337 5.6015 1.0000
50.0951 -8.3797 5.5987 1.0000
50.0951 -8.0720 5.5932 1.0000
50.0950 -7.1525 5.5780 1.0000
50.0950 -6.9997 5.5756 1.0000
50.0950 -6.6945 5.5711 1.0000
50.0950 -6.5421 5.5689 1.0000
50.0950 -6.2376 5.5646 1.0000
50.0950 -6.0856 5.5626 1.0000
50.0950 -5.9336 5.5606 1.0000
50.0950 -5.7817 5.5586 1.0000
50.0950 -5.4784 5.5549 1.0000
50.0950 -5.1754 5.5514 1.0000
50.0950 -5.0240 5.5497 1.0000
50.0950 -4.8728 5.5480 1.0000
50.0950 -4.4196 5.5434 1.0000
50.0950 -4.2686 5.5420 1.0000
50.0950 -3.6656 5.5367 1.0000
50.0950 -3.5151 5.5356 1.0000
50.0950 -3.2142 5.5333 1.0000
50.0950 -2.9135 5.5313 1.0000
50.0951 -2.3126 5.5279 1.0000
50.0951 -2.1625 5.5271 1.0000
50.0951 -2.0125 5.5264 1.0000
50.0951 -1.7125 5.5252 1.0000
50.0951 -1.5625 5.5247 1.0000
50.0951 -1.4126 5.5242 1.0000
50.0951 -1.1128 5.5233 1.0000
50.0951 -0.8131 5.5227 1.0000
50.0951 -0.6633 5.5225 1.0000
50.0951 -0.5135 5.5223 1.0000
50.0951 -0.3637 5.5221 1.0000
50.0951 0.2355 5.5220 1.0000
50.0951 0.3853 5.5221 1.0000
50.0951 0.5351 5.5223 1.0000
50.0951 0.8347 5.5227 1.0000
50.0951 0.9846 5.5231 1.0000
50.0951 1.2844 5.5238 1.0000
50.0951 1.4342 5.5242 1.0000
50.0951 1.5842 5.5247 1.0000
50.0951 2.0342 5.5265 1.0000
50.0950 2.4845 5.5288 1.0000
50.0951 3.3863 5.5346 1.0000
50.0951 3.8380 5.5382 1.0000
50.0951 4.1396 5.5408 1.0000
50.0951 4.4413 5.5436 1.0000
50.0951 4.5923 5.5451 1.0000
50.0951 4.7434 5.5467 1.0000
50.0951 4.8946 5.5483 1.0000
50.0951 5.1972 5.5516 1.0000
50.0951 5.6519 5.5570 1.0000
50.0951 5.8037 5.5589 1.0000
50.0951 6.1075 5.5629 1.0000
50.0951 6.7165 5.5714 1.0000
50.0951 6.8690 5.5737 1.0000
50.0951 7.0217 5.5760 1.0000
50.0950 7.3274 5.5807 1.0000
50.0951 7.6337 5.5857 1.0000
50.0951 7.9405 5.5909 1.0000
50.0951 8.0941 5.5936 1.0000
50.0951 8.2479 5.5963 1.0000
50.0951 8.4019 5.5991 1.0000
50.0951 8.5559 5.6019 1.0000
50.0951 8.7101 5.6048 1.0000
50.0951 8.8646 5.6078 1.0000
50.0951 9.1739 5.6138 1.0000
50.0951 9.4838 5.6201 1.0000
50.0951 9.7945 5.6265 1.0000
50.0951 9.9501 5.6299 1.0000
50.0951 10.2619 5.6367 1.0000
50.0951 10.4181 5.6401 1.0000
50.0951 10.8878 5.6509 1.0000
50.0951 11.0447 5.6546 1.0000
50.0951 11.5170 5.6660 1.0000
50.0951 11.9911 5.6780 1.0000
50.0951 12.1496 5.6821 1.0000
50.0949 -12.7460 4.8158 1.0000
50.0949 -12.5867 4.8121 1.0000
50.0949 -12.1100 4.8015 1.0000
50.0949 -11.9515 4.7981 1.0000
50.0949 -11.4776 4.7880 1.0000
50.0949 -11.3200 4.7848 1.0000
50.0949 -10.0671 4.7604 1.0000
50.0949 -9.4451 4.7493 1.0000
50.0949 -8.9805 4.7415 1.0000
50.0949 -8.5174 4.7341 1.0000
50.0949 -8.2095 4.7293 1.0000
50.0949 -8.0558 4.7270 1.0000
50.0949 -7.9022 4.7248 1.0000
50.0949 -7.7487 4.7226 1.0000
50.0949 -7.5954 4.7204 1.0000
50.0948 -7.4422 4.7183 1.0000
50.0948 -7.2892 4.7162 1.0000
50.0948 -7.1363 4.7142 1.0000
50.0948 -6.9835 4.7122 1.0000
50.0948 -6.6783 4.7084 1.0000
50.0948 -6.3737 4.7047 1.0000
50.0948 -6.2215 4.7029 1.0000
50.0948 -6.0694 4.7012 1.0000
50.0948 -5.9175 4.6995 1.0000
50.0948 -5.4624 4.6947 1.0000
50.0948 -5.3109 4.6932 1.0000
50.0948 -5.0081 4.6903 1.0000
50.0948 -4.8568 4.6890 1.0000
50.0948 -4.5546 4.6863 1.0000
50.0948 -4.4036 4.6851 1.0000
50.0948 -4.2528 4.6839 1.0000
50.0948 -4.1019 4.6827 1.0000
50.0948 -3.8004 4.6805 1.0000
50.0948 -3.6498 4.6794 1.0000
50.0948 -3.4992 4.6784 1.0000
50.0948 -3.3488 4.6775 1.0000
50.0948 -3.1983 4.6766 1.0000
50.0948 -2.8976 4.6749 1.0000
50.0948 -2.5971 4.6733 1.0000
50.0948 -2.2968 4.6720 1.0000
50.0948 -1.8467 4.6702 1.0000
50.0948 -1.5467 4.6693 1.0000
50.0948 -0.7974 4.6677 1.0000
50.0948 -0.6475 4.6675 1.0000
50.0948 -0.4977 4.6673 1.0000
50.0948 -0.1981 4.6671 1.0000
50.0948 0.1015 4.6671 1.0000
50.0948 0.2513 4.6671 1.0000
50.0948 0.8505 4.6677 1.0000
50.0948 1.0003 4.6680 1.0000
50.0948 1.3001 4.6686 1.0000
50.0948 1.4500 4.6690 1.0000
50.0948 1.8999 4.6704 1.0000
50.0948 2.2000 4.6716 1.0000
50.0948 2.3501 4.6722 1.0000
50.0948 2.5002 4.6729 1.0000
50.0948 2.6504 4.6736 1.0000
50.0948 2.8006 4.6744 1.0000
50.0948 2.9510 4.6752 1.0000
50.0948 3.5527 4.6788 1.0000
50.0948 3.7032 4.6798 1.0000
50.0948 3.8538 4.6809 1.0000
50.0948 4.0046 4.6820 1.0000
50.0948 4.4572 4.6855 1.0000
50.0948 4.6082 4.6868 1.0000
50.0948 4.7593 4.6881 1.0000
50.0949 5.0618 4.6908 1.0000
50.0949 5.2132 4.6923 1.0000
50.0948 5.3647 4.6938 1.0000
50.0948 5.5162 4.6953 1.0000
50.0949 5.6679 4.6969 1.0000
50.0948 6.1235 4.7018 1.0000
50.0948 6.4278 4.7053 1.0000
50.0948 6.8851 4.7109 1.0000
50.0948 7.1906 4.7149 1.0000
50.0948 7.3435 4.7170 1.0000
50.0948 7.8032 4.7234 1.0000
50.0948 7.9567 4.7256 1.0000
50.0948 8.1103 4.7278 1.0000
50.0948 8.2641 4.7302 1.0000
50.0948 9.1901 4.7450 1.0000
50.0948 9.3451 4.7476 1.0000
50.0948 9.5002 4.7503 1.0000
50.0948 9.6554 4.7530 1.0000
50.0948 9.9665 4.7585 1.0000
50.0949 10.2784 4.7643 1.0000
50.0949 10.7475 4.7733 1.0000
50.0949 11.2185 4.7827 1.0000
50.0949 11.3760 4.7859 1.0000
50.0949 11.5335 4.7892 1.0000
50.0949 11.8495 4.7959 1.0000
50.0949 12.1663 4.8027 1.0000
50.0949 12.3250 4.8063 1.0000
50.0949 12.6432 4.8134 1.0000
50.0949 12.8027 4.8171 1.0000
50.0949 13.1223 4.8245 1.0000
50.0949 -13.4029 4.8312 1.0000
50.0949 -13.0824 4.8236 1.0000
50.0949 -12.9225 4.8199 1.0000
50.0949 -12.6035 4.8125 1.0000
50.0949 -12.2854 4.8054 1.0000
50.0949 -11.9683 4.7984 1.0000
50.0949 -11.0221 4.7787 1.0000
50.0949 -10.8652 4.7756 1.0000
50.0949 -10.3956 4.7665 1.0000
50.0949 -9.7721 4.7550 1.0000
50.0949 -9.4615 4.7496 1.0000
50.0949 -8.9969 4.7417 1.0000
50.0949 -8.8423 4.7392 1.0000
50.0949 -8.5337 4.7343 1.0000
50.0949 -8.0719 4.7273 1.0000
50.0949 -7.9183 4.7250 1.0000
50.0949 -7.7649 4.7228 1.0000
50.0948 -7.3053 4.7164 1.0000
50.0948 -6.9996 4.7124 1.0000
50.0948 -6.8469 4.7105 1.0000
50.0948 -6.3897 4.7049 1.0000
50.0948 -6.2376 4.7031 1.0000
50.0948 -5.7817 4.6981 1.0000
50.0948 -5.3268 4.6934 1.0000
50.0948 -4.8728 4.6891 1.0000
50.0948 -4.7216 4.6878 1.0000
50.0948 -4.5705 4.6865 1.0000
50.0948 -4.1178 4.6828 1.0000
50.0948 -3.9670 4.6817 1.0000
50.0948 -3.6656 4.6796 1.0000
50.0948 -3.3646 4.6776 1.0000
50.0948 -2.9135 4.6750 1.0000
50.0948 -2.4628 4.6727 1.0000
50.0948 -2.3126 4.6720 1.0000
50.0948 -2.1626 4.6714 1.0000
50.0948 -2.0125 4.6708 1.0000
50.0948 -1.8625 4.6703 1.0000
50.0948 -1.5626 4.6693 1.0000
50.0948 -1.2627 4.6686 1.0000
50.0948 -1.1129 4.6682 1.0000
50.0948 -0.9630 4.6679 1.0000
50.0948 -0.6633 4.6675 1.0000
50.0948 -0.3637 4.6672 1.0000
50.0948 0.2355 4.6671 1.0000
50.0948 0.3853 4.6672 1.0000
50.0948 0.5351 4.6673 1.0000
50.0948 0.6849 4.6675 1.0000
50.0948 0.8347 4.6677 1.0000
50.0948 1.2843 4.6686 1.0000
50.0948 1.4342 4.6690 1.0000
50.0948 1.8841 4.6704 1.0000
50.0948 2.1842 4.6715 1.0000
50.0948 2.3342 4.6721 1.0000
50.0948 3.5368 4.6787 1.0000
50.0948 3.8380 4.6808 1.0000
50.0948 3.9887 4.6818 1.0000
50.0948 4.5923 4.6866 1.0000
50.0949 5.1972 4.6921 1.0000
50.0949 5.5002 4.6951 1.0000
50.0949 6.1074 4.7016 1.0000
50.0948 6.4117 4.7051 1.0000
50.0948 7.0216 4.7127 1.0000
50.0949 7.4804 4.7188 1.0000
50.0948 7.6337 4.7210 1.0000
50.0949 7.9404 4.7253 1.0000
50.0948 8.0941 4.7276 1.0000
50.0948 8.2479 4.7299 1.0000
50.0948 8.8646 4.7396 1.0000
50.0948 9.0191 4.7421 1.0000
50.0948 9.1738 4.7447 1.0000
50.0948 9.3287 4.7473 1.0000
50.0948 9.4838 4.7500 1.0000
50.0948 9.6391 4.7527 1.0000
50.0948 9.7945 4.7554 1.0000
50.0948 9.9501 4.7583 1.0000
50.0948 10.1059 4.7611 1.0000
50.0949 10.5745 4.7699 1.0000
50.0949 10.8878 4.7760 1.0000
50.0949 11.5170 4.7888 1.0000
50.0949 11.6748 4.7921 1.0000
50.0949 11.8328 4.7955 1.0000
50.0949 12.1496 4.8024 1.0000
50.0947 -12.9056 3.9394 1.0000
50.0947 -12.5866 3.9334 1.0000
50.0947 -12.2686 3.9276 1.0000
50.0947 -11.9515 3.9219 1.0000
50.0947 -11.6353 3.9164 1.0000
50.0947 -11.3200 3.9111 1.0000
50.0947 -11.1626 3.9084 1.0000
50.0947 -11.0055 3.9058 1.0000
50.0947 -10.8486 3.9033 1.0000
50.0947 -10.6919 3.9008 1.0000
50.0947 -10.2229 3.8935 1.0000
50.0947 -10.0670 3.8911 1.0000
50.0947 -8.9805 3.8757 1.0000
50.0947 -8.3634 3.8677 1.0000
50.0947 -8.2095 3.8657 1.0000
50.0947 -8.0557 3.8639 1.0000
50.0947 -7.9022 3.8620 1.0000
50.0947 -7.5954 3.8585 1.0000
50.0946 -7.4422 3.8567 1.0000
50.0946 -7.2892 3.8550 1.0000
50.0946 -6.8309 3.8502 1.0000
50.0946 -6.6784 3.8486 1.0000
50.0946 -5.9175 3.8414 1.0000
50.0946 -5.7657 3.8400 1.0000
50.0946 -5.6140 3.8387 1.0000
50.0946 -5.3108 3.8362 1.0000
50.0946 -5.1594 3.8350 1.0000
50.0946 -5.0081 3.8339 1.0000
50.0946 -4.7057 3.8316 1.0000
50.0946 -4.5546 3.8306 1.0000
50.0946 -4.4036 3.8296 1.0000
50.0946 -4.1019 3.8276 1.0000
50.0946 -3.9511 3.8267 1.0000
50.0946 -3.8004 3.8258 1.0000
50.0946 -3.6498 3.8250 1.0000
50.0946 -3.1983 3.8226 1.0000
50.0946 -3.0479 3.8219 1.0000
50.0947 -2.5971 3.8200 1.0000
50.0947 -2.2968 3.8189 1.0000
50.0947 -1.8467 3.8175 1.0000
50.0947 -1.6967 3.8170 1.0000
50.0947 -0.9472 3.8155 1.0000
50.0947 -0.4977 3.8151 1.0000
50.0947 -0.0483 3.8149 1.0000
50.0947 0.8505 3.8154 1.0000
50.0947 1.0003 3.8156 1.0000
50.0947 1.1502 3.8159 1.0000
50.0947 1.3001 3.8161 1.0000
50.0947 1.4500 3.8165 1.0000
50.0947 1.5999 3.8168 1.0000
50.0947 1.7499 3.8172 1.0000
50.0947 1.8999 3.8176 1.0000
50.0947 2.3501 3.8191 1.0000
50.0947 2.5003 3.8196 1.0000
50.0947 2.8006 3.8208 1.0000
50.0947 2.9510 3.8215 1.0000
50.0947 3.1013 3.8222 1.0000
50.0947 3.4021 3.8236 1.0000
50.0947 3.7032 3.8253 1.0000
50.0947 4.0046 3.8270 1.0000
50.0947 4.1553 3.8280 1.0000
50.0947 4.3062 3.8289 1.0000
50.0947 4.4571 3.8299 1.0000
50.0947 4.7593 3.8320 1.0000
50.0947 4.9105 3.8331 1.0000
50.0947 5.0617 3.8343 1.0000
50.0947 5.8196 3.8405 1.0000
50.0947 6.8850 3.8507 1.0000
50.0947 7.1905 3.8540 1.0000
50.0947 7.6497 3.8591 1.0000
50.0947 7.8031 3.8609 1.0000
50.0947 7.9566 3.8627 1.0000
50.0947 8.1103 3.8645 1.0000
50.0947 8.2640 3.8664 1.0000
50.0947 8.4180 3.8683 1.0000
50.0947 9.0354 3.8764 1.0000
50.0947 9.1901 3.8785 1.0000
50.0947 9.5001 3.8829 1.0000
50.0947 9.9665 3.8896 1.0000
50.0947 10.4345 3.8967 1.0000
50.0947 11.2185 3.9093 1.0000
50.0947 11.5335 3.9147 1.0000
50.0947 11.6913 3.9174 1.0000
50.0947 11.8494 3.9201 1.0000
50.0947 12.0077 3.9229 1.0000
50.0947 12.1662 3.9258 1.0000
50.0947 12.4839 3.9315 1.0000
50.0947 12.8026 3.9375 1.0000
50.0947 12.9623 3.9405 1.0000
50.0947 13.1223 3.9436 1.0000
50.0947 13.2825 3.9467 1.0000
50.0947 -13.4028 3.9490 1.0000
