ply
format ascii 1.0
element vertex 1600
property float32 x
property float32 y
property float32 z
property float32 I
end_header
50.0938 11.2014 0.4335 1.0000
50.0938 11.3591 0.4338 1.0000
50.0938 11.8335 0.4347 1.0000
50.0938 11.9921 0.4350 1.0000
50.0938 12.6287 0.4363 1.0000
50.0938 13.1087 0.4373 1.0000
50.0938 13.2693 0.4376 1.0000
50.0939 -13.4152 0.4380 1.0000
50.0939 -13.0940 0.4373 1.0000
50.0938 -12.9338 0.4369 1.0000
50.0939 -12.4546 0.4359 1.0000
50.0939 -12.1363 0.4353 1.0000
50.0939 -11.9775 0.4350 1.0000
50.0939 -11.8189 0.4347 1.0000
50.0939 -11.6606 0.4344 1.0000
50.0939 -10.4016 0.4321 1.0000
50.0938 -10.0888 0.4316 1.0000
50.0939 -9.6211 0.4308 1.0000
50.0938 -9.3102 0.4303 1.0000
50.0939 -8.8451 0.4296 1.0000
50.0939 -8.6904 0.4294 1.0000
50.0939 -8.5359 0.4292 1.0000
50.0939 -7.9193 0.4283 1.0000
50.0938 -7.7655 0.4281 1.0000
50.0938 -6.9987 0.4272 1.0000
50.0938 -6.8458 0.4270 1.0000
50.0938 -6.5402 0.4267 1.0000
50.0938 -6.3877 0.4265 1.0000
50.0938 -6.2352 0.4263 1.0000
24.9980 2.4926 -0.2122 1.0000
50.0938 5.1466 -0.4253 1.0000
50.0938 5.4501 -0.4256 1.0000
50.0938 5.6020 -0.4257 1.0000
50.0938 5.7540 -0.4258 1.0000
50.0938 6.0584 -0.4261 1.0000
50.0938 6.2107 -0.4263 1.0000
50.0938 6.5158 -0.4266 1.0000
50.0938 6.6685 -0.4268 1.0000
50.0938 6.8214 -0.4270 1.0000
50.0938 6.9743 -0.4271 1.0000
50.0938 7.2805 -0.4275 1.0000
50.0938 7.4339 -0.4277 1.0000
50.0938 7.7409 -0.4281 1.0000
50.0938 7.8947 -0.4283 1.0000
50.0938 8.0486 -0.4285 1.0000
50.0938 8.2026 -0.4287 1.0000
50.0938 8.3568 -0.4289 1.0000
50.0938 8.8204 -0.4296 1.0000
50.0938 8.9752 -0.4298 1.0000
50.0938 9.1302 -0.4300 1.0000
50.0938 9.2854 -0.4303 1.0000
50.0938 9.4407 -0.4305 1.0000
50.0938 9.5962 -0.4308 1.0000
50.0938 10.5332 -0.4323 1.0000
50.0938 10.6900 -0.4326 1.0000
50.0938 10.8471 -0.4329 1.0000
50.0938 11.0043 -0.4331 1.0000
50.0938 11.3194 -0.4337 1.0000
50.0938 11.7936 -0.4346 1.0000
50.0938 12.1109 -0.4352 1.0000
50.0938 12.2699 -0.4356 1.0000
50.0938 12.4291 -0.4359 1.0000
50.0938 12.5886 -0.4362 1.0000
50.0938 13.0684 -0.4372 1.0000
50.0938 13.2289 -0.4376 1.0000
50.0938 -13.2949 -0.4377 1.0000
50.0938 -12.4947 -0.4360 1.0000
50.0938 -12.3354 -0.4357 1.0000
50.0938 -12.1762 -0.4354 1.0000
50.0938 -11.7004 -0.4344 1.0000
50.0938 -11.5423 -0.4341 1.0000
50.0938 -11.3843 -0.4338 1.0000
50.0938 -10.7546 -0.4327 1.0000
50.0938 -10.5977 -0.4324 1.0000
50.0938 -10.4409 -0.4321 1.0000
50.0938 -10.2845 -0.4319 1.0000
50.0938 -10.1281 -0.4316 1.0000
50.0938 -9.9720 -0.4314 1.0000
50.0938 -9.5046 -0.4306 1.0000
50.0938 -9.3493 -0.4304 1.0000
50.0938 -9.1940 -0.4301 1.0000
50.0938 -8.7293 -0.4294 1.0000
50.0938 -8.4203 -0.4290 1.0000
50.0938 -8.2661 -0.4288 1.0000
50.0938 -7.9580 -0.4284 1.0000
50.0938 -7.0372 -0.4272 1.0000
50.0938 -6.8842 -0.4270 1.0000
50.0938 -6.7313 -0.4269 1.0000
50.0938 -6.4260 -0.4265 1.0000
50.0938 -5.9688 -0.4261 1.0000
50.0938 -5.6645 -0.4258 1.0000
50.0938 -5.5126 -0.4256 1.0000
50.0938 -5.3607 -0.4255 1.0000
50.0938 -5.0573 -0.4252 1.0000
24.9493 -2.4433 -0.2117 1.0000
24.9462 -2.3675 -0.2116 1.0000
24.9432 -2.2919 -0.2115 1.0000
24.9435 -1.9907 -0.2113 1.0000
24.9968 -1.6937 -0.2116 1.0000
24.8237 -1.6073 -0.2101 1.0000
24.8284 -1.4583 -0.2100 1.0000
24.8330 -1.3093 -0.2100 1.0000
24.8346 -1.1602 -0.2100 1.0000
24.8278 -0.9363 -0.2098 1.0000
24.8668 -0.6394 -0.2101 1.0000
24.9933 -0.4928 -0.2111 1.0000
25.0026 -0.2682 -0.2112 1.0000
25.0124 -0.0435 -0.2112 1.0000
25.0190 0.1064 -0.2113 1.0000
25.0223 0.1814 -0.2113 1.0000
25.0256 0.2564 -0.2114 1.0000
25.0322 0.4066 -0.2114 1.0000
25.0355 0.4817 -0.2115 1.0000
25.0387 0.5568 -0.2115 1.0000
25.0421 0.6319 -0.2116 1.0000
25.2011 0.7871 -0.2129 1.0000
24.9674 1.0794 -0.2111 1.0000
24.9720 1.2296 -0.2112 1.0000
24.9766 1.3799 -0.2113 1.0000
24.9782 1.4551 -0.2113 1.0000
24.9746 1.6051 -0.2114 1.0000
24.9699 1.7551 -0.2114 1.0000
24.9676 1.8302 -0.2114 1.0000
25.0953 2.0665 -0.2127 1.0000
24.9980 2.1339 -0.2119 1.0000
24.9980 2.2093 -0.2119 1.0000
24.9980 2.4360 -0.2121 1.0000
25.0284 2.5147 -0.2124 1.0000
50.0938 5.4883 -0.4256 1.0000
50.0938 5.6403 -0.4257 1.0000
50.0938 5.7923 -0.4259 1.0000
50.0938 5.9445 -0.4260 1.0000
50.0938 6.2491 -0.4263 1.0000
50.0938 6.7070 -0.4268 1.0000
50.0938 6.8598 -0.4270 1.0000
50.0938 7.0128 -0.4272 1.0000
50.0938 7.1659 -0.4274 1.0000
50.0938 7.4725 -0.4277 1.0000
50.0938 8.0873 -0.4285 1.0000
50.0938 8.2414 -0.4287 1.0000
50.0938 8.3957 -0.4290 1.0000
50.0938 8.8593 -0.4296 1.0000
50.0938 9.0142 -0.4298 1.0000
50.0938 9.1692 -0.4301 1.0000
50.0938 9.3244 -0.4303 1.0000
50.0938 9.6354 -0.4308 1.0000
50.0938 9.7911 -0.4311 1.0000
50.0938 9.9470 -0.4313 1.0000
50.0938 10.1031 -0.4316 1.0000
50.0938 10.7295 -0.4327 1.0000
50.0938 11.3591 -0.4338 1.0000
50.0938 11.5170 -0.4341 1.0000
50.0938 11.6751 -0.4344 1.0000
50.0938 11.9921 -0.4350 1.0000
50.0938 12.3100 -0.4356 1.0000
50.0938 12.4692 -0.4360 1.0000
50.0938 12.6287 -0.4363 1.0000
50.0938 12.7885 -0.4366 1.0000
50.0938 13.1087 -0.4373 1.0000
50.0938 -12.9338 -0.4369 1.0000
50.0938 -12.6141 -0.4363 1.0000
50.0938 -12.4546 -0.4359 1.0000
50.0938 -12.2953 -0.4356 1.0000
50.0938 -12.1362 -0.4353 1.0000
50.0938 -11.9775 -0.4350 1.0000
50.0938 -11.8189 -0.4347 1.0000
50.0938 -11.5025 -0.4341 1.0000
50.0938 -11.3446 -0.4338 1.0000
50.0938 -11.1869 -0.4335 1.0000
50.0938 -10.7151 -0.4326 1.0000
50.0938 -10.0888 -0.4316 1.0000
50.0938 -9.9327 -0.4313 1.0000
50.0938 -9.6211 -0.4308 1.0000
50.0938 -9.4655 -0.4305 1.0000
50.0938 -9.3102 -0.4303 1.0000
50.0938 -8.9999 -0.4298 1.0000
50.0938 -8.3815 -0.4289 1.0000
50.0938 -8.2273 -0.4287 1.0000
50.0938 -8.0732 -0.4285 1.0000
50.0938 -7.7655 -0.4281 1.0000
50.0938 -7.6118 -0.4279 1.0000
50.0938 -7.4584 -0.4277 1.0000
50.0938 -7.3050 -0.4275 1.0000
50.0938 -7.1518 -0.4273 1.0000
50.0938 -6.9987 -0.4272 1.0000
50.0938 -6.2351 -0.4263 1.0000
27.5727 2.6658 -0.7020 1.0000
27.5482 2.9136 -0.7020 1.0000
27.5394 2.9961 -0.7020 1.0000
27.5212 3.1612 -0.7020 1.0000
27.4922 3.4085 -0.7020 1.0000
27.4820 3.4909 -0.7020 1.0000
27.4609 3.6556 -0.7020 1.0000
27.4274 3.9024 -0.7020 1.0000
27.4155 3.9845 -0.7020 1.0000
27.3916 4.1487 -0.7020 1.0000
27.3791 4.2308 -0.7020 1.0000
27.3270 4.5588 -0.7021 1.0000
27.3133 4.6406 -0.7021 1.0000
27.2853 4.8044 -0.7021 1.0000
27.2710 4.8861 -0.7021 1.0000
27.2263 5.1311 -0.7021 1.0000
27.2111 5.2127 -0.7021 1.0000
27.1954 5.2941 -0.7021 1.0000
27.1635 5.4571 -0.7021 1.0000
27.1471 5.5385 -0.7021 1.0000
27.1304 5.6198 -0.7021 1.0000
27.1136 5.7011 -0.7021 1.0000
27.0967 5.7824 -0.7021 1.0000
27.0260 6.1068 -0.7021 1.0000
26.9891 6.2687 -0.7021 1.0000
26.9703 6.3496 -0.7021 1.0000
26.9513 6.4304 -0.7021 1.0000
26.9321 6.5112 -0.7021 1.0000
26.9127 6.5919 -0.7021 1.0000
26.8728 6.7531 -0.7022 1.0000
26.8322 6.9141 -0.7022 1.0000
26.7563 -7.1012 -0.7015 1.0000
26.8402 -6.7802 -0.7015 1.0000
26.8605 -6.6998 -0.7015 1.0000
26.9202 -6.4582 -0.7015 1.0000
26.9395 -6.3776 -0.7015 1.0000
26.9587 -6.2968 -0.7015 1.0000
26.9963 -6.1352 -0.7016 1.0000
27.0329 -5.9734 -0.7016 1.0000
27.0684 -5.8114 -0.7016 1.0000
27.1368 -5.4866 -0.7016 1.0000
27.1695 -5.3239 -0.7016 1.0000
27.2168 -5.0796 -0.7016 1.0000
27.2618 -4.8349 -0.7016 1.0000
27.2764 -4.7531 -0.7016 1.0000
27.2907 -4.6714 -0.7016 1.0000
27.3184 -4.5079 -0.7016 1.0000
27.3321 -4.4261 -0.7016 1.0000
27.4080 -3.9341 -0.7017 1.0000
27.4427 -3.6878 -0.7017 1.0000
27.4538 -3.6054 -0.7017 1.0000
27.4856 -3.3586 -0.7017 1.0000
27.5056 -3.1939 -0.7017 1.0000
27.5154 -3.1114 -0.7017 1.0000
27.5512 -2.7815 -0.7017 1.0000
27.5596 -2.6989 -0.7017 1.0000
27.5678 -2.6164 -0.7017 1.0000
27.5757 -2.5338 -0.7017 1.0000
27.6112 -2.1204 -0.7018 1.0000
27.6237 -1.9550 -0.7018 1.0000
27.6459 -1.6237 -0.7018 1.0000
24.8230 -1.3834 -0.6300 1.0000
24.8237 -1.3088 -0.6299 1.0000
24.8241 -1.1597 -0.6297 1.0000
24.8236 -1.0851 -0.6296 1.0000
24.8227 -1.0106 -0.6295 1.0000
27.6750 -1.0437 -0.7018 1.0000
27.6902 -0.5461 -0.7018 1.0000
27.6918 -0.4631 -0.7018 1.0000
27.6932 -0.3800 -0.7018 1.0000
27.6954 -0.2141 -0.7018 1.0000
27.6964 -0.0482 -0.7018 1.0000
27.6966 0.0349 -0.7019 1.0000
27.6963 0.2007 -0.7019 1.0000
27.6947 0.3668 -0.7019 1.0000
27.6937 0.4498 -0.7019 1.0000
27.6926 0.5327 -0.7019 1.0000
27.6908 0.6157 -0.7019 1.0000
27.6730 1.1963 -0.7019 1.0000
27.6692 1.2793 -0.7019 1.0000
24.9662 1.3043 -0.6335 1.0000
24.9672 1.4545 -0.6338 1.0000
24.9668 1.5295 -0.6339 1.0000
24.9663 1.6046 -0.6340 1.0000
27.6375 1.8593 -0.7019 1.0000
27.6318 1.9421 -0.7019 1.0000
27.6199 2.1077 -0.7019 1.0000
27.6072 2.2731 -0.7020 1.0000
27.6004 2.3560 -0.7020 1.0000
27.5934 2.4386 -0.7020 1.0000
27.5862 2.5213 -0.7020 1.0000
27.5785 2.6040 -0.7020 1.0000
27.5628 2.7693 -0.7020 1.0000
27.5371 3.0169 -0.7020 1.0000
27.5190 3.1820 -0.7020 1.0000
27.5095 3.2644 -0.7020 1.0000
27.4996 3.3468 -0.7020 1.0000
27.4897 3.4292 -0.7020 1.0000
27.4794 3.5116 -0.7020 1.0000
27.4581 3.6762 -0.7020 1.0000
27.4471 3.7585 -0.7020 1.0000
27.4127 4.0052 -0.7020 1.0000
27.3759 4.2514 -0.7020 1.0000
27.3632 4.3335 -0.7020 1.0000
27.3503 4.4155 -0.7021 1.0000
27.3371 4.4975 -0.7021 1.0000
27.3098 4.6613 -0.7021 1.0000
27.2817 4.8248 -0.7021 1.0000
27.2377 5.0700 -0.7021 1.0000
27.2226 5.1516 -0.7021 1.0000
27.2071 5.2331 -0.7021 1.0000
27.1913 5.3147 -0.7021 1.0000
27.1430 5.5590 -0.7021 1.0000
27.0924 5.8028 -0.7021 1.0000
27.0215 6.1272 -0.7021 1.0000
26.9844 6.2891 -0.7021 1.0000
26.9655 6.3699 -0.7021 1.0000
26.9464 6.4506 -0.7021 1.0000
26.9077 6.6121 -0.7021 1.0000
26.8877 6.6928 -0.7021 1.0000
26.8677 6.7734 -0.7022 1.0000
26.8270 6.9343 -0.7022 1.0000
26.8061 7.0146 -0.7022 1.0000
26.7851 7.0949 -0.7022 1.0000
26.7617 -7.0810 -0.7015 1.0000
26.8248 -6.8404 -0.7015 1.0000
26.8454 -6.7600 -0.7015 1.0000
26.8657 -6.6795 -0.7015 1.0000
26.8857 -6.5990 -0.7015 1.0000
26.9252 -6.4379 -0.7015 1.0000
26.9823 -6.1957 -0.7015 1.0000
27.0374 -5.9530 -0.7016 1.0000
27.0552 -5.8720 -0.7016 1.0000
27.0730 -5.7910 -0.7016 1.0000
27.0902 -5.7098 -0.7016 1.0000
27.1410 -5.4662 -0.7016 1.0000
27.1574 -5.3850 -0.7016 1.0000
27.1896 -5.2221 -0.7016 1.0000
27.2052 -5.1407 -0.7016 1.0000
27.2206 -5.0592 -0.7016 1.0000
27.2360 -4.9775 -0.7016 1.0000
27.2508 -4.8959 -0.7016 1.0000
27.2655 -4.8143 -0.7016 1.0000
27.2800 -4.7327 -0.7016 1.0000
27.2943 -4.6509 -0.7016 1.0000
27.3219 -4.4874 -0.7016 1.0000
27.3354 -4.4055 -0.7016 1.0000
27.3486 -4.3236 -0.7016 1.0000
27.3616 -4.2416 -0.7016 1.0000
27.3743 -4.1596 -0.7017 1.0000
27.4229 -3.8314 -0.7017 1.0000
27.4344 -3.7492 -0.7017 1.0000
27.4781 -3.4202 -0.7017 1.0000
16.5309 1.5983 -0.7017 1.0000
16.5161 1.7468 -0.7017 1.0000
16.5108 1.7963 -0.7017 1.0000
16.4999 1.8952 -0.7017 1.0000
16.4942 1.9446 -0.7017 1.0000
16.4883 1.9941 -0.7017 1.0000
16.4823 2.0435 -0.7017 1.0000
16.4502 2.2902 -0.7017 1.0000
16.4361 2.3887 -0.7017 1.0000
16.4217 2.4872 -0.7017 1.0000
16.4142 2.5364 -0.7017 1.0000
16.4066 2.5856 -0.7017 1.0000
16.3988 2.6347 -0.7017 1.0000
16.3663 2.8312 -0.7018 1.0000
16.3577 2.8802 -0.7018 1.0000
16.3491 2.9292 -0.7018 1.0000
16.3403 2.9781 -0.7018 1.0000
16.3130 3.1250 -0.7018 1.0000
16.3037 3.1739 -0.7018 1.0000
16.2844 3.2715 -0.7018 1.0000
16.2545 3.4177 -0.7018 1.0000
16.2442 3.4665 -0.7018 1.0000
16.2338 3.5152 -0.7018 1.0000
16.1907 3.7095 -0.7018 1.0000
16.1453 3.9033 -0.7018 1.0000
16.1336 3.9517 -0.7018 1.0000
16.1096 4.0483 -0.7018 1.0000
16.0474 4.2893 -0.7018 1.0000
16.0458 -4.2586 -0.7014 1.0000
16.0586 -4.2105 -0.7014 1.0000
16.0836 -4.1142 -0.7014 1.0000
16.1082 -4.0178 -0.7014 1.0000
16.1201 -3.9695 -0.7014 1.0000
16.1668 -3.7761 -0.7014 1.0000
16.1781 -3.7276 -0.7014 1.0000
16.2110 -3.5821 -0.7015 1.0000
16.2428 -3.4362 -0.7015 1.0000
16.2530 -3.3876 -0.7015 1.0000
16.2732 -3.2902 -0.7015 1.0000
16.2830 -3.2414 -0.7015 1.0000
16.2928 -3.1926 -0.7015 1.0000
16.3023 -3.1438 -0.7015 1.0000
16.3210 -3.0462 -0.7015 1.0000
16.3479 -2.8993 -0.7015 1.0000
16.3651 -2.8013 -0.7015 1.0000
16.3817 -2.7032 -0.7015 1.0000
16.3898 -2.6541 -0.7015 1.0000
16.3977 -2.6049 -0.7015 1.0000
16.4054 -2.5559 -0.7015 1.0000
16.4206 -2.4575 -0.7015 1.0000
16.4279 -2.4083 -0.7015 1.0000
16.4352 -2.3592 -0.7015 1.0000
16.4491 -2.2605 -0.7015 1.0000
16.4559 -2.2113 -0.7015 1.0000
16.4626 -2.1620 -0.7015 1.0000
16.4689 -2.1127 -0.7015 1.0000
16.4752 -2.0634 -0.7015 1.0000
16.4815 -2.0140 -0.7015 1.0000
16.4875 -1.9645 -0.7015 1.0000
16.4933 -1.9152 -0.7015 1.0000
16.4990 -1.8658 -0.7015 1.0000
16.5204 -1.6680 -0.7015 1.0000
16.5254 -1.6185 -0.7016 1.0000
16.5302 -1.5689 -0.7016 1.0000
16.5395 -1.4699 -0.7016 1.0000
16.5439 -1.4202 -0.7016 1.0000
16.5562 -1.2715 -0.7016 1.0000
16.5671 -1.1226 -0.7016 1.0000
16.5704 -1.0730 -0.7016 1.0000
16.5736 -1.0234 -0.7016 1.0000
16.5766 -0.9737 -0.7016 1.0000
16.5823 -0.8744 -0.7016 1.0000
16.5873 -0.7749 -0.7016 1.0000
16.5918 -0.6755 -0.7016 1.0000
16.5938 -0.6259 -0.7016 1.0000
16.5957 -0.5761 -0.7016 1.0000
16.6045 -0.2279 -0.7016 1.0000
16.6060 -0.0787 -0.7016 1.0000
16.6063 0.0209 -0.7016 1.0000
16.6062 0.0706 -0.7016 1.0000
16.6051 0.2198 -0.7016 1.0000
16.6044 0.2696 -0.7016 1.0000
16.6027 0.3691 -0.7016 1.0000
16.6002 0.4686 -0.7017 1.0000
16.5973 0.5681 -0.7017 1.0000
16.5955 0.6179 -0.7017 1.0000
16.5916 0.7173 -0.7017 1.0000
16.5894 0.7670 -0.7017 1.0000
16.5871 0.8167 -0.7017 1.0000
16.5793 0.9657 -0.7017 1.0000
16.5733 1.0651 -0.7017 1.0000
16.5667 1.1644 -0.7017 1.0000
16.5596 1.2637 -0.7017 1.0000
16.5557 1.3133 -0.7017 1.0000
16.5518 1.3629 -0.7017 1.0000
16.5344 1.5612 -0.7017 1.0000
16.5297 1.6107 -0.7017 1.0000
16.5148 1.7593 -0.7017 1.0000
16.5041 1.8581 -0.7017 1.0000
16.4984 1.9077 -0.7017 1.0000
16.4927 1.9570 -0.7017 1.0000
16.4808 2.0559 -0.7017 1.0000
16.4746 2.1052 -0.7017 1.0000
16.4682 2.1546 -0.7017 1.0000
16.4618 2.2040 -0.7017 1.0000
16.4552 2.2532 -0.7017 1.0000
16.4415 2.3518 -0.7017 1.0000
16.4123 2.5488 -0.7017 1.0000
16.4046 2.5979 -0.7017 1.0000
16.3968 2.6471 -0.7017 1.0000
16.3808 2.7454 -0.7018 1.0000
16.3725 2.7944 -0.7018 1.0000
16.3469 2.9415 -0.7018 1.0000
16.3291 3.0395 -0.7018 1.0000
16.3107 3.1373 -0.7018 1.0000
16.3012 3.1861 -0.7018 1.0000
16.2819 3.2839 -0.7018 1.0000
16.2721 3.3325 -0.7018 1.0000
16.2621 3.3813 -0.7018 1.0000
16.2519 3.4300 -0.7018 1.0000
16.2311 3.5274 -0.7018 1.0000
16.2205 3.5760 -0.7018 1.0000
16.1989 3.6732 -0.7018 1.0000
16.1879 3.7217 -0.7018 1.0000
16.1654 3.8187 -0.7018 1.0000
16.1539 3.8671 -0.7018 1.0000
16.1423 3.9155 -0.7018 1.0000
16.1067 4.0604 -0.7018 1.0000
16.0696 4.2051 -0.7018 1.0000
16.0570 4.2533 -0.7018 1.0000
16.0491 -4.2466 -0.7014 1.0000
16.0618 -4.1984 -0.7014 1.0000
16.0867 -4.1021 -0.7014 1.0000
16.0991 -4.0539 -0.7014 1.0000
16.1112 -4.0057 -0.7014 1.0000
16.1231 -3.9573 -0.7014 1.0000
16.1467 -3.8608 -0.7014 1.0000
16.1696 -3.7639 -0.7014 1.0000
16.1809 -3.7155 -0.7014 1.0000
16.1920 -3.6670 -0.7014 1.0000
16.2029 -3.6184 -0.7015 1.0000
16.2246 -3.5213 -0.7015 1.0000
16.2454 -3.4240 -0.7015 1.0000
16.2557 -3.3753 -0.7015 1.0000
16.2658 -3.3267 -0.7015 1.0000
16.2757 -3.2779 -0.7015 1.0000
16.2952 -3.1804 -0.7015 1.0000
16.3047 -3.1315 -0.7015 1.0000
16.3324 -2.9849 -0.7015 1.0000
16.3413 -2.9360 -0.7015 1.0000
16.3501 -2.8869 -0.7015 1.0000
16.3587 -2.8379 -0.7015 1.0000
16.3672 -2.7889 -0.7015 1.0000
16.3755 -2.7399 -0.7015 1.0000
16.3918 -2.6417 -0.7015 1.0000
16.4150 -2.4944 -0.7015 1.0000
16.4225 -2.4452 -0.7015 1.0000
16.4298 -2.3960 -0.7015 1.0000
16.4369 -2.3467 -0.7015 1.0000
16.4508 -2.2481 -0.7015 1.0000
16.4576 -2.1988 -0.7015 1.0000
16.4705 -2.1002 -0.7015 1.0000
16.4768 -2.0509 -0.7015 1.0000
11.7957 1.1761 -0.7016 1.0000
11.7847 1.2821 -0.7016 1.0000
11.7808 1.3174 -0.7016 1.0000
11.7768 1.3527 -0.7016 1.0000
11.7643 1.4585 -0.7016 1.0000
11.7600 1.4938 -0.7016 1.0000
11.7554 1.5290 -0.7016 1.0000
11.7508 1.5642 -0.7016 1.0000
11.7262 1.7401 -0.7016 1.0000
11.7102 1.8454 -0.7016 1.0000
11.7046 1.8806 -0.7016 1.0000
11.6989 1.9156 -0.7016 1.0000
11.6931 1.9507 -0.7016 1.0000
11.6873 1.9856 -0.7016 1.0000
11.6813 2.0207 -0.7016 1.0000
11.6627 2.1257 -0.7016 1.0000
11.6563 2.1605 -0.7016 1.0000
11.6433 2.2304 -0.7016 1.0000
11.6365 2.2652 -0.7016 1.0000
11.6158 2.3698 -0.7016 1.0000
11.6086 2.4046 -0.7016 1.0000
11.6014 2.4394 -0.7016 1.0000
11.5941 2.4741 -0.7016 1.0000
11.5866 2.5088 -0.7016 1.0000
11.5478 2.6822 -0.7017 1.0000
11.5316 2.7513 -0.7017 1.0000
11.5234 2.7859 -0.7017 1.0000
11.5149 2.8204 -0.7017 1.0000
11.4979 2.8895 -0.7017 1.0000
11.4716 2.9926 -0.7017 1.0000
11.4626 3.0270 -0.7017 1.0000
11.4535 3.0613 -0.7017 1.0000
11.4541 -3.0400 -0.7014 1.0000
11.4633 -3.0056 -0.7014 1.0000
11.4722 -2.9714 -0.7014 1.0000
11.4811 -2.9371 -0.7014 1.0000
11.5071 -2.8336 -0.7014 1.0000
11.5240 -2.7647 -0.7014 1.0000
11.5404 -2.6955 -0.7014 1.0000
11.5485 -2.6610 -0.7014 1.0000
11.5720 -2.5570 -0.7014 1.0000
11.5796 -2.5224 -0.7014 1.0000
11.5872 -2.4878 -0.7014 1.0000
11.5946 -2.4530 -0.7014 1.0000
11.6020 -2.4182 -0.7014 1.0000
11.6092 -2.3835 -0.7014 1.0000
11.6163 -2.3486 -0.7014 1.0000
11.6233 -2.3139 -0.7014 1.0000
11.6302 -2.2792 -0.7014 1.0000
11.6370 -2.2441 -0.7014 1.0000
11.6437 -2.2093 -0.7014 1.0000
11.6568 -2.1394 -0.7014 1.0000
11.6632 -2.1046 -0.7014 1.0000
11.6877 -1.9646 -0.7014 1.0000
11.7049 -1.8595 -0.7014 1.0000
11.7159 -1.7893 -0.7014 1.0000
11.7511 -1.5433 -0.7015 1.0000
11.7557 -1.5081 -0.7015 1.0000
11.7602 -1.4729 -0.7015 1.0000
11.7689 -1.4023 -0.7015 1.0000
11.7730 -1.3671 -0.7015 1.0000
11.7771 -1.3318 -0.7015 1.0000
11.7811 -1.2965 -0.7015 1.0000
11.7887 -1.2259 -0.7015 1.0000
11.8027 -1.0845 -0.7015 1.0000
11.8059 -1.0491 -0.7015 1.0000
11.8090 -1.0138 -0.7015 1.0000
11.8120 -0.9784 -0.7015 1.0000
11.8149 -0.9431 -0.7015 1.0000
11.8177 -0.9076 -0.7015 1.0000
11.8230 -0.8369 -0.7015 1.0000
11.8382 -0.5887 -0.7015 1.0000
11.8445 -0.4468 -0.7015 1.0000
11.8458 -0.4112 -0.7015 1.0000
11.8470 -0.3758 -0.7015 1.0000
11.8491 -0.3048 -0.7015 1.0000
11.8500 -0.2692 -0.7015 1.0000
11.8508 -0.2337 -0.7015 1.0000
11.8520 -0.1628 -0.7015 1.0000
11.8525 -0.1272 -0.7015 1.0000
11.8531 -0.0562 -0.7015 1.0000
11.8532 -0.0206 -0.7015 1.0000
11.8533 0.0149 -0.7015 1.0000
11.8532 0.0504 -0.7015 1.0000
11.8530 0.0859 -0.7015 1.0000
11.8527 0.1214 -0.7015 1.0000
11.8519 0.1925 -0.7015 1.0000
11.8488 0.3345 -0.7015 1.0000
11.8478 0.3700 -0.7015 1.0000
11.8454 0.4409 -0.7016 1.0000
11.8410 0.5474 -0.7016 1.0000
11.8394 0.5829 -0.7016 1.0000
11.8357 0.6538 -0.7016 1.0000
11.8337 0.6892 -0.7016 1.0000
11.8317 0.7248 -0.7016 1.0000
11.8271 0.7957 -0.7016 1.0000
11.8247 0.8312 -0.7016 1.0000
11.8196 0.9020 -0.7016 1.0000
11.8168 0.9373 -0.7016 1.0000
11.8111 1.0082 -0.7016 1.0000
11.8080 1.0436 -0.7016 1.0000
11.7948 1.1850 -0.7016 1.0000
11.7912 1.2204 -0.7016 1.0000
11.7758 1.3616 -0.7016 1.0000
11.7675 1.4321 -0.7016 1.0000
11.7588 1.5026 -0.7016 1.0000
11.7543 1.5379 -0.7016 1.0000
11.7496 1.5730 -0.7016 1.0000
11.7351 1.6786 -0.7016 1.0000
11.7300 1.7138 -0.7016 1.0000
11.7248 1.7490 -0.7016 1.0000
11.7088 1.8543 -0.7016 1.0000
11.7032 1.8894 -0.7016 1.0000
11.6917 1.9595 -0.7016 1.0000
11.6547 2.1694 -0.7016 1.0000
11.6482 2.2043 -0.7016 1.0000
11.6416 2.2391 -0.7016 1.0000
11.6280 2.3089 -0.7016 1.0000
11.6211 2.3437 -0.7016 1.0000
11.6140 2.3785 -0.7016 1.0000
11.5996 2.4481 -0.7016 1.0000
11.5847 2.5177 -0.7016 1.0000
11.5695 2.5870 -0.7016 1.0000
11.5539 2.6563 -0.7017 1.0000
11.5378 2.7254 -0.7017 1.0000
11.5296 2.7600 -0.7017 1.0000
11.5044 2.8636 -0.7017 1.0000
11.4957 2.8980 -0.7017 1.0000
11.4871 2.9325 -0.7017 1.0000
11.4782 2.9669 -0.7017 1.0000
11.4693 3.0013 -0.7017 1.0000
11.4655 -2.9970 -0.7014 1.0000
11.5008 -2.8595 -0.7014 1.0000
11.5261 -2.7559 -0.7014 1.0000
11.5343 -2.7214 -0.7014 1.0000
11.5424 -2.6869 -0.7014 1.0000
11.5505 -2.6523 -0.7014 1.0000
11.5662 -2.5830 -0.7014 1.0000
11.5739 -2.5484 -0.7014 1.0000
11.5815 -2.5137 -0.7014 1.0000
11.5965 -2.4443 -0.7014 1.0000
11.6037 -2.4095 -0.7014 1.0000
11.6110 -2.3747 -0.7014 1.0000
11.6181 -2.3399 -0.7014 1.0000
11.6250 -2.3052 -0.7014 1.0000
11.6387 -2.2354 -0.7014 1.0000
11.6454 -2.2004 -0.7014 1.0000
11.6520 -2.1656 -0.7014 1.0000
11.6584 -2.1307 -0.7014 1.0000
11.6648 -2.0958 -0.7014 1.0000
11.6771 -2.0258 -0.7014 1.0000
11.6892 -1.9559 -0.7014 1.0000
11.6950 -1.9208 -0.7014 1.0000
11.7007 -1.8857 -0.7014 1.0000
11.7119 -1.8156 -0.7014 1.0000
11.7278 -1.7103 -0.7014 1.0000
11.7329 -1.6752 -0.7015 1.0000
11.7379 -1.6400 -0.7015 1.0000
11.7523 -1.5344 -0.7015 1.0000
11.7568 -1.4992 -0.7015 1.0000
11.7613 -1.4639 -0.7015 1.0000
9.1638 0.9415 -0.7015 1.0000
9.1551 1.0238 -0.7015 1.0000
9.1520 1.0512 -0.7015 1.0000
9.1387 1.1607 -0.7015 1.0000
9.1317 1.2156 -0.7015 1.0000
9.1280 1.2429 -0.7015 1.0000
9.1243 1.2702 -0.7015 1.0000
9.1125 1.3523 -0.7015 1.0000
9.1084 1.3795 -0.7015 1.0000
9.1043 1.4068 -0.7015 1.0000
9.1000 1.4341 -0.7015 1.0000
9.0582 1.6789 -0.7016 1.0000
9.0531 1.7060 -0.7016 1.0000
9.0479 1.7333 -0.7016 1.0000
9.0428 1.7603 -0.7016 1.0000
9.0374 1.7874 -0.7016 1.0000
9.0266 1.8415 -0.7016 1.0000
9.0211 1.8686 -0.7016 1.0000
9.0097 1.9227 -0.7016 1.0000
9.0040 1.9496 -0.7016 1.0000
8.9861 2.0305 -0.7016 1.0000
8.9800 2.0574 -0.7016 1.0000
8.9738 2.0843 -0.7016 1.0000
8.9676 2.1112 -0.7016 1.0000
8.9612 2.1379 -0.7016 1.0000
8.9416 2.2185 -0.7016 1.0000
8.9350 2.2453 -0.7016 1.0000
8.9214 2.2987 -0.7016 1.0000
8.9075 2.3522 -0.7016 1.0000
8.9004 2.3789 -0.7016 1.0000
8.9018 -2.3625 -0.7014 1.0000
8.9227 -2.2825 -0.7014 1.0000
8.9295 -2.2558 -0.7014 1.0000
8.9363 -2.2290 -0.7014 1.0000
8.9495 -2.1753 -0.7014 1.0000
8.9624 -2.1217 -0.7014 1.0000
8.9687 -2.0948 -0.7014 1.0000
8.9932 -1.9873 -0.7014 1.0000
8.9992 -1.9603 -0.7014 1.0000
9.0108 -1.9064 -0.7014 1.0000
9.0165 -1.8794 -0.7014 1.0000
9.0221 -1.8523 -0.7014 1.0000
9.0331 -1.7982 -0.7014 1.0000
9.0437 -1.7440 -0.7014 1.0000
9.0591 -1.6627 -0.7014 1.0000
9.0737 -1.5812 -0.7014 1.0000
9.0785 -1.5540 -0.7014 1.0000
9.0830 -1.5268 -0.7014 1.0000
9.0964 -1.4451 -0.7014 1.0000
9.1008 -1.4179 -0.7014 1.0000
9.1092 -1.3633 -0.7014 1.0000
9.1172 -1.3087 -0.7014 1.0000
9.1249 -1.2541 -0.7014 1.0000
9.1287 -1.2267 -0.7014 1.0000
9.1323 -1.1994 -0.7014 1.0000
9.1359 -1.1720 -0.7014 1.0000
9.1394 -1.1446 -0.7014 1.0000
9.1494 -1.0624 -0.7014 1.0000
9.1615 -0.9527 -0.7014 1.0000
9.1670 -0.8978 -0.7014 1.0000
9.1723 -0.8429 -0.7014 1.0000
9.1748 -0.8154 -0.7014 1.0000
9.1773 -0.7879 -0.7014 1.0000
9.1796 -0.7603 -0.7014 1.0000
9.1900 -0.6228 -0.7014 1.0000
9.1936 -0.5677 -0.7015 1.0000
9.1953 -0.5401 -0.7015 1.0000
9.2012 -0.4299 -0.7015 1.0000
9.2036 -0.3747 -0.7015 1.0000
9.2047 -0.3471 -0.7015 1.0000
9.2057 -0.3196 -0.7015 1.0000
9.2082 -0.2368 -0.7015 1.0000
9.2101 -0.1541 -0.7015 1.0000
9.2105 -0.1264 -0.7015 1.0000
9.2109 -0.0988 -0.7015 1.0000
9.2112 -0.0713 -0.7015 1.0000
9.2113 -0.0437 -0.7015 1.0000
9.2114 -0.0161 -0.7015 1.0000
9.2115 0.0116 -0.7015 1.0000
9.2114 0.0391 -0.7015 1.0000
9.2112 0.0668 -0.7015 1.0000
9.2104 0.1495 -0.7015 1.0000
9.2094 0.2047 -0.7015 1.0000
9.2087 0.2323 -0.7015 1.0000
9.2063 0.3151 -0.7015 1.0000
9.2053 0.3427 -0.7015 1.0000
9.2031 0.3979 -0.7015 1.0000
9.2020 0.4254 -0.7015 1.0000
9.2006 0.4529 -0.7015 1.0000
9.1992 0.4805 -0.7015 1.0000
9.1978 0.5081 -0.7015 1.0000
9.1962 0.5356 -0.7015 1.0000
9.1929 0.5907 -0.7015 1.0000
9.1892 0.6458 -0.7015 1.0000
9.1872 0.6734 -0.7015 1.0000
9.1786 0.7835 -0.7015 1.0000
9.1762 0.8109 -0.7015 1.0000
9.1712 0.8659 -0.7015 1.0000
9.1602 0.9757 -0.7015 1.0000
9.1573 1.0032 -0.7015 1.0000
9.1511 1.0580 -0.7015 1.0000
9.1479 1.0855 -0.7015 1.0000
9.1447 1.1129 -0.7015 1.0000
9.1413 1.1403 -0.7015 1.0000
9.1379 1.1677 -0.7015 1.0000
9.1343 1.1950 -0.7015 1.0000
9.1271 1.2499 -0.7015 1.0000
9.1233 1.2771 -0.7015 1.0000
9.1195 1.3044 -0.7015 1.0000
9.1115 1.3591 -0.7015 1.0000
9.1074 1.3864 -0.7015 1.0000
9.0989 1.4409 -0.7015 1.0000
9.0856 1.5227 -0.7015 1.0000
9.0811 1.5498 -0.7015 1.0000
9.0764 1.5771 -0.7016 1.0000
9.0717 1.6043 -0.7016 1.0000
9.0619 1.6586 -0.7016 1.0000
9.0569 1.6857 -0.7016 1.0000
9.0415 1.7672 -0.7016 1.0000
9.0361 1.7942 -0.7016 1.0000
9.0140 1.9024 -0.7016 1.0000
9.0082 1.9294 -0.7016 1.0000
8.9846 2.0373 -0.7016 1.0000
8.9785 2.0642 -0.7016 1.0000
8.9722 2.0910 -0.7016 1.0000
8.9660 2.1179 -0.7016 1.0000
8.9400 2.2252 -0.7016 1.0000
8.9265 2.2788 -0.7016 1.0000
8.9127 2.3323 -0.7016 1.0000
8.9057 2.3590 -0.7016 1.0000
8.9106 -2.3292 -0.7014 1.0000
8.9244 -2.2758 -0.7014 1.0000
8.9888 -2.0074 -0.7014 1.0000
9.0123 -1.8996 -0.7014 1.0000
9.0179 -1.8725 -0.7014 1.0000
9.0235 -1.8455 -0.7014 1.0000
9.0344 -1.7914 -0.7014 1.0000
9.0397 -1.7644 -0.7014 1.0000
9.0450 -1.7373 -0.7014 1.0000
9.0503 -1.7102 -0.7014 1.0000
9.0554 -1.6830 -0.7014 1.0000
9.0604 -1.6558 -0.7014 1.0000
9.0701 -1.6015 -0.7014 1.0000
9.0749 -1.5743 -0.7014 1.0000
9.0796 -1.5472 -0.7014 1.0000
9.0888 -1.4927 -0.7014 1.0000
9.1019 -1.4110 -0.7014 1.0000
9.1061 -1.3837 -0.7014 1.0000
9.1142 -1.3291 -0.7014 1.0000
9.1259 -1.2472 -0.7014 1.0000
9.1296 -1.2198 -0.7014 1.0000
9.1403 -1.1377 -0.7014 1.0000
7.4924 0.7470 -0.7015 1.0000
7.4829 0.8368 -0.7015 1.0000
7.4751 0.9039 -0.7015 1.0000
7.4667 0.9712 -0.7015 1.0000
7.4608 1.0159 -0.7015 1.0000
7.4577 1.0382 -0.7015 1.0000
7.4514 1.0829 -0.7015 1.0000
7.4480 1.1052 -0.7015 1.0000
7.4448 1.1276 -0.7015 1.0000
7.4414 1.1498 -0.7015 1.0000
7.4379 1.1721 -0.7015 1.0000
7.4344 1.1944 -0.7015 1.0000
7.4234 1.2612 -0.7015 1.0000
7.4077 1.3501 -0.7015 1.0000
7.4037 1.3722 -0.7015 1.0000
7.3996 1.3945 -0.7015 1.0000
7.3823 1.4830 -0.7015 1.0000
7.3546 1.6155 -0.7015 1.0000
7.3397 1.6816 -0.7015 1.0000
7.3347 1.7036 -0.7015 1.0000
7.3295 1.7256 -0.7015 1.0000
7.3244 1.7476 -0.7015 1.0000
7.2974 1.8570 -0.7015 1.0000
7.2918 1.8789 -0.7015 1.0000
7.2746 1.9443 -0.7015 1.0000
7.2933 -1.8656 -0.7014 1.0000
7.2988 -1.8438 -0.7014 1.0000
7.3043 -1.8220 -0.7014 1.0000
7.3257 -1.7343 -0.7014 1.0000
7.3309 -1.7122 -0.7014 1.0000
7.3558 -1.6022 -0.7014 1.0000
7.3699 -1.5362 -0.7014 1.0000
7.3745 -1.5141 -0.7014 1.0000
7.3790 -1.4920 -0.7014 1.0000
7.3834 -1.4699 -0.7014 1.0000
7.3879 -1.4477 -0.7014 1.0000
7.3922 -1.4256 -0.7014 1.0000
7.4128 -1.3147 -0.7014 1.0000
7.4205 -1.2702 -0.7014 1.0000
7.4243 -1.2480 -0.7014 1.0000
7.4388 -1.1589 -0.7014 1.0000
7.4456 -1.1143 -0.7014 1.0000
7.4522 -1.0697 -0.7014 1.0000
7.4554 -1.0474 -0.7014 1.0000
7.4615 -1.0027 -0.7014 1.0000
7.4645 -0.9804 -0.7014 1.0000
7.4674 -0.9579 -0.7014 1.0000
7.4758 -0.8908 -0.7014 1.0000
7.4784 -0.8685 -0.7014 1.0000
7.4810 -0.8460 -0.7014 1.0000
7.4835 -0.8237 -0.7014 1.0000
7.4907 -0.7562 -0.7014 1.0000
7.4929 -0.7338 -0.7014 1.0000
7.4972 -0.6889 -0.7014 1.0000
7.4992 -0.6665 -0.7014 1.0000
7.5012 -0.6440 -0.7014 1.0000
7.5049 -0.5991 -0.7014 1.0000
7.5067 -0.5766 -0.7014 1.0000
7.5084 -0.5540 -0.7014 1.0000
7.5100 -0.5315 -0.7014 1.0000
7.5116 -0.5090 -0.7014 1.0000
7.5146 -0.4640 -0.7014 1.0000
7.5159 -0.4415 -0.7014 1.0000
7.5172 -0.4189 -0.7014 1.0000
7.5196 -0.3739 -0.7014 1.0000
7.5207 -0.3514 -0.7014 1.0000
7.5218 -0.3288 -0.7014 1.0000
7.5228 -0.3063 -0.7014 1.0000
7.5237 -0.2838 -0.7014 1.0000
7.5245 -0.2612 -0.7014 1.0000
7.5259 -0.2161 -0.7014 1.0000
7.5280 -0.1259 -0.7014 1.0000
7.5284 -0.1034 -0.7014 1.0000
7.5288 -0.0582 -0.7014 1.0000
7.5291 0.0094 -0.7014 1.0000
7.5289 0.0545 -0.7014 1.0000
7.5285 0.0997 -0.7015 1.0000
7.5282 0.1223 -0.7015 1.0000
7.5278 0.1448 -0.7015 1.0000
7.5273 0.1673 -0.7015 1.0000
7.5268 0.1899 -0.7015 1.0000
7.5262 0.2124 -0.7015 1.0000
7.5256 0.2350 -0.7015 1.0000
7.5248 0.2575 -0.7015 1.0000
7.5240 0.2800 -0.7015 1.0000
7.5178 0.4152 -0.7015 1.0000
7.5152 0.4603 -0.7015 1.0000
7.5138 0.4829 -0.7015 1.0000
7.5108 0.5279 -0.7015 1.0000
7.5092 0.5504 -0.7015 1.0000
7.5076 0.5729 -0.7015 1.0000
7.5058 0.5954 -0.7015 1.0000
7.4961 0.7078 -0.7015 1.0000
7.4918 0.7526 -0.7015 1.0000
7.4895 0.7752 -0.7015 1.0000
7.4871 0.7976 -0.7015 1.0000
7.4847 0.8200 -0.7015 1.0000
7.4822 0.8424 -0.7015 1.0000
7.4797 0.8648 -0.7015 1.0000
7.4771 0.8872 -0.7015 1.0000
7.4744 0.9097 -0.7015 1.0000
7.4716 0.9321 -0.7015 1.0000
7.4660 0.9767 -0.7015 1.0000
7.4600 1.0215 -0.7015 1.0000
7.4538 1.0662 -0.7015 1.0000
7.4506 1.0885 -0.7015 1.0000
7.4439 1.1332 -0.7015 1.0000
7.4405 1.1554 -0.7015 1.0000
7.4334 1.2000 -0.7015 1.0000
7.4298 1.2223 -0.7015 1.0000
7.4262 1.2446 -0.7015 1.0000
7.4223 1.2667 -0.7015 1.0000
7.4186 1.2891 -0.7015 1.0000
7.4107 1.3335 -0.7015 1.0000
7.4067 1.3558 -0.7015 1.0000
7.3985 1.4001 -0.7015 1.0000
7.3942 1.4223 -0.7015 1.0000
7.3899 1.4443 -0.7015 1.0000
7.3768 1.5107 -0.7015 1.0000
7.3676 1.5549 -0.7015 1.0000
7.3435 1.6652 -0.7015 1.0000
7.3385 1.6871 -0.7015 1.0000
7.3124 1.7969 -0.7015 1.0000
7.3015 1.8407 -0.7015 1.0000
7.2904 1.8844 -0.7015 1.0000
7.2847 1.9062 -0.7015 1.0000
7.2790 1.9280 -0.7015 1.0000
7.2719 -1.9475 -0.7013 1.0000
7.2834 -1.9038 -0.7014 1.0000
7.2947 -1.8602 -0.7014 1.0000
7.3002 -1.8383 -0.7014 1.0000
7.3165 -1.7726 -0.7014 1.0000
7.3270 -1.7288 -0.7014 1.0000
7.3322 -1.7069 -0.7014 1.0000
7.3423 -1.6628 -0.7014 1.0000
7.3473 -1.6408 -0.7014 1.0000
7.3522 -1.6188 -0.7014 1.0000
7.3617 -1.5747 -0.7014 1.0000
7.3802 -1.4864 -0.7014 1.0000
7.3889 -1.4421 -0.7014 1.0000
7.3975 -1.3979 -0.7014 1.0000
7.4137 -1.3092 -0.7014 1.0000
7.4177 -1.2869 -0.7014 1.0000
7.4215 -1.2646 -0.7014 1.0000
7.4252 -1.2425 -0.7014 1.0000
7.4289 -1.2202 -0.7014 1.0000
7.4326 -1.1979 -0.7014 1.0000
7.4396 -1.1534 -0.7014 1.0000
7.4465 -1.1087 -0.7014 1.0000
7.4530 -1.0642 -0.7014 1.0000
7.4623 -0.9971 -0.7014 1.0000
7.4681 -0.9524 -0.7014 1.0000
7.4710 -0.9299 -0.7014 1.0000
6.3321 0.6313 -0.7015 1.0000
6.3262 0.6883 -0.7015 1.0000
6.3241 0.7071 -0.7015 1.0000
6.3198 0.7450 -0.7015 1.0000
6.3129 0.8018 -0.7015 1.0000
6.3054 0.8585 -0.7015 1.0000
6.3002 0.8963 -0.7015 1.0000
6.2975 0.9152 -0.7015 1.0000
6.2947 0.9341 -0.7015 1.0000
6.2919 0.9529 -0.7015 1.0000
6.2861 0.9906 -0.7015 1.0000
6.2831 1.0095 -0.7015 1.0000
6.2801 1.0283 -0.7015 1.0000
6.2738 1.0659 -0.7015 1.0000
6.2706 1.0847 -0.7015 1.0000
6.2640 1.1223 -0.7015 1.0000
6.2501 1.1973 -0.7015 1.0000
6.2428 1.2347 -0.7015 1.0000
6.2354 1.2720 -0.7015 1.0000
6.2237 1.3281 -0.7015 1.0000
6.2197 1.3467 -0.7015 1.0000
6.2156 1.3654 -0.7015 1.0000
6.2073 1.4026 -0.7015 1.0000
6.2031 1.4212 -0.7015 1.0000
6.1988 1.4398 -0.7015 1.0000
6.1945 1.4583 -0.7015 1.0000
6.1901 1.4769 -0.7015 1.0000
6.1857 1.4954 -0.7015 1.0000
6.1812 1.5139 -0.7015 1.0000
6.1720 1.5510 -0.7015 1.0000
6.1674 1.5694 -0.7015 1.0000
6.1626 1.5880 -0.7015 1.0000
6.1481 1.6433 -0.7015 1.0000
6.1497 -1.6322 -0.7013 1.0000
6.1545 -1.6138 -0.7013 1.0000
6.1641 -1.5768 -0.7013 1.0000
6.1734 -1.5399 -0.7013 1.0000
6.1781 -1.5214 -0.7013 1.0000
6.1871 -1.4843 -0.7013 1.0000
6.1959 -1.4472 -0.7014 1.0000
6.2087 -1.3915 -0.7014 1.0000
6.2169 -1.3542 -0.7014 1.0000
6.2209 -1.3356 -0.7014 1.0000
6.2288 -1.2983 -0.7014 1.0000
6.2327 -1.2797 -0.7014 1.0000
6.2365 -1.2610 -0.7014 1.0000
6.2403 -1.2423 -0.7014 1.0000
6.2440 -1.2236 -0.7014 1.0000
6.2477 -1.2049 -0.7014 1.0000
6.2512 -1.1862 -0.7014 1.0000
6.2548 -1.1674 -0.7014 1.0000
6.2651 -1.1112 -0.7014 1.0000
6.2683 -1.0924 -0.7014 1.0000
6.2716 -1.0736 -0.7014 1.0000
6.2779 -1.0359 -0.7014 1.0000
6.2899 -0.9607 -0.7014 1.0000
6.2928 -0.9418 -0.7014 1.0000
6.2956 -0.9229 -0.7014 1.0000
6.3010 -0.8853 -0.7014 1.0000
6.3087 -0.8286 -0.7014 1.0000
6.3136 -0.7908 -0.7014 1.0000
6.3248 -0.6960 -0.7014 1.0000
6.3289 -0.6582 -0.7014 1.0000
6.3308 -0.6392 -0.7014 1.0000
6.3327 -0.6202 -0.7014 1.0000
6.3346 -0.6012 -0.7014 1.0000
6.3381 -0.5633 -0.7014 1.0000
6.3413 -0.5252 -0.7014 1.0000
6.3444 -0.4872 -0.7014 1.0000
6.3458 -0.4683 -0.7014 1.0000
6.3472 -0.4492 -0.7014 1.0000
6.3485 -0.4303 -0.7014 1.0000
6.3510 -0.3921 -0.7014 1.0000
6.3522 -0.3731 -0.7014 1.0000
6.3543 -0.3350 -0.7014 1.0000
6.3562 -0.2970 -0.7014 1.0000
6.3586 -0.2397 -0.7014 1.0000
6.3594 -0.2208 -0.7014 1.0000
6.3600 -0.2018 -0.7014 1.0000
6.3616 -0.1445 -0.7014 1.0000
6.3620 -0.1254 -0.7014 1.0000
6.3623 -0.1064 -0.7014 1.0000
6.3631 -0.0492 -0.7014 1.0000
6.3633 -0.0111 -0.7014 1.0000
6.3631 0.0460 -0.7014 1.0000
6.3630 0.0652 -0.7014 1.0000
6.3628 0.0842 -0.7014 1.0000
6.3621 0.1223 -0.7014 1.0000
6.3613 0.1605 -0.7014 1.0000
6.3608 0.1795 -0.7014 1.0000
6.3596 0.2176 -0.7014 1.0000
6.3590 0.2367 -0.7014 1.0000
6.3575 0.2748 -0.7014 1.0000
6.3566 0.2938 -0.7014 1.0000
6.3557 0.3128 -0.7014 1.0000
6.3548 0.3320 -0.7014 1.0000
6.3515 0.3891 -0.7014 1.0000
6.3404 0.5412 -0.7014 1.0000
6.3371 0.5792 -0.7014 1.0000
6.3354 0.5981 -0.7014 1.0000
6.3336 0.6171 -0.7015 1.0000
6.3316 0.6361 -0.7015 1.0000
6.3297 0.6551 -0.7015 1.0000
6.3257 0.6930 -0.7015 1.0000
6.3123 0.8066 -0.7015 1.0000
6.3099 0.8255 -0.7015 1.0000
6.3073 0.8444 -0.7015 1.0000
6.3048 0.8633 -0.7015 1.0000
6.2968 0.9200 -0.7015 1.0000
6.2940 0.9388 -0.7015 1.0000
6.2793 1.0330 -0.7015 1.0000
6.2762 1.0519 -0.7015 1.0000
6.2730 1.0707 -0.7015 1.0000
6.2631 1.1270 -0.7015 1.0000
6.2419 1.2394 -0.7015 1.0000
6.2382 1.2581 -0.7015 1.0000
6.2344 1.2768 -0.7015 1.0000
6.2306 1.2955 -0.7015 1.0000
6.2227 1.3328 -0.7015 1.0000
6.2187 1.3515 -0.7015 1.0000
6.2104 1.3887 -0.7015 1.0000
6.2063 1.4073 -0.7015 1.0000
6.2020 1.4258 -0.7015 1.0000
6.1978 1.4443 -0.7015 1.0000
6.1934 1.4630 -0.7015 1.0000
6.1890 1.4816 -0.7015 1.0000
6.1800 1.5187 -0.7015 1.0000
6.1614 1.5926 -0.7015 1.0000
6.1566 1.6111 -0.7015 1.0000
6.1460 -1.6460 -0.7013 1.0000
6.1509 -1.6276 -0.7013 1.0000
6.1653 -1.5722 -0.7013 1.0000
6.1699 -1.5537 -0.7013 1.0000
6.1837 -1.4982 -0.7013 1.0000
6.1882 -1.4797 -0.7013 1.0000
6.1970 -1.4425 -0.7014 1.0000
6.2013 -1.4241 -0.7014 1.0000
6.2055 -1.4055 -0.7014 1.0000
6.2138 -1.3682 -0.7014 1.0000
6.2179 -1.3496 -0.7014 1.0000
6.2259 -1.3123 -0.7014 1.0000
6.2337 -1.2750 -0.7014 1.0000
6.2412 -1.2376 -0.7014 1.0000
6.2449 -1.2189 -0.7014 1.0000
6.2485 -1.2002 -0.7014 1.0000
6.2557 -1.1627 -0.7014 1.0000
6.2591 -1.1440 -0.7014 1.0000
6.2691 -1.0876 -0.7014 1.0000
6.2787 -1.0312 -0.7014 1.0000
6.2818 -1.0124 -0.7014 1.0000
6.2907 -0.9559 -0.7014 1.0000
6.2963 -0.9182 -0.7014 1.0000
6.3017 -0.8805 -0.7014 1.0000
6.3069 -0.8427 -0.7014 1.0000
6.3118 -0.8049 -0.7014 1.0000
6.3142 -0.7861 -0.7014 1.0000
5.4820 0.5301 -0.7014 1.0000
5.4804 0.5465 -0.7014 1.0000
5.4787 0.5628 -0.7014 1.0000
5.4770 0.5792 -0.7014 1.0000
5.4752 0.5956 -0.7014 1.0000
5.4697 0.6448 -0.7014 1.0000
5.4677 0.6612 -0.7014 1.0000
5.4657 0.6776 -0.7014 1.0000
5.4637 0.6940 -0.7014 1.0000
5.4616 0.7104 -0.7014 1.0000
5.4550 0.7595 -0.7014 1.0000
5.4480 0.8084 -0.7014 1.0000
5.4404 0.8574 -0.7014 1.0000
5.4326 0.9061 -0.7014 1.0000
5.4298 0.9225 -0.7014 1.0000
5.4213 0.9712 -0.7014 1.0000
5.4184 0.9876 -0.7014 1.0000
5.4154 1.0037 -0.7014 1.0000
5.4062 1.0524 -0.7015 1.0000
5.4030 1.0686 -0.7015 1.0000
5.3965 1.1009 -0.7015 1.0000
5.3932 1.1170 -0.7015 1.0000
5.3864 1.1494 -0.7015 1.0000
5.3759 1.1979 -0.7015 1.0000
5.3496 1.3102 -0.7015 1.0000
5.3377 1.3583 -0.7015 1.0000
5.3225 -1.4127 -0.7013 1.0000
5.3350 -1.3648 -0.7013 1.0000
5.3391 -1.3487 -0.7013 1.0000
5.3431 -1.3328 -0.7013 1.0000
5.3471 -1.3167 -0.7013 1.0000
5.3510 -1.3007 -0.7013 1.0000
5.3549 -1.2848 -0.7013 1.0000
5.3587 -1.2687 -0.7013 1.0000
5.3625 -1.2526 -0.7013 1.0000
5.3772 -1.1883 -0.7013 1.0000
5.3842 -1.1559 -0.7013 1.0000
5.3877 -1.1398 -0.7013 1.0000
5.3910 -1.1237 -0.7013 1.0000
5.3944 -1.1075 -0.7014 1.0000
5.4042 -1.0590 -0.7014 1.0000
5.4104 -1.0267 -0.7014 1.0000
5.4135 -1.0104 -0.7014 1.0000
5.4194 -0.9779 -0.7014 1.0000
5.4280 -0.9292 -0.7014 1.0000
5.4335 -0.8967 -0.7014 1.0000
5.4362 -0.8804 -0.7014 1.0000
5.4388 -0.8641 -0.7014 1.0000
5.4463 -0.8151 -0.7014 1.0000
5.4535 -0.7662 -0.7014 1.0000
5.4580 -0.7335 -0.7014 1.0000
5.4602 -0.7171 -0.7014 1.0000
5.4623 -0.7007 -0.7014 1.0000
5.4664 -0.6680 -0.7014 1.0000
5.4723 -0.6188 -0.7014 1.0000
5.4740 -0.6024 -0.7014 1.0000
5.4758 -0.5860 -0.7014 1.0000
5.4793 -0.5532 -0.7014 1.0000
5.4825 -0.5203 -0.7014 1.0000
5.4840 -0.5040 -0.7014 1.0000
5.4946 -0.3724 -0.7014 1.0000
5.4967 -0.3394 -0.7014 1.0000
5.4977 -0.3230 -0.7014 1.0000
5.4987 -0.3065 -0.7014 1.0000
5.4996 -0.2901 -0.7014 1.0000
5.5004 -0.2736 -0.7014 1.0000
5.5027 -0.2241 -0.7014 1.0000
5.5033 -0.2076 -0.7014 1.0000
5.5062 -0.1086 -0.7014 1.0000
5.5067 -0.0756 -0.7014 1.0000
5.5070 -0.0591 -0.7014 1.0000
5.5072 -0.0262 -0.7014 1.0000
5.5073 0.0069 -0.7014 1.0000
5.5069 0.0729 -0.7014 1.0000
5.5066 0.0895 -0.7014 1.0000
5.5060 0.1224 -0.7014 1.0000
5.5056 0.1388 -0.7014 1.0000
5.5047 0.1719 -0.7014 1.0000
5.5029 0.2213 -0.7014 1.0000
5.5015 0.2543 -0.7014 1.0000
5.4972 0.3368 -0.7014 1.0000
5.4961 0.3532 -0.7014 1.0000
5.4950 0.3696 -0.7014 1.0000
5.4861 0.4847 -0.7014 1.0000
5.4846 0.5013 -0.7014 1.0000
5.4831 0.5176 -0.7014 1.0000
5.4815 0.5342 -0.7014 1.0000
5.4711 0.6325 -0.7014 1.0000
5.4672 0.6654 -0.7014 1.0000
5.4589 0.7307 -0.7014 1.0000
5.4567 0.7472 -0.7014 1.0000
5.4544 0.7635 -0.7014 1.0000
5.4521 0.7800 -0.7014 1.0000
5.4473 0.8125 -0.7014 1.0000
5.4398 0.8614 -0.7014 1.0000
5.4319 0.9104 -0.7014 1.0000
5.4291 0.9265 -0.7014 1.0000
5.4235 0.9591 -0.7014 1.0000
5.4177 0.9916 -0.7014 1.0000
5.4147 1.0079 -0.7015 1.0000
5.4054 1.0565 -0.7015 1.0000
5.4022 1.0726 -0.7015 1.0000
5.3990 1.0888 -0.7015 1.0000
5.3924 1.1212 -0.7015 1.0000
5.3890 1.1373 -0.7015 1.0000
5.3856 1.1535 -0.7015 1.0000
5.3786 1.1857 -0.7015 1.0000
5.3750 1.2019 -0.7015 1.0000
5.3526 1.2982 -0.7015 1.0000
5.3447 1.3303 -0.7015 1.0000
5.3407 1.3463 -0.7015 1.0000
5.3193 -1.4245 -0.7013 1.0000
5.3236 -1.4087 -0.7013 1.0000
5.3278 -1.3927 -0.7013 1.0000
5.3320 -1.3768 -0.7013 1.0000
5.3441 -1.3288 -0.7013 1.0000
5.3481 -1.3127 -0.7013 1.0000
5.3520 -1.2966 -0.7013 1.0000
5.3559 -1.2807 -0.7013 1.0000
5.3597 -1.2646 -0.7013 1.0000
5.3672 -1.2326 -0.7013 1.0000
5.3745 -1.2003 -0.7013 1.0000
5.3780 -1.1841 -0.7013 1.0000
5.3816 -1.1681 -0.7013 1.0000
5.3850 -1.1520 -0.7013 1.0000
5.3885 -1.1358 -0.7013 1.0000
5.3919 -1.1197 -0.7013 1.0000
5.3952 -1.1035 -0.7014 1.0000
5.4018 -1.0712 -0.7014 1.0000
5.4049 -1.0549 -0.7014 1.0000
5.4081 -1.0387 -0.7014 1.0000
5.4142 -1.0063 -0.7014 1.0000
5.4342 -0.8926 -0.7014 1.0000
5.4395 -0.8599 -0.7014 1.0000
5.4420 -0.8437 -0.7014 1.0000
5.4445 -0.8274 -0.7014 1.0000
5.4470 -0.8111 -0.7014 1.0000
5.4494 -0.7948 -0.7014 1.0000
5.4540 -0.7621 -0.7014 1.0000
5.4563 -0.7458 -0.7014 1.0000
5.4586 -0.7293 -0.7014 1.0000
5.4607 -0.7131 -0.7014 1.0000
4.8251 0.5103 -0.7014 1.0000
4.8220 0.5393 -0.7014 1.0000
4.8187 0.5681 -0.7014 1.0000
4.8170 0.5825 -0.7014 1.0000
4.8152 0.5969 -0.7014 1.0000
4.8134 0.6114 -0.7014 1.0000
4.8037 0.6835 -0.7014 1.0000
4.7995 0.7122 -0.7014 1.0000
4.7952 0.7410 -0.7014 1.0000
4.7930 0.7553 -0.7014 1.0000
4.7907 0.7697 -0.7014 1.0000
4.7883 0.7840 -0.7014 1.0000
4.7860 0.7984 -0.7014 1.0000
4.7786 0.8414 -0.7014 1.0000
4.7761 0.8556 -0.7014 1.0000
4.7709 0.8842 -0.7014 1.0000
4.7655 0.9129 -0.7014 1.0000
4.7571 0.9556 -0.7014 1.0000
4.7542 0.9699 -0.7014 1.0000
4.7453 1.0126 -0.7014 1.0000
4.7392 1.0411 -0.7014 1.0000
4.7297 1.0835 -0.7014 1.0000
4.7264 1.0978 -0.7014 1.0000
4.7231 1.1119 -0.7014 1.0000
4.7163 1.1402 -0.7014 1.0000
4.7129 1.1544 -0.7014 1.0000
4.7094 1.1685 -0.7014 1.0000
4.7059 1.1825 -0.7014 1.0000
4.7023 1.1966 -0.7014 1.0000
4.6987 1.2108 -0.7014 1.0000
4.6877 1.2529 -0.7014 1.0000
4.6891 -1.2445 -0.7013 1.0000
4.6928 -1.2304 -0.7013 1.0000
4.6965 -1.2164 -0.7013 1.0000
4.7001 -1.2023 -0.7013 1.0000
4.7037 -1.1882 -0.7013 1.0000
4.7072 -1.1741 -0.7013 1.0000
4.7107 -1.1600 -0.7013 1.0000
4.7142 -1.1460 -0.7013 1.0000
4.7176 -1.1318 -0.7013 1.0000
4.7277 -1.0893 -0.7013 1.0000
4.7308 -1.0752 -0.7013 1.0000
4.7341 -1.0610 -0.7013 1.0000
4.7434 -1.0184 -0.7013 1.0000
4.7524 -0.9757 -0.7013 1.0000
4.7553 -0.9614 -0.7013 1.0000
4.7638 -0.9187 -0.7013 1.0000
4.7666 -0.9044 -0.7013 1.0000
4.7692 -0.8902 -0.7013 1.0000
4.7719 -0.8759 -0.7013 1.0000
4.7770 -0.8472 -0.7014 1.0000
4.7820 -0.8185 -0.7014 1.0000
4.7845 -0.8043 -0.7014 1.0000
4.7892 -0.7756 -0.7014 1.0000
4.7915 -0.7612 -0.7014 1.0000
4.7938 -0.7469 -0.7014 1.0000
4.8003 -0.7037 -0.7014 1.0000
4.8045 -0.6749 -0.7014 1.0000
4.8065 -0.6606 -0.7014 1.0000
4.8141 -0.6029 -0.7014 1.0000
4.8158 -0.5885 -0.7014 1.0000
4.8226 -0.5307 -0.7014 1.0000
4.8286 -0.4729 -0.7014 1.0000
4.8300 -0.4584 -0.7014 1.0000
4.8327 -0.4294 -0.7014 1.0000
4.8339 -0.4151 -0.7014 1.0000
4.8364 -0.3861 -0.7014 1.0000
4.8397 -0.3425 -0.7014 1.0000
4.8406 -0.3280 -0.7014 1.0000
4.8416 -0.3136 -0.7014 1.0000
4.8434 -0.2845 -0.7014 1.0000
4.8465 -0.2264 -0.7014 1.0000
4.8478 -0.1973 -0.7014 1.0000
4.8484 -0.1829 -0.7014 1.0000
4.8498 -0.1393 -0.7014 1.0000
4.8506 -0.1103 -0.7014 1.0000
4.8509 -0.0957 -0.7014 1.0000
4.8518 0.0060 -0.7014 1.0000
4.8518 0.0205 -0.7014 1.0000
4.8512 0.0787 -0.7014 1.0000
4.8507 0.1078 -0.7014 1.0000
4.8504 0.1223 -0.7014 1.0000
4.8499 0.1369 -0.7014 1.0000
4.8496 0.1515 -0.7014 1.0000
4.8491 0.1659 -0.7014 1.0000
4.8486 0.1804 -0.7014 1.0000
4.8468 0.2240 -0.7014 1.0000
4.8461 0.2386 -0.7014 1.0000
4.8454 0.2530 -0.7014 1.0000
4.8446 0.2675 -0.7014 1.0000
4.8437 0.2821 -0.7014 1.0000
4.8429 0.2967 -0.7014 1.0000
4.8420 0.3112 -0.7014 1.0000
4.8410 0.3256 -0.7014 1.0000
4.8390 0.3547 -0.7014 1.0000
4.8379 0.3691 -0.7014 1.0000
4.8368 0.3836 -0.7014 1.0000
4.8356 0.3981 -0.7014 1.0000
4.8344 0.4126 -0.7014 1.0000
4.8305 0.4560 -0.7014 1.0000
4.8263 0.4995 -0.7014 1.0000
4.8216 0.5429 -0.7014 1.0000
4.8182 0.5718 -0.7014 1.0000
4.8165 0.5862 -0.7014 1.0000
4.8147 0.6006 -0.7014 1.0000
4.8129 0.6150 -0.7014 1.0000
4.8110 0.6294 -0.7014 1.0000
4.8091 0.6438 -0.7014 1.0000
4.8052 0.6727 -0.7014 1.0000
4.8031 0.6871 -0.7014 1.0000
4.8011 0.7014 -0.7014 1.0000
4.7990 0.7158 -0.7014 1.0000
4.7946 0.7445 -0.7014 1.0000
4.7924 0.7589 -0.7014 1.0000
4.7901 0.7733 -0.7014 1.0000
4.7877 0.7877 -0.7014 1.0000
4.7854 0.8020 -0.7014 1.0000
4.7805 0.8307 -0.7014 1.0000
4.7592 0.9450 -0.7014 1.0000
4.7353 1.0588 -0.7014 1.0000
4.7321 1.0730 -0.7014 1.0000
4.7288 1.0871 -0.7014 1.0000
4.7256 1.1013 -0.7014 1.0000
4.7188 1.1296 -0.7014 1.0000
4.7155 1.1437 -0.7014 1.0000
4.7121 1.1579 -0.7014 1.0000
4.7086 1.1720 -0.7014 1.0000
4.7050 1.1861 -0.7014 1.0000
4.6978 1.2143 -0.7014 1.0000
4.6974 -1.2128 -0.7013 1.0000
4.7011 -1.1988 -0.7013 1.0000
4.7081 -1.1705 -0.7013 1.0000
4.7116 -1.1565 -0.7013 1.0000
4.7185 -1.1282 -0.7013 1.0000
4.7251 -1.0999 -0.7013 1.0000
4.7285 -1.0857 -0.7013 1.0000
4.7349 -1.0574 -0.7013 1.0000
4.7412 -1.0291 -0.7013 1.0000
4.7442 -1.0149 -0.7013 1.0000
4.7561 -0.9579 -0.7013 1.0000
4.7645 -0.9151 -0.7013 1.0000
4.7672 -0.9008 -0.7013 1.0000
4.7777 -0.8437 -0.7014 1.0000
4.7826 -0.8150 -0.7014 1.0000
4.7851 -0.8007 -0.7014 1.0000
4.7875 -0.7863 -0.7014 1.0000
4.7921 -0.7576 -0.7014 1.0000
4.7966 -0.7288 -0.7014 1.0000
4.7987 -0.7145 -0.7014 1.0000
4.8009 -0.7001 -0.7014 1.0000
4.8050 -0.6713 -0.7014 1.0000
4.8070 -0.6569 -0.7014 1.0000
4.8127 -0.6137 -0.7014 1.0000
4.3136 0.4170 -0.7014 1.0000
4.3123 0.4299 -0.7014 1.0000
4.3096 0.4558 -0.7014 1.0000
4.3083 0.4687 -0.7014 1.0000
4.3054 0.4945 -0.7014 1.0000
4.3024 0.5202 -0.7014 1.0000
4.3008 0.5332 -0.7014 1.0000
4.2992 0.5460 -0.7014 1.0000
4.2975 0.5589 -0.7014 1.0000
4.2959 0.5718 -0.7014 1.0000
4.2941 0.5847 -0.7014 1.0000
4.2905 0.6104 -0.7014 1.0000
4.2887 0.6232 -0.7014 1.0000
4.2868 0.6361 -0.7014 1.0000
4.2829 0.6618 -0.7014 1.0000
4.2809 0.6746 -0.7014 1.0000
4.2747 0.7130 -0.7014 1.0000
4.2704 0.7387 -0.7014 1.0000
4.2658 0.7643 -0.7014 1.0000
4.2635 0.7770 -0.7014 1.0000
4.2588 0.8026 -0.7014 1.0000
4.2564 0.8153 -0.7014 1.0000
4.2539 0.8281 -0.7014 1.0000
4.2515 0.8408 -0.7014 1.0000
4.2438 0.8789 -0.7014 1.0000
4.2384 0.9045 -0.7014 1.0000
4.2357 0.9171 -0.7014 1.0000
4.2301 0.9425 -0.7014 1.0000
4.2273 0.9551 -0.7014 1.0000
4.2244 0.9678 -0.7014 1.0000
4.2185 0.9931 -0.7014 1.0000
4.2155 1.0057 -0.7014 1.0000
4.2094 1.0310 -0.7014 1.0000
4.2063 1.0436 -0.7014 1.0000
4.2000 1.0688 -0.7014 1.0000
4.1968 1.0814 -0.7014 1.0000
4.2044 -1.0487 -0.7013 1.0000
4.2107 -1.0235 -0.7013 1.0000
4.2167 -0.9983 -0.7013 1.0000
4.2197 -0.9857 -0.7013 1.0000
4.2255 -0.9604 -0.7013 1.0000
4.2284 -0.9477 -0.7013 1.0000
4.2312 -0.9350 -0.7013 1.0000
4.2367 -0.9097 -0.7013 1.0000
4.2447 -0.8715 -0.7013 1.0000
4.2473 -0.8588 -0.7013 1.0000
4.2499 -0.8461 -0.7013 1.0000
4.2525 -0.8333 -0.7013 1.0000
4.2549 -0.8206 -0.7013 1.0000
4.2574 -0.8079 -0.7013 1.0000
4.2645 -0.7696 -0.7013 1.0000
4.2668 -0.7568 -0.7013 1.0000
4.2712 -0.7312 -0.7013 1.0000
4.2755 -0.7056 -0.7013 1.0000
4.2776 -0.6927 -0.7013 1.0000
4.2797 -0.6800 -0.7013 1.0000
4.2817 -0.6671 -0.7013 1.0000
4.2857 -0.6414 -0.7014 1.0000
4.2894 -0.6157 -0.7014 1.0000
4.2913 -0.6029 -0.7014 1.0000
4.2930 -0.5899 -0.7014 1.0000
4.2948 -0.5771 -0.7014 1.0000
4.2982 -0.5515 -0.7014 1.0000
4.3074 -0.4740 -0.7014 1.0000
4.3088 -0.4611 -0.7014 1.0000
4.3102 -0.4483 -0.7014 1.0000
4.3140 -0.4095 -0.7014 1.0000
4.3164 -0.3837 -0.7014 1.0000
4.3176 -0.3707 -0.7014 1.0000
4.3197 -0.3448 -0.7014 1.0000
4.3208 -0.3319 -0.7014 1.0000
4.3227 -0.3060 -0.7014 1.0000
4.3236 -0.2930 -0.7014 1.0000
4.3252 -0.2671 -0.7014 1.0000
4.3275 -0.2282 -0.7014 1.0000
4.3288 -0.2022 -0.7014 1.0000
4.3294 -0.1893 -0.7014 1.0000
4.3304 -0.1633 -0.7014 1.0000
4.3309 -0.1504 -0.7014 1.0000
4.3314 -0.1374 -0.7014 1.0000
4.3317 -0.1243 -0.7014 1.0000
4.3331 -0.0596 -0.7014 1.0000
4.3333 -0.0466 -0.7014 1.0000
4.3336 0.0054 -0.7014 1.0000
4.3334 0.0444 -0.7014 1.0000
4.3332 0.0573 -0.7014 1.0000
4.3328 0.0834 -0.7014 1.0000
4.3325 0.0963 -0.7014 1.0000
4.3322 0.1093 -0.7014 1.0000
4.3311 0.1482 -0.7014 1.0000
4.3301 0.1742 -0.7014 1.0000
4.3296 0.1871 -0.7014 1.0000
4.3277 0.2260 -0.7014 1.0000
4.3247 0.2778 -0.7014 1.0000
4.3239 0.2909 -0.7014 1.0000
4.3229 0.3038 -0.7014 1.0000
4.3221 0.3168 -0.7014 1.0000
4.3201 0.3426 -0.7014 1.0000
4.3190 0.3556 -0.7014 1.0000
4.3180 0.3686 -0.7014 1.0000
4.3169 0.3815 -0.7014 1.0000
4.3145 0.4073 -0.7014 1.0000
4.3120 0.4331 -0.7014 1.0000
4.3106 0.4461 -0.7014 1.0000
4.3093 0.4589 -0.7014 1.0000
4.3065 0.4848 -0.7014 1.0000
4.3051 0.4978 -0.7014 1.0000
4.3004 0.5364 -0.7014 1.0000
4.2987 0.5492 -0.7014 1.0000
4.2954 0.5751 -0.7014 1.0000
4.2937 0.5879 -0.7014 1.0000
4.2901 0.6136 -0.7014 1.0000
4.2863 0.6394 -0.7014 1.0000
4.2844 0.6522 -0.7014 1.0000
4.2804 0.6779 -0.7014 1.0000
4.2763 0.7035 -0.7014 1.0000
4.2742 0.7163 -0.7014 1.0000
4.2720 0.7291 -0.7014 1.0000
4.2698 0.7419 -0.7014 1.0000
4.2676 0.7547 -0.7014 1.0000
4.2653 0.7675 -0.7014 1.0000
4.2630 0.7803 -0.7014 1.0000
4.2606 0.7930 -0.7014 1.0000
4.2558 0.8185 -0.7014 1.0000
4.2533 0.8313 -0.7014 1.0000
4.2508 0.8440 -0.7014 1.0000
4.2322 0.9330 -0.7014 1.0000
4.2178 0.9963 -0.7014 1.0000
4.2147 1.0089 -0.7014 1.0000
4.2117 1.0216 -0.7014 1.0000
4.2024 1.0593 -0.7014 1.0000
4.1960 1.0845 -0.7014 1.0000
4.1927 1.0971 -0.7014 1.0000
4.1894 1.1096 -0.7014 1.0000
4.1891 -1.1085 -0.7013 1.0000
4.1957 -1.0833 -0.7013 1.0000
4.2084 -1.0329 -0.7013 1.0000
4.2114 -1.0204 -0.7013 1.0000
4.2145 -1.0078 -0.7013 1.0000
4.2175 -0.9950 -0.7013 1.0000
4.2234 -0.9698 -0.7013 1.0000
4.2291 -0.9445 -0.7013 1.0000
4.2347 -0.9192 -0.7013 1.0000
4.2428 -0.8811 -0.7013 1.0000
4.2454 -0.8683 -0.7013 1.0000
4.2506 -0.8429 -0.7013 1.0000
4.2531 -0.8302 -0.7013 1.0000
4.2580 -0.8046 -0.7013 1.0000
4.2604 -0.7918 -0.7013 1.0000
4.2627 -0.7791 -0.7013 1.0000
4.2781 -0.6896 -0.7013 1.0000
4.2861 -0.6382 -0.7014 1.0000
4.2899 -0.6125 -0.7014 1.0000
4.2986 -0.5482 -0.7014 1.0000
4.3002 -0.5353 -0.7014 1.0000
3.8929 0.3999 -0.7014 1.0000
3.8904 0.4232 -0.7014 1.0000
3.8891 0.4348 -0.7014 1.0000
3.8878 0.4466 -0.7014 1.0000
3.8851 0.4698 -0.7014 1.0000
3.8776 0.5280 -0.7014 1.0000
3.8760 0.5396 -0.7014 1.0000
3.8744 0.5512 -0.7014 1.0000
3.8710 0.5744 -0.7014 1.0000
3.8620 0.6324 -0.7014 1.0000
3.8601 0.6439 -0.7014 1.0000
3.8521 0.6901 -0.7014 1.0000
3.8457 0.7248 -0.7014 1.0000
3.8390 0.7593 -0.7014 1.0000
3.8368 0.7708 -0.7014 1.0000
3.8273 0.8167 -0.7014 1.0000
3.8248 0.8281 -0.7014 1.0000
3.8223 0.8395 -0.7014 1.0000
3.8172 0.8625 -0.7014 1.0000
3.8146 0.8740 -0.7014 1.0000
3.8120 0.8854 -0.7014 1.0000
3.8066 0.9082 -0.7014 1.0000
3.8039 0.9196 -0.7014 1.0000
3.8011 0.9310 -0.7014 1.0000
3.7897 0.9764 -0.7014 1.0000
3.7808 1.0105 -0.7014 1.0000
