ply
format ascii 1.0
element vertex 1592
property float32 x
property float32 y
property float32 z
property float32 I
end_header
50.0941 9.1244 11.8158 1.0000
50.0941 9.2794 11.8223 1.0000
50.0941 9.4345 11.8289 1.0000
50.0941 9.5899 11.8356 1.0000
50.0941 10.0570 11.8565 1.0000
50.0941 10.2131 11.8637 1.0000
50.0941 10.3694 11.8710 1.0000
50.0941 10.6825 11.8859 1.0000
50.0941 10.8394 11.8936 1.0000
50.0941 11.3112 11.9172 1.0000
50.0941 11.4689 11.9253 1.0000
50.0941 11.6268 11.9336 1.0000
50.0941 11.7849 11.9419 1.0000
50.0941 11.9433 11.9504 1.0000
50.0941 12.4197 11.9765 1.0000
50.0941 12.5790 11.9854 1.0000
50.0941 12.7385 11.9945 1.0000
50.0941 13.0583 12.0130 1.0000
50.0941 13.3791 12.0320 1.0000
50.0941 -13.1453 12.0181 1.0000
50.0941 -12.9852 12.0087 1.0000
50.0941 -12.6656 11.9904 1.0000
50.0941 -12.0294 11.9550 1.0000
50.0941 -11.3968 11.9216 1.0000
50.0941 -11.2393 11.9135 1.0000
50.0941 -11.0819 11.9056 1.0000
50.0941 -10.9247 11.8978 1.0000
50.0941 -10.7677 11.8901 1.0000
50.0941 -10.2980 11.8676 1.0000
50.0941 -10.1418 11.8604 1.0000
50.0941 -9.8300 11.8462 1.0000
50.0941 -9.3637 11.8259 1.0000
50.0941 -9.2086 11.8193 1.0000
50.0941 -9.0537 11.8129 1.0000
50.0941 -8.7443 11.8003 1.0000
50.0941 -8.5899 11.7942 1.0000
50.0941 -7.8200 11.7653 1.0000
50.0941 -7.6665 11.7599 1.0000
50.0940 -7.3598 11.7493 1.0000
50.0940 -7.2067 11.7442 1.0000
50.0940 -6.5956 11.7249 1.0000
50.0941 -6.4431 11.7203 1.0000
50.0941 -6.2908 11.7158 1.0000
50.0940 -5.9863 11.7072 1.0000
50.0940 -5.8343 11.7031 1.0000
50.0941 -5.6824 11.6991 1.0000
50.0940 -5.3789 11.6914 1.0000
50.0940 -5.2272 11.6876 1.0000
50.0941 -4.7730 11.6772 1.0000
50.0940 -4.4705 11.6707 1.0000
50.0940 -4.0174 11.6619 1.0000
50.0940 -3.7158 11.6565 1.0000
50.0940 -3.5650 11.6539 1.0000
50.0940 -3.4144 11.6515 1.0000
50.0940 -3.1132 11.6470 1.0000
50.0940 -2.8123 11.6428 1.0000
50.0940 -2.6619 11.6409 1.0000
50.0940 -2.5115 11.6391 1.0000
50.0940 -2.3612 11.6374 1.0000
50.0941 -2.2110 11.6359 1.0000
50.0941 -2.0607 11.6344 1.0000
50.0941 -1.9106 11.6330 1.0000
50.0941 -1.6103 11.6305 1.0000
50.0940 11.6155 11.0211 1.0000
50.0940 11.9319 11.0366 1.0000
50.0940 12.0905 11.0446 1.0000
50.0941 12.5675 11.0690 1.0000
50.0940 12.8868 11.0858 1.0000
50.0940 13.0468 11.0944 1.0000
50.0941 13.3675 11.1120 1.0000
50.0941 -13.3172 11.1092 1.0000
50.0941 -12.6770 11.0747 1.0000
50.0941 -12.5177 11.0664 1.0000
50.0941 -12.1995 11.0501 1.0000
50.0941 -11.8823 11.0342 1.0000
50.0941 -11.5660 11.0187 1.0000
50.0941 -11.4081 11.0112 1.0000
50.0941 -11.0931 10.9964 1.0000
50.0941 -10.7789 10.9820 1.0000
50.0941 -10.6221 10.9750 1.0000
50.0941 -9.8412 10.9415 1.0000
50.0941 -9.6855 10.9351 1.0000
50.0941 -9.5301 10.9288 1.0000
50.0941 -9.2196 10.9166 1.0000
50.0941 -9.0648 10.9106 1.0000
50.0941 -8.7553 10.8990 1.0000
50.0941 -8.4466 10.8878 1.0000
50.0941 -8.1385 10.8770 1.0000
50.0941 -7.9847 10.8718 1.0000
50.0941 -7.8310 10.8667 1.0000
50.0941 -7.6775 10.8616 1.0000
50.0939 -7.0647 10.8425 1.0000
50.0939 -6.7591 10.8336 1.0000
50.0939 -6.6065 10.8292 1.0000
50.0939 -6.4540 10.8250 1.0000
50.0940 -6.3017 10.8209 1.0000
50.0940 -6.1494 10.8169 1.0000
50.0939 -5.8452 10.8091 1.0000
50.0940 -5.6933 10.8054 1.0000
50.0940 -5.5414 10.8018 1.0000
50.0940 -5.3898 10.7982 1.0000
50.0940 -5.2381 10.7948 1.0000
50.0939 -4.9351 10.7882 1.0000
50.0939 -4.4813 10.7791 1.0000
50.0940 -4.3302 10.7763 1.0000
50.0940 -4.1792 10.7736 1.0000
50.0939 -4.0282 10.7709 1.0000
50.0940 -3.8774 10.7684 1.0000
50.0939 -3.7265 10.7659 1.0000
50.0940 -3.2746 10.7592 1.0000
50.0940 -3.1240 10.7571 1.0000
50.0940 -2.3720 10.7483 1.0000
50.0940 -2.2218 10.7468 1.0000
50.0941 -1.9213 10.7442 1.0000
50.0940 -1.7712 10.7430 1.0000
50.0940 -1.6211 10.7419 1.0000
50.0941 -1.0209 10.7385 1.0000
50.0941 -0.8709 10.7379 1.0000
50.0940 -0.5709 10.7370 1.0000
50.0940 -0.4210 10.7366 1.0000
50.0941 -0.2710 10.7364 1.0000
50.0941 0.0288 10.7363 1.0000
50.0941 0.3287 10.7365 1.0000
50.0941 0.4787 10.7368 1.0000
50.0941 0.6287 10.7371 1.0000
50.0941 0.7786 10.7376 1.0000
50.0941 1.2286 10.7395 1.0000
50.0941 1.3787 10.7403 1.0000
50.0940 1.9791 10.7446 1.0000
50.0941 2.2795 10.7474 1.0000
50.0940 2.4298 10.7489 1.0000
50.0940 2.7305 10.7522 1.0000
50.0940 3.0314 10.7559 1.0000
50.0940 3.1819 10.7579 1.0000
50.0940 3.3325 10.7600 1.0000
50.0941 3.4831 10.7622 1.0000
50.0941 3.6338 10.7645 1.0000
50.0940 4.0863 10.7719 1.0000
50.0940 4.5395 10.7803 1.0000
50.0941 4.6907 10.7832 1.0000
50.0940 4.8420 10.7863 1.0000
50.0940 4.9934 10.7895 1.0000
50.0941 5.1448 10.7927 1.0000
50.0941 5.2964 10.7961 1.0000
50.0941 5.5998 10.8031 1.0000
50.0941 5.7517 10.8068 1.0000
50.0941 5.9037 10.8106 1.0000
50.0940 6.0558 10.8144 1.0000
50.0940 6.6652 10.8309 1.0000
50.0940 6.8179 10.8352 1.0000
50.0941 6.9707 10.8397 1.0000
50.0940 7.1236 10.8443 1.0000
50.0941 7.4298 10.8537 1.0000
50.0941 7.8902 10.8686 1.0000
50.0940 8.3518 10.8845 1.0000
50.0941 8.8148 10.9012 1.0000
50.0940 9.4346 10.9250 1.0000
50.0940 9.9011 10.9440 1.0000
50.0941 10.0570 10.9505 1.0000
50.0941 10.2131 10.9571 1.0000
50.0941 10.6825 10.9777 1.0000
50.0940 10.8394 10.9847 1.0000
50.0941 11.4689 11.0141 1.0000
50.0941 11.7849 11.0294 1.0000
50.0940 11.9432 11.0372 1.0000
50.0941 12.2607 11.0532 1.0000
50.0940 12.4197 11.0613 1.0000
50.0940 12.5790 11.0696 1.0000
50.0941 13.0582 11.0951 1.0000
50.0941 13.2185 11.1038 1.0000
50.0941 -12.9852 11.0911 1.0000
50.0941 -12.8252 11.0826 1.0000
50.0941 -12.5062 11.0658 1.0000
50.0941 -12.1881 11.0495 1.0000
50.0941 -11.7127 11.0259 1.0000
50.0941 -11.5546 11.0182 1.0000
50.0941 -11.0819 10.9959 1.0000
50.0941 -10.7677 10.9815 1.0000
50.0941 -10.6109 10.9745 1.0000
50.0941 -10.4544 10.9676 1.0000
50.0941 -10.2980 10.9608 1.0000
50.0941 -10.1418 10.9541 1.0000
50.0941 -9.9858 10.9475 1.0000
50.0941 -9.8300 10.9410 1.0000
50.0941 -9.6744 10.9347 1.0000
50.0941 -9.3636 10.9222 1.0000
50.0941 -9.0536 10.9102 1.0000
50.0941 -8.5898 10.8930 1.0000
50.0941 -8.4356 10.8874 1.0000
50.0941 -8.2814 10.8820 1.0000
50.0940 -7.3599 10.8515 1.0000
50.0940 -7.2068 10.8468 1.0000
50.0940 -7.0538 10.8422 1.0000
50.0940 -6.9009 10.8377 1.0000
50.0939 -6.2907 10.8206 1.0000
50.0939 -5.6824 10.8051 1.0000
50.0940 -5.5306 10.8015 1.0000
50.0939 -5.2272 10.7946 1.0000
50.0939 -4.9243 10.7880 1.0000
50.0940 -4.7729 10.7849 1.0000
50.0939 -4.6216 10.7819 1.0000
50.0939 -4.3194 10.7761 1.0000
50.0940 -4.1684 10.7734 1.0000
50.0940 -3.8666 10.7682 1.0000
50.0940 -3.7157 10.7658 1.0000
50.0939 -3.4143 10.7612 1.0000
50.0939 -2.9627 10.7550 1.0000
50.0939 -2.8122 10.7532 1.0000
50.0940 -2.5115 10.7498 1.0000
50.0939 -2.2110 10.7467 1.0000
50.0941 11.6155 10.1159 1.0000
50.0941 12.0904 10.1374 1.0000
50.0941 12.4083 10.1522 1.0000
50.0941 12.7270 10.1675 1.0000
50.0941 12.8868 10.1753 1.0000
50.0941 13.3675 10.1992 1.0000
50.0941 -13.3172 10.1967 1.0000
50.0941 -12.6770 10.1651 1.0000
50.0940 -12.1995 10.1424 1.0000
50.0941 -11.7240 10.1207 1.0000
50.0941 -11.5660 10.1137 1.0000
50.0941 -11.0931 10.0932 1.0000
50.0941 -10.9359 10.0865 1.0000
50.0941 -10.7789 10.0800 1.0000
50.0940 -10.1529 10.0548 1.0000
50.0940 -9.8411 10.0428 1.0000
50.0940 -9.3748 10.0255 1.0000
50.0941 -9.2197 10.0199 1.0000
50.0940 -8.9100 10.0091 1.0000
50.0941 -8.7554 10.0038 1.0000
50.0940 -8.1385 9.9836 1.0000
50.0939 -7.3709 9.9605 1.0000
50.0939 -7.2177 9.9562 1.0000
50.0939 -6.9119 9.9478 1.0000
50.0939 -6.7591 9.9437 1.0000
50.0939 -6.6065 9.9397 1.0000
50.0939 -6.4540 9.9359 1.0000
50.0939 -5.8452 9.9213 1.0000
50.0939 -5.6933 9.9178 1.0000
50.0939 -5.5414 9.9145 1.0000
50.0939 -5.3898 9.9113 1.0000
50.0939 -5.2381 9.9081 1.0000
50.0939 -4.9351 9.9021 1.0000
50.0939 -4.7838 9.8992 1.0000
50.0939 -4.6325 9.8965 1.0000
50.0939 -3.8773 9.8839 1.0000
50.0939 -3.7266 9.8816 1.0000
50.0939 -3.5758 9.8795 1.0000
50.0939 -3.4252 9.8774 1.0000
50.0939 -3.2745 9.8754 1.0000
50.0939 -2.9735 9.8717 1.0000
50.0939 -2.6727 9.8684 1.0000
50.0939 -2.3720 9.8654 1.0000
50.0940 -2.2217 9.8641 1.0000
50.0940 -1.6211 9.8596 1.0000
50.0940 -1.1709 9.8571 1.0000
50.0940 -1.0209 9.8564 1.0000
50.0940 -0.8709 9.8559 1.0000
50.0940 -0.2710 9.8546 1.0000
50.0940 0.1788 9.8545 1.0000
50.0940 0.4787 9.8549 1.0000
50.0940 0.6287 9.8552 1.0000
50.0940 0.7787 9.8556 1.0000
50.0940 1.2287 9.8574 1.0000
50.0940 1.3787 9.8581 1.0000
50.0940 1.5287 9.8590 1.0000
50.0940 1.6789 9.8599 1.0000
50.0940 1.8290 9.8610 1.0000
50.0940 2.2796 9.8646 1.0000
50.0940 2.4298 9.8660 1.0000
50.0940 2.5802 9.8675 1.0000
50.0940 2.8809 9.8707 1.0000
50.0940 3.0314 9.8724 1.0000
50.0940 3.1820 9.8743 1.0000
50.0940 3.3325 9.8762 1.0000
50.0940 3.4831 9.8782 1.0000
50.0940 3.6338 9.8803 1.0000
50.0940 4.0863 9.8871 1.0000
50.0940 4.3884 9.8921 1.0000
50.0940 4.8420 9.9003 1.0000
50.0940 5.1449 9.9062 1.0000
50.0940 5.2964 9.9093 1.0000
50.0940 5.4481 9.9125 1.0000
50.0940 5.7518 9.9192 1.0000
50.0940 6.6652 9.9412 1.0000
50.0940 6.9707 9.9494 1.0000
50.0940 7.2766 9.9578 1.0000
50.0940 7.5831 9.9667 1.0000
50.0940 7.7366 9.9712 1.0000
50.0940 7.8902 9.9759 1.0000
50.0940 8.3518 9.9904 1.0000
50.0940 8.6604 10.0006 1.0000
50.0940 8.9695 10.0111 1.0000
50.0941 9.4345 10.0277 1.0000
50.0941 9.5899 10.0334 1.0000
50.0941 9.9011 10.0451 1.0000
50.0941 10.0570 10.0510 1.0000
50.0941 10.6825 10.0760 1.0000
50.0941 10.9964 10.0891 1.0000
50.0941 11.1537 10.0957 1.0000
50.0941 11.7849 10.1234 1.0000
50.0941 12.1018 10.1379 1.0000
50.0941 12.4197 10.1528 1.0000
50.0941 12.5790 10.1603 1.0000
50.0941 12.7385 10.1680 1.0000
50.0941 12.8982 10.1758 1.0000
50.0941 13.0582 10.1837 1.0000
50.0941 13.2185 10.1917 1.0000
50.0941 -13.3057 10.1961 1.0000
50.0941 -12.3470 10.1493 1.0000
50.0941 -12.0294 10.1346 1.0000
50.0941 -11.8709 10.1273 1.0000
50.0941 -11.5546 10.1132 1.0000
50.0940 -11.3968 10.1062 1.0000
50.0941 -11.2392 10.0994 1.0000
50.0941 -10.9246 10.0860 1.0000
50.0941 -10.1418 10.0543 1.0000
50.0941 -9.9858 10.0483 1.0000
50.0941 -9.5189 10.0307 1.0000
50.0941 -9.3637 10.0251 1.0000
50.0941 -8.8989 10.0087 1.0000
50.0941 -8.7443 10.0034 1.0000
50.0941 -8.1275 9.9833 1.0000
50.0940 -7.9737 9.9785 1.0000
50.0941 -7.6665 9.9692 1.0000
50.0940 -7.5131 9.9646 1.0000
50.0939 -7.3598 9.9602 1.0000
50.0939 -7.2067 9.9559 1.0000
50.0939 -7.0538 9.9516 1.0000
50.0939 -6.7482 9.9434 1.0000
50.0939 -6.5956 9.9394 1.0000
50.0939 -6.2907 9.9318 1.0000
50.0939 -6.1385 9.9281 1.0000
50.0939 -5.9864 9.9245 1.0000
50.0939 -5.8343 9.9210 1.0000
50.0939 -5.6824 9.9176 1.0000
50.0939 -5.3788 9.9110 1.0000
50.0939 -4.9243 9.9019 1.0000
50.0939 -4.7729 9.8990 1.0000
50.0939 -4.6217 9.8963 1.0000
50.0939 -4.4705 9.8936 1.0000
50.0939 -4.3194 9.8910 1.0000
50.0939 -4.1684 9.8885 1.0000
50.0939 -3.8666 9.8837 1.0000
50.0939 -3.7157 9.8815 1.0000
50.0939 -3.5650 9.8793 1.0000
50.0939 -2.9627 9.8716 1.0000
50.0939 -2.8123 9.8699 1.0000
50.0939 -2.3612 9.8653 1.0000
50.0940 -2.2109 9.8640 1.0000
50.0940 -1.7604 9.8605 1.0000
50.0940 -1.4602 9.8586 1.0000
50.0940 11.6155 9.2166 1.0000
50.0940 11.7736 9.2230 1.0000
50.0940 11.9320 9.2296 1.0000
50.0940 12.0905 9.2362 1.0000
50.0940 12.4083 9.2497 1.0000
50.0940 12.7270 9.2636 1.0000
50.0940 13.3675 9.2926 1.0000
50.0941 -13.3172 9.2902 1.0000
50.0941 -13.1568 9.2829 1.0000
50.0941 -12.8367 9.2685 1.0000
50.0941 -12.5177 9.2545 1.0000
50.0941 -12.3584 9.2476 1.0000
50.0941 -12.1995 9.2408 1.0000
50.0941 -12.0408 9.2341 1.0000
50.0941 -11.8823 9.2275 1.0000
50.0941 -11.7240 9.2210 1.0000
50.0941 -11.5659 9.2146 1.0000
50.0941 -11.4081 9.2083 1.0000
50.0941 -11.0931 9.1959 1.0000
50.0940 -10.4655 9.1722 1.0000
50.0940 -10.1530 9.1609 1.0000
50.0940 -9.9970 9.1554 1.0000
50.0940 -9.8412 9.1500 1.0000
50.0940 -9.6855 9.1447 1.0000
50.0940 -9.3748 9.1343 1.0000
50.0941 -9.2197 9.1292 1.0000
50.0940 -9.0647 9.1242 1.0000
50.0940 -8.9099 9.1193 1.0000
50.0940 -8.7554 9.1145 1.0000
50.0940 -8.4466 9.1051 1.0000
50.0940 -8.1385 9.0961 1.0000
50.0940 -7.8310 9.0874 1.0000
50.0940 -7.6775 9.0832 1.0000
50.0940 -7.5241 9.0791 1.0000
50.0939 -6.6065 9.0561 1.0000
50.0939 -6.4540 9.0526 1.0000
50.0939 -6.1494 9.0458 1.0000
50.0939 -5.8453 9.0393 1.0000
50.0939 -5.6933 9.0362 1.0000
50.0939 -5.5415 9.0332 1.0000
50.0939 -5.2381 9.0273 1.0000
50.0940 -4.9352 9.0219 1.0000
50.0939 -4.4814 9.0142 1.0000
50.0939 -4.3302 9.0119 1.0000
50.0939 -4.1792 9.0096 1.0000
50.0939 -3.8774 9.0052 1.0000
50.0939 -3.7266 9.0032 1.0000
50.0939 -3.4252 8.9994 1.0000
50.0940 -2.9736 8.9942 1.0000
50.0939 -2.8230 8.9926 1.0000
50.0940 -2.5223 8.9898 1.0000
50.0940 -2.3721 8.9885 1.0000
50.0940 -2.2217 8.9872 1.0000
50.0940 -1.7712 8.9840 1.0000
50.0940 -1.3209 8.9815 1.0000
50.0940 -0.8709 8.9797 1.0000
50.0940 -0.7209 8.9793 1.0000
50.0940 -0.5709 8.9790 1.0000
50.0940 0.0289 8.9784 1.0000
50.0940 0.3287 8.9786 1.0000
50.0940 0.7786 8.9795 1.0000
50.0940 0.9286 8.9799 1.0000
50.0940 1.0786 8.9805 1.0000
50.0940 1.5287 8.9826 1.0000
50.0940 1.6789 8.9834 1.0000
50.0940 2.2796 8.9877 1.0000
50.0940 2.4299 8.9889 1.0000
50.0940 2.5801 8.9903 1.0000
50.0940 2.7305 8.9917 1.0000
50.0940 2.8809 8.9932 1.0000
50.0940 3.0314 8.9948 1.0000
50.0940 3.1819 8.9965 1.0000
50.0940 3.3325 8.9982 1.0000
50.0940 3.6338 9.0020 1.0000
50.0940 3.7846 9.0040 1.0000
50.0940 3.9354 9.0061 1.0000
50.0940 4.2373 9.0105 1.0000
50.0940 4.6907 9.0177 1.0000
50.0940 4.8420 9.0202 1.0000
50.0940 4.9934 9.0229 1.0000
50.0940 5.1449 9.0256 1.0000
50.0940 5.2964 9.0284 1.0000
50.0940 5.4481 9.0313 1.0000
50.0940 5.5999 9.0343 1.0000
50.0940 5.7518 9.0374 1.0000
50.0940 6.0558 9.0438 1.0000
50.0940 6.5127 9.0539 1.0000
50.0940 6.6653 9.0575 1.0000
50.0940 6.8179 9.0612 1.0000
50.0940 7.2766 9.0726 1.0000
50.0940 7.4298 9.0766 1.0000
50.0940 7.8902 9.0891 1.0000
50.0940 8.1978 9.0978 1.0000
50.0940 8.5060 9.1069 1.0000
50.0940 8.8149 9.1163 1.0000
50.0940 8.9695 9.1212 1.0000
50.0940 9.2793 9.1311 1.0000
50.0940 9.7454 9.1467 1.0000
50.0940 9.9011 9.1521 1.0000
50.0940 10.0570 9.1575 1.0000
50.0940 10.3693 9.1687 1.0000
50.0940 10.5258 9.1745 1.0000
50.0940 10.8393 9.1862 1.0000
50.0940 11.3112 9.2044 1.0000
50.0940 11.6268 9.2171 1.0000
50.0940 11.9433 9.2300 1.0000
50.0940 12.1019 9.2367 1.0000
50.0940 12.2607 9.2434 1.0000
50.0940 12.7385 9.2641 1.0000
50.0940 13.3790 9.2931 1.0000
50.0941 -13.3057 9.2897 1.0000
50.0941 -13.1453 9.2824 1.0000
50.0941 -12.8253 9.2680 1.0000
50.0941 -12.6656 9.2609 1.0000
50.0941 -12.3470 9.2471 1.0000
50.0941 -11.8709 9.2271 1.0000
50.0941 -11.3968 9.2078 1.0000
50.0940 -11.2392 9.2016 1.0000
50.0940 -9.8300 9.1496 1.0000
50.0941 -9.2086 9.1288 1.0000
50.0940 -9.0536 9.1239 1.0000
50.0940 -8.7443 9.1142 1.0000
50.0940 -8.1275 9.0958 1.0000
50.0940 -7.6665 9.0829 1.0000
50.0939 -7.0538 9.0670 1.0000
50.0940 -6.7482 9.0595 1.0000
50.0939 -6.4431 9.0523 1.0000
50.0939 -6.2907 9.0489 1.0000
50.0939 -6.1385 9.0455 1.0000
50.0939 -5.9864 9.0423 1.0000
50.0939 -5.3789 9.0300 1.0000
50.0939 -5.2273 9.0271 1.0000
50.0939 -4.9243 9.0217 1.0000
50.0939 -4.6217 9.0165 1.0000
50.0940 -4.3194 9.0117 1.0000
50.0939 -3.8666 9.0051 1.0000
50.0939 -3.7157 9.0031 1.0000
50.0939 -3.5650 9.0011 1.0000
50.0939 -3.4143 8.9992 1.0000
50.0940 -2.9627 8.9941 1.0000
50.0939 -2.8123 8.9925 1.0000
50.0939 -2.6619 8.9911 1.0000
50.0940 -2.2109 8.9871 1.0000
50.0940 -2.0607 8.9860 1.0000
50.0940 -1.7604 8.9839 1.0000
50.0940 -1.6103 8.9830 1.0000
50.0940 -1.4602 8.9822 1.0000
50.0940 -1.3102 8.9815 1.0000
50.0939 11.6154 8.3228 1.0000
50.0939 11.9319 8.3345 1.0000
50.0939 12.4083 8.3527 1.0000
50.0939 12.5675 8.3589 1.0000
50.0939 12.7270 8.3652 1.0000
50.0940 13.0468 8.3781 1.0000
50.0940 13.2070 8.3847 1.0000
50.0940 -13.1567 8.3826 1.0000
50.0940 -12.9966 8.3761 1.0000
50.0940 -12.8367 8.3696 1.0000
50.0940 -12.3584 8.3507 1.0000
50.0940 -12.1995 8.3446 1.0000
50.0940 -12.0407 8.3386 1.0000
50.0940 -11.8823 8.3326 1.0000
50.0940 -11.7240 8.3267 1.0000
50.0940 -11.4082 8.3153 1.0000
50.0940 -11.0931 8.3041 1.0000
50.0940 -10.9359 8.2986 1.0000
50.0940 -10.7789 8.2932 1.0000
50.0940 -10.6221 8.2879 1.0000
50.0940 -10.3092 8.2776 1.0000
50.0940 -9.8411 8.2626 1.0000
50.0940 -9.6855 8.2578 1.0000
50.0940 -9.5300 8.2531 1.0000
50.0940 -9.3748 8.2484 1.0000
50.0940 -9.0647 8.2393 1.0000
50.0940 -8.9100 8.2349 1.0000
50.0940 -8.4466 8.2221 1.0000
50.0940 -8.2925 8.2180 1.0000
50.0940 -8.1386 8.2140 1.0000
50.0940 -7.8310 8.2061 1.0000
50.0940 -7.6775 8.2023 1.0000
50.0940 -7.5241 8.1986 1.0000
50.0939 -7.3708 8.1950 1.0000
50.0939 -6.7591 8.1811 1.0000
50.0939 -6.3016 8.1716 1.0000
50.0939 -6.1494 8.1685 1.0000
50.0939 -5.8452 8.1627 1.0000
50.0939 -5.6932 8.1598 1.0000
50.0939 -5.3897 8.1544 1.0000
50.0939 -5.2381 8.1519 1.0000
50.0939 -4.9351 8.1469 1.0000
50.0939 -4.7838 8.1445 1.0000
50.0939 -4.6325 8.1423 1.0000
50.0939 -4.4813 8.1400 1.0000
50.0939 -4.1792 8.1358 1.0000
50.0939 -4.0282 8.1338 1.0000
50.0939 -3.8773 8.1319 1.0000
50.0939 -3.7265 8.1301 1.0000
50.0939 -3.5758 8.1283 1.0000
50.0939 -2.8230 8.1205 1.0000
50.0939 -2.5223 8.1179 1.0000
50.0939 -2.2217 8.1156 1.0000
50.0939 -1.6211 8.1119 1.0000
50.0939 -1.4710 8.1112 1.0000
50.0939 -1.1709 8.1099 1.0000
50.0940 -1.0209 8.1093 1.0000
50.0939 -0.7209 8.1085 1.0000
50.0939 -0.4210 8.1079 1.0000
50.0939 -0.1211 8.1077 1.0000
50.0939 0.1788 8.1077 1.0000
50.0939 0.4787 8.1080 1.0000
50.0940 0.7786 8.1086 1.0000
50.0939 1.3787 8.1107 1.0000
50.0939 1.5287 8.1114 1.0000
50.0939 1.6789 8.1122 1.0000
50.0940 1.8290 8.1131 1.0000
50.0939 1.9791 8.1140 1.0000
50.0939 2.1293 8.1150 1.0000
50.0939 2.2796 8.1160 1.0000
50.0939 2.4298 8.1172 1.0000
50.0939 2.5802 8.1184 1.0000
50.0939 2.8809 8.1211 1.0000
50.0939 3.3325 8.1256 1.0000
50.0939 3.4831 8.1272 1.0000
50.0940 3.9354 8.1326 1.0000
50.0940 4.2373 8.1366 1.0000
50.0939 4.3884 8.1387 1.0000
50.0940 4.5395 8.1409 1.0000
50.0940 5.1448 8.1503 1.0000
50.0939 5.7517 8.1609 1.0000
50.0939 5.9037 8.1638 1.0000
50.0939 6.0558 8.1667 1.0000
50.0939 6.3603 8.1728 1.0000
50.0940 6.6652 8.1791 1.0000
50.0939 7.1236 8.1892 1.0000
50.0939 7.4298 8.1963 1.0000
50.0940 7.5831 8.2000 1.0000
50.0940 7.7366 8.2038 1.0000
50.0939 7.8902 8.2076 1.0000
50.0940 8.0439 8.2115 1.0000
50.0939 8.1978 8.2155 1.0000
50.0940 8.5059 8.2237 1.0000
50.0940 9.1243 8.2411 1.0000
50.0940 9.5898 8.2549 1.0000
50.0940 9.7454 8.2597 1.0000
50.0940 9.9011 8.2645 1.0000
50.0940 10.2130 8.2745 1.0000
50.0940 10.3693 8.2795 1.0000
50.0939 10.9964 8.3007 1.0000
50.0939 11.9432 8.3349 1.0000
50.0939 12.2606 8.3470 1.0000
50.0939 12.4196 8.3531 1.0000
50.0939 12.7384 8.3657 1.0000
50.0940 13.0582 8.3786 1.0000
50.0940 13.2186 8.3852 1.0000
50.0940 13.3790 8.3918 1.0000
50.0940 -13.3056 8.3888 1.0000
50.0940 -12.9851 8.3756 1.0000
50.0940 -12.8253 8.3692 1.0000
50.0940 -12.6656 8.3628 1.0000
50.0940 -12.5062 8.3565 1.0000
50.0940 -11.8709 8.3322 1.0000
50.0940 -11.7127 8.3263 1.0000
50.0940 -11.5546 8.3205 1.0000
50.0940 -11.2392 8.3092 1.0000
50.0940 -10.9246 8.2982 1.0000
50.0940 -10.7677 8.2929 1.0000
50.0940 -10.6109 8.2876 1.0000
50.0940 -9.6743 8.2575 1.0000
50.0940 -8.7443 8.2303 1.0000
50.0940 -8.4356 8.2218 1.0000
50.0940 -8.2814 8.2177 1.0000
50.0940 -8.1275 8.2137 1.0000
50.0940 -7.9736 8.2097 1.0000
50.0940 -7.8200 8.2059 1.0000
50.0940 -7.5131 8.1983 1.0000
50.0939 -7.3598 8.1947 1.0000
50.0939 -7.2068 8.1911 1.0000
50.0939 -7.0538 8.1876 1.0000
50.0939 -6.7482 8.1809 1.0000
50.0939 -6.4431 8.1744 1.0000
50.0939 -5.9863 8.1653 1.0000
50.0939 -5.8343 8.1625 1.0000
50.0939 -5.6824 8.1597 1.0000
50.0939 -5.2272 8.1517 1.0000
50.0939 -5.0757 8.1492 1.0000
50.0939 -4.6216 8.1421 1.0000
50.0939 -4.4704 8.1399 1.0000
50.0939 -3.5650 8.1282 1.0000
50.0939 -3.4143 8.1265 1.0000
50.0939 -3.1132 8.1233 1.0000
50.0939 -2.8122 8.1204 1.0000
50.0939 -2.3612 8.1167 1.0000
50.0939 -2.2109 8.1156 1.0000
50.0939 -1.3102 8.1104 1.0000
50.0939 11.6154 7.4338 1.0000
50.0940 11.9318 7.4443 1.0000
50.0940 12.0904 7.4496 1.0000
50.0940 12.2492 7.4550 1.0000
50.0940 12.5675 7.4661 1.0000
50.0940 12.7270 7.4717 1.0000
50.0940 13.0468 7.4833 1.0000
50.0939 13.2070 7.4891 1.0000
50.0940 -13.3173 7.4932 1.0000
50.0940 -12.9966 7.4814 1.0000
50.0940 -12.6771 7.4700 1.0000
50.0940 -12.1995 7.4533 1.0000
50.0940 -11.8823 7.4426 1.0000
50.0940 -11.4082 7.4271 1.0000
50.0940 -10.9359 7.4122 1.0000
50.0940 -10.6222 7.4027 1.0000
50.0940 -10.4656 7.3980 1.0000
50.0940 -10.1530 7.3889 1.0000
50.0940 -9.9970 7.3845 1.0000
50.0940 -9.8412 7.3801 1.0000
50.0940 -9.6855 7.3758 1.0000
50.0940 -9.3748 7.3674 1.0000
50.0940 -9.2197 7.3633 1.0000
50.0940 -9.0648 7.3593 1.0000
50.0940 -8.9100 7.3553 1.0000
50.0940 -8.7554 7.3515 1.0000
50.0940 -8.6009 7.3476 1.0000
50.0940 -8.4466 7.3439 1.0000
50.0940 -7.8310 7.3296 1.0000
50.0940 -7.6775 7.3262 1.0000
50.0939 -7.3709 7.3197 1.0000
50.0939 -6.4540 7.3015 1.0000
50.0939 -6.1494 7.2960 1.0000
50.0939 -5.9973 7.2934 1.0000
50.0939 -5.8452 7.2908 1.0000
50.0939 -5.6933 7.2883 1.0000
50.0939 -5.5414 7.2859 1.0000
50.0939 -4.9352 7.2767 1.0000
50.0939 -4.3302 7.2687 1.0000
50.0939 -4.1792 7.2668 1.0000
50.0939 -3.8773 7.2633 1.0000
50.0939 -3.4251 7.2586 1.0000
50.0939 -3.2745 7.2571 1.0000
50.0939 -2.9734 7.2544 1.0000
50.0940 -2.5223 7.2508 1.0000
50.0940 -2.0715 7.2479 1.0000
50.0940 -1.4710 7.2448 1.0000
50.0940 -1.3210 7.2442 1.0000
50.0940 -1.1709 7.2437 1.0000
50.0940 -0.8709 7.2428 1.0000
50.0940 -0.7209 7.2424 1.0000
50.0940 -0.4210 7.2419 1.0000
50.0940 -0.2711 7.2418 1.0000
50.0940 -0.1211 7.2417 1.0000
50.0940 0.0289 7.2417 1.0000
50.0940 0.3287 7.2418 1.0000
50.0940 0.7786 7.2426 1.0000
50.0940 0.9286 7.2429 1.0000
50.0940 1.0786 7.2434 1.0000
50.0940 1.2286 7.2439 1.0000
50.0940 1.3787 7.2444 1.0000
50.0940 2.2796 7.2492 1.0000
50.0940 3.1819 7.2563 1.0000
50.0940 3.7846 7.2623 1.0000
50.0940 3.9354 7.2640 1.0000
50.0940 4.0863 7.2657 1.0000
50.0940 4.6907 7.2734 1.0000
50.0940 4.9934 7.2776 1.0000
50.0940 5.1448 7.2798 1.0000
50.0939 5.5999 7.2868 1.0000
50.0939 5.7518 7.2893 1.0000
50.0940 5.9037 7.2918 1.0000
50.0940 6.0558 7.2944 1.0000
50.0939 6.5127 7.3026 1.0000
50.0939 6.8179 7.3084 1.0000
50.0940 7.1236 7.3145 1.0000
50.0940 7.2766 7.3177 1.0000
50.0940 7.8901 7.3310 1.0000
50.0940 8.0439 7.3344 1.0000
50.0940 8.1978 7.3380 1.0000
50.0940 8.3518 7.3416 1.0000
50.0940 8.5060 7.3453 1.0000
50.0940 8.6603 7.3491 1.0000
50.0940 9.1243 7.3608 1.0000
50.0940 9.2793 7.3649 1.0000
50.0940 9.9011 7.3818 1.0000
50.0940 10.2130 7.3907 1.0000
50.0940 10.6825 7.4045 1.0000
50.0940 10.9964 7.4141 1.0000
50.0939 11.3111 7.4240 1.0000
50.0940 11.4688 7.4290 1.0000
50.0940 11.6268 7.4342 1.0000
50.0940 11.7849 7.4394 1.0000
50.0940 11.9432 7.4447 1.0000
50.0940 12.4196 7.4609 1.0000
50.0939 12.5789 7.4665 1.0000
50.0940 12.8982 7.4779 1.0000
50.0940 -13.1453 7.4869 1.0000
50.0940 -12.9852 7.4810 1.0000
50.0940 -12.8253 7.4753 1.0000
50.0940 -12.6656 7.4696 1.0000
50.0940 -12.3471 7.4584 1.0000
50.0940 -12.1881 7.4529 1.0000
50.0940 -12.0295 7.4476 1.0000
50.0940 -11.8709 7.4422 1.0000
50.0940 -11.5547 7.4318 1.0000
50.0940 -10.6109 7.4024 1.0000
50.0940 -10.4544 7.3977 1.0000
50.0940 -10.2980 7.3931 1.0000
50.0940 -10.1418 7.3886 1.0000
50.0940 -9.8300 7.3798 1.0000
50.0940 -9.2086 7.3630 1.0000
50.0940 -9.0536 7.3590 1.0000
50.0940 -8.8989 7.3551 1.0000
50.0940 -8.5899 7.3474 1.0000
50.0940 -8.4356 7.3436 1.0000
50.0940 -8.1275 7.3364 1.0000
50.0940 -7.8200 7.3294 1.0000
50.0940 -7.5131 7.3227 1.0000
50.0939 -7.2067 7.3162 1.0000
50.0939 -6.7482 7.3071 1.0000
50.0939 -6.4431 7.3013 1.0000
50.0939 -6.1385 7.2958 1.0000
50.0939 -5.9863 7.2932 1.0000
50.0939 -5.8343 7.2906 1.0000
50.0939 -5.6824 7.2881 1.0000
50.0939 -5.5306 7.2857 1.0000
50.0939 -5.2273 7.2810 1.0000
50.0939 -4.9243 7.2766 1.0000
50.0939 -4.6217 7.2724 1.0000
50.0939 -4.4705 7.2705 1.0000
50.0939 -4.3194 7.2686 1.0000
50.0939 -4.0174 7.2649 1.0000
50.0939 -3.8666 7.2632 1.0000
50.0939 -3.5650 7.2600 1.0000
50.0939 -3.1132 7.2556 1.0000
50.0939 -2.9627 7.2543 1.0000
50.0940 -2.6618 7.2519 1.0000
50.0940 -2.5115 7.2508 1.0000
50.0940 -2.3612 7.2497 1.0000
50.0940 -2.0607 7.2478 1.0000
50.0940 -1.7604 7.2461 1.0000
50.0940 -1.3102 7.2442 1.0000
50.0939 11.6154 6.5492 1.0000
50.0939 12.2492 6.5679 1.0000
50.0939 12.4082 6.5727 1.0000
50.0939 12.5675 6.5776 1.0000
50.0939 12.8868 6.5876 1.0000
50.0939 13.0468 6.5927 1.0000
50.0939 13.2070 6.5979 1.0000
50.0940 -13.3172 6.6015 1.0000
50.0940 -13.1568 6.5963 1.0000
50.0940 -12.9966 6.5911 1.0000
50.0940 -12.3584 6.5712 1.0000
50.0940 -12.0407 6.5616 1.0000
50.0940 -11.5660 6.5478 1.0000
50.0940 -11.4082 6.5433 1.0000
50.0940 -10.7789 6.5259 1.0000
50.0940 -10.6222 6.5218 1.0000
50.0940 -10.4656 6.5177 1.0000
50.0940 -10.1530 6.5096 1.0000
50.0940 -9.8412 6.5019 1.0000
50.0940 -9.6855 6.4981 1.0000
50.0940 -9.3748 6.4907 1.0000
50.0940 -9.0647 6.4835 1.0000
50.0940 -8.9100 6.4801 1.0000
50.0940 -8.6009 6.4733 1.0000
50.0940 -7.9847 6.4605 1.0000
50.0940 -7.8311 6.4574 1.0000
50.0940 -7.6775 6.4544 1.0000
50.0940 -7.5241 6.4515 1.0000
50.0939 -7.2177 6.4458 1.0000
50.0939 -7.0647 6.4431 1.0000
50.0939 -6.9119 6.4404 1.0000
50.0939 -6.7591 6.4377 1.0000
50.0939 -6.1494 6.4278 1.0000
50.0939 -5.9973 6.4255 1.0000
50.0939 -5.6933 6.4210 1.0000
50.0939 -5.5414 6.4188 1.0000
50.0939 -5.2381 6.4147 1.0000
50.0939 -5.0866 6.4127 1.0000
50.0939 -4.9351 6.4108 1.0000
50.0939 -4.3302 6.4037 1.0000
50.0939 -3.8773 6.3990 1.0000
50.0939 -3.7266 6.3975 1.0000
50.0939 -3.5758 6.3961 1.0000
50.0939 -3.4251 6.3948 1.0000
50.0939 -3.2745 6.3935 1.0000
50.0939 -3.1239 6.3923 1.0000
50.0939 -2.8230 6.3900 1.0000
50.0939 -2.6726 6.3890 1.0000
50.0939 -2.5223 6.3880 1.0000
50.0939 -2.3720 6.3871 1.0000
50.0939 -2.2217 6.3862 1.0000
50.0939 -2.0715 6.3854 1.0000
50.0939 -1.9213 6.3846 1.0000
50.0939 -1.7711 6.3839 1.0000
50.0939 -1.6211 6.3833 1.0000
50.0939 -1.0209 6.3812 1.0000
50.0939 -0.7209 6.3806 1.0000
50.0939 -0.5709 6.3803 1.0000
50.0939 0.0289 6.3799 1.0000
50.0939 0.3288 6.3800 1.0000
50.0939 0.4787 6.3802 1.0000
50.0939 0.6287 6.3804 1.0000
50.0939 0.9286 6.3810 1.0000
50.0939 1.9792 6.3849 1.0000
50.0939 2.4299 6.3874 1.0000
50.0939 2.8810 6.3905 1.0000
50.0939 3.1819 6.3928 1.0000
50.0939 3.3325 6.3940 1.0000
50.0939 4.2373 6.4027 1.0000
50.0939 4.3884 6.4043 1.0000
50.0939 4.5395 6.4061 1.0000
50.0939 4.6907 6.4078 1.0000
50.0939 5.2964 6.4155 1.0000
50.0939 5.4481 6.4175 1.0000
50.0939 5.5999 6.4197 1.0000
50.0939 6.0558 6.4264 1.0000
50.0939 6.5127 6.4336 1.0000
50.0939 6.8179 6.4387 1.0000
50.0939 6.9707 6.4414 1.0000
50.0939 7.1236 6.4441 1.0000
50.0939 7.4298 6.4497 1.0000
50.0939 7.5832 6.4526 1.0000
50.0939 7.8902 6.4586 1.0000
50.0939 8.0439 6.4616 1.0000
50.0939 8.1978 6.4648 1.0000
50.0939 8.3518 6.4680 1.0000
50.0939 8.8149 6.4779 1.0000
50.0939 8.9695 6.4814 1.0000
50.0939 10.0570 6.5072 1.0000
50.0939 10.2131 6.5112 1.0000
50.0939 10.3693 6.5152 1.0000
50.0939 11.3112 6.5405 1.0000
50.0939 11.7849 6.5541 1.0000
50.0939 11.9432 6.5587 1.0000
50.0939 12.2607 6.5682 1.0000
50.0939 12.7385 6.5830 1.0000
50.0940 -13.1453 6.5959 1.0000
50.0940 -12.8253 6.5857 1.0000
50.0940 -12.1881 6.5660 1.0000
50.0940 -11.7127 6.5520 1.0000
50.0940 -11.5546 6.5474 1.0000
50.0940 -11.3968 6.5429 1.0000
50.0940 -11.2393 6.5385 1.0000
50.0940 -11.0818 6.5342 1.0000
50.0940 -10.9246 6.5299 1.0000
50.0940 -10.7677 6.5256 1.0000
50.0940 -10.4544 6.5174 1.0000
50.0940 -10.1418 6.5094 1.0000
50.0940 -9.8300 6.5016 1.0000
50.0940 -9.6744 6.4978 1.0000
50.0940 -9.5189 6.4941 1.0000
50.0940 -9.3637 6.4904 1.0000
50.0940 -9.2086 6.4868 1.0000
50.0940 -9.0536 6.4833 1.0000
50.0940 -8.8989 6.4798 1.0000
50.0940 -8.4356 6.4697 1.0000
50.0940 -8.2814 6.4665 1.0000
50.0940 -8.1275 6.4633 1.0000
50.0940 -7.9737 6.4602 1.0000
50.0940 -7.5131 6.4513 1.0000
50.0939 -7.2068 6.4456 1.0000
50.0939 -6.4431 6.4325 1.0000
50.0939 -6.2907 6.4300 1.0000
50.0939 -5.8343 6.4230 1.0000
50.0939 -5.6824 6.4208 1.0000
50.0939 -5.0757 6.4126 1.0000
50.0939 -4.9243 6.4107 1.0000
50.0939 -4.6217 6.4070 1.0000
50.0939 -4.1684 6.4020 1.0000
50.0939 -2.8122 6.3900 1.0000
50.0939 -2.5115 6.3879 1.0000
50.0939 -2.3612 6.3870 1.0000
50.0939 -2.2109 6.3861 1.0000
50.0939 -2.0607 6.3853 1.0000
50.0939 -1.6103 6.3832 1.0000
50.0939 -1.3102 6.3821 1.0000
50.0939 11.7736 5.6723 1.0000
50.0939 12.2492 5.6845 1.0000
50.0939 12.5675 5.6930 1.0000
50.0939 12.7270 5.6973 1.0000
50.0939 12.8867 5.7016 1.0000
50.0939 13.3675 5.7151 1.0000
50.0940 -13.3172 5.7136 1.0000
50.0940 -12.8367 5.7003 1.0000
50.0940 -12.6771 5.6959 1.0000
50.0940 -12.3584 5.6874 1.0000
50.0940 -12.1995 5.6832 1.0000
50.0940 -12.0407 5.6791 1.0000
50.0940 -11.4082 5.6632 1.0000
50.0940 -11.0931 5.6556 1.0000
50.0939 -10.9359 5.6519 1.0000
50.0939 -10.7789 5.6482 1.0000
50.0939 -10.6221 5.6446 1.0000
50.0940 -10.4656 5.6411 1.0000
50.0940 -10.3092 5.6376 1.0000
50.0940 -10.1530 5.6341 1.0000
50.0940 -9.9970 5.6307 1.0000
50.0939 -9.8411 5.6274 1.0000
50.0940 -9.5300 5.6209 1.0000
50.0940 -9.3748 5.6177 1.0000
50.0940 -9.0647 5.6115 1.0000
50.0940 -8.9100 5.6085 1.0000
50.0940 -8.7554 5.6056 1.0000
50.0939 -8.6009 5.6027 1.0000
50.0939 -8.2925 5.5970 1.0000
50.0940 -7.9847 5.5916 1.0000
50.0939 -7.6775 5.5863 1.0000
50.0940 -7.5241 5.5838 1.0000
50.0939 -7.3708 5.5813 1.0000
50.0939 -7.2177 5.5789 1.0000
50.0939 -6.9118 5.5742 1.0000
50.0939 -6.4540 5.5675 1.0000
50.0939 -6.3016 5.5654 1.0000
50.0939 -6.1494 5.5633 1.0000
50.0939 -5.9972 5.5613 1.0000
50.0939 -5.5414 5.5555 1.0000
50.0939 -5.3897 5.5537 1.0000
50.0939 -5.2381 5.5520 1.0000
50.0939 -4.3302 5.5424 1.0000
50.0939 -4.1792 5.5410 1.0000
50.0939 -3.8773 5.5384 1.0000
50.0939 -3.5758 5.5359 1.0000
50.0939 -3.2745 5.5336 1.0000
50.0939 -2.9735 5.5316 1.0000
50.0939 -2.6726 5.5297 1.0000
50.0939 -2.2217 5.5273 1.0000
50.0939 -2.0715 5.5266 1.0000
50.0939 -1.7712 5.5253 1.0000
50.0939 -1.6211 5.5247 1.0000
50.0939 -1.4710 5.5242 1.0000
50.0939 -0.8709 5.5227 1.0000
50.0939 -0.5709 5.5222 1.0000
50.0939 -0.2711 5.5219 1.0000
50.0939 -0.1211 5.5219 1.0000
50.0939 0.0289 5.5219 1.0000
50.0939 0.1787 5.5219 1.0000
50.0939 0.3287 5.5220 1.0000
50.0939 0.4787 5.5221 1.0000
50.0939 0.7786 5.5225 1.0000
50.0939 0.9286 5.5228 1.0000
50.0939 1.0786 5.5231 1.0000
50.0939 1.3787 5.5239 1.0000
50.0939 1.6788 5.5249 1.0000
50.0939 1.9791 5.5262 1.0000
50.0939 2.2796 5.5276 1.0000
50.0939 2.5802 5.5292 1.0000
50.0939 2.7305 5.5300 1.0000
50.0939 2.8809 5.5310 1.0000
50.0939 3.4831 5.5352 1.0000
50.0939 3.6338 5.5364 1.0000
50.0939 3.7846 5.5376 1.0000
50.0939 3.9354 5.5389 1.0000
50.0939 4.2373 5.5416 1.0000
50.0939 4.3884 5.5430 1.0000
50.0939 4.5395 5.5445 1.0000
50.0939 4.6907 5.5460 1.0000
50.0939 4.8420 5.5476 1.0000
50.0939 4.9934 5.5492 1.0000
50.0939 5.4481 5.5544 1.0000
50.0939 5.5999 5.5562 1.0000
50.0939 5.7517 5.5581 1.0000
50.0939 6.0558 5.5621 1.0000
50.0939 6.2080 5.5641 1.0000
50.0939 6.3603 5.5662 1.0000
50.0939 6.5127 5.5683 1.0000
50.0939 6.8179 5.5728 1.0000
50.0939 7.2766 5.5798 1.0000
50.0939 7.4298 5.5823 1.0000
50.0939 7.5831 5.5848 1.0000
50.0939 7.8902 5.5899 1.0000
50.0939 8.0439 5.5926 1.0000
50.0939 8.1978 5.5953 1.0000
50.0939 8.3518 5.5981 1.0000
50.0939 8.8148 5.6067 1.0000
50.0939 9.1243 5.6127 1.0000
50.0939 9.7454 5.6254 1.0000
50.0939 9.9011 5.6287 1.0000
50.0939 10.0570 5.6320 1.0000
50.0939 10.2131 5.6354 1.0000
50.0939 10.6825 5.6460 1.0000
50.0939 10.8393 5.6496 1.0000
50.0939 10.9964 5.6533 1.0000
50.0939 11.7849 5.6726 1.0000
50.0939 12.2606 5.6848 1.0000
50.0939 13.2185 5.7109 1.0000
50.0939 -12.8253 5.7000 1.0000
50.0940 -12.3470 5.6871 1.0000
50.0940 -12.0294 5.6788 1.0000
50.0940 -11.8709 5.6748 1.0000
50.0940 -11.2392 5.6591 1.0000
50.0940 -11.0818 5.6554 1.0000
50.0940 -10.9247 5.6516 1.0000
50.0940 -10.6109 5.6444 1.0000
50.0940 -10.2980 5.6373 1.0000
50.0940 -10.1418 5.6339 1.0000
50.0939 -9.3636 5.6175 1.0000
50.0940 -9.2086 5.6144 1.0000
50.0939 -9.0536 5.6113 1.0000
50.0939 -8.5898 5.6025 1.0000
50.0940 -8.4356 5.5996 1.0000
50.0939 -8.2814 5.5968 1.0000
50.0940 -7.8200 5.5887 1.0000
50.0939 -7.2068 5.5787 1.0000
50.0939 -6.9009 5.5740 1.0000
50.0939 -6.7482 5.5717 1.0000
50.0939 -5.9863 5.5611 1.0000
50.0939 -5.6824 5.5573 1.0000
50.0939 -5.5306 5.5554 1.0000
50.0939 -5.2272 5.5518 1.0000
50.0939 -5.0757 5.5501 1.0000
50.0939 -4.9242 5.5485 1.0000
50.0939 -4.7729 5.5469 1.0000
50.0939 -4.6217 5.5453 1.0000
50.0939 -4.3194 5.5423 1.0000
50.0939 -4.1684 5.5409 1.0000
50.0939 -4.0174 5.5396 1.0000
50.0939 -3.7157 5.5370 1.0000
50.0939 -3.4143 5.5347 1.0000
50.0939 -2.8122 5.5305 1.0000
50.0939 -2.6618 5.5296 1.0000
50.0939 -2.2110 5.5272 1.0000
50.0939 -1.9105 5.5259 1.0000
50.0939 -1.7604 5.5253 1.0000
50.0939 -1.4602 5.5242 1.0000
50.0939 11.6154 4.7908 1.0000
50.0939 12.2492 4.8045 1.0000
50.0939 12.5675 4.8116 1.0000
50.0939 12.7270 4.8152 1.0000
50.0939 13.3675 4.8303 1.0000
50.0939 -13.3172 4.8291 1.0000
50.0939 -12.8367 4.8178 1.0000
50.0939 -12.5176 4.8105 1.0000
50.0939 -12.1995 4.8034 1.0000
50.0939 -11.4081 4.7865 1.0000
50.0939 -11.2505 4.7832 1.0000
50.0939 -10.9359 4.7769 1.0000
50.0939 -10.6221 4.7707 1.0000
50.0939 -10.4655 4.7677 1.0000
50.0939 -10.3091 4.7648 1.0000
50.0939 -9.9970 4.7590 1.0000
50.0939 -9.8411 4.7562 1.0000
50.0939 -9.5301 4.7507 1.0000
50.0939 -9.2197 4.7454 1.0000
50.0939 -8.6009 4.7353 1.0000
50.0939 -8.2925 4.7305 1.0000
50.0939 -8.1385 4.7282 1.0000
50.0939 -7.8310 4.7237 1.0000
50.0939 -7.5241 4.7193 1.0000
50.0938 -7.3708 4.7172 1.0000
50.0938 -7.2177 4.7152 1.0000
50.0938 -6.6065 4.7074 1.0000
50.0938 -6.4540 4.7056 1.0000
50.0938 -5.8452 4.6986 1.0000
50.0938 -5.2380 4.6924 1.0000
50.0938 -5.0866 4.6910 1.0000
50.0938 -4.9351 4.6896 1.0000
50.0938 -4.6325 4.6869 1.0000
50.0938 -4.4813 4.6856 1.0000
50.0938 -4.3302 4.6844 1.0000
50.0938 -4.0282 4.6820 1.0000
50.0938 -3.2745 4.6769 1.0000
50.0938 -2.9734 4.6752 1.0000
50.0938 -2.8230 4.6744 1.0000
50.0938 -2.3720 4.6722 1.0000
50.0939 -1.9214 4.6704 1.0000
50.0939 -1.4710 4.6690 1.0000
50.0939 -1.1709 4.6683 1.0000
50.0939 -1.0209 4.6679 1.0000
50.0939 -0.5709 4.6673 1.0000
50.0939 -0.1211 4.6670 1.0000
50.0939 0.0289 4.6670 1.0000
50.0939 0.4787 4.6672 1.0000
50.0939 0.6286 4.6673 1.0000
50.0939 0.7786 4.6675 1.0000
50.0939 1.0786 4.6681 1.0000
50.0939 1.2286 4.6684 1.0000
50.0939 1.3787 4.6687 1.0000
50.0939 1.6789 4.6696 1.0000
50.0939 2.1293 4.6712 1.0000
50.0939 2.2795 4.6718 1.0000
50.0939 2.5801 4.6732 1.0000
50.0939 3.4831 4.6782 1.0000
50.0939 3.7846 4.6803 1.0000
50.0939 4.2373 4.6836 1.0000
50.0939 4.3883 4.6849 1.0000
50.0939 4.5395 4.6861 1.0000
50.0939 4.6907 4.6874 1.0000
50.0939 4.8420 4.6887 1.0000
50.0939 4.9934 4.6901 1.0000
50.0939 5.7518 4.6976 1.0000
50.0939 5.9037 4.6993 1.0000
50.0939 6.2080 4.7027 1.0000
50.0939 6.3603 4.7045 1.0000
50.0939 6.5127 4.7063 1.0000
50.0939 6.6652 4.7081 1.0000
50.0939 6.8179 4.7100 1.0000
50.0939 7.1236 4.7139 1.0000
50.0939 7.4298 4.7180 1.0000
50.0939 7.5831 4.7202 1.0000
50.0939 7.7365 4.7223 1.0000
50.0939 8.0439 4.7268 1.0000
50.0939 8.1978 4.7291 1.0000
50.0939 8.6604 4.7362 1.0000
50.0939 8.9695 4.7412 1.0000
50.0939 9.1243 4.7438 1.0000
50.0939 9.4345 4.7490 1.0000
50.0939 9.7454 4.7545 1.0000
50.0939 10.0570 4.7601 1.0000
50.0939 10.3693 4.7659 1.0000
50.0939 10.5258 4.7689 1.0000
50.0939 10.6825 4.7719 1.0000
50.0939 10.8393 4.7750 1.0000
50.0939 11.4688 4.7877 1.0000
50.0939 11.6268 4.7910 1.0000
50.0939 11.7849 4.7944 1.0000
50.0939 12.2606 4.8047 1.0000
50.0939 12.4196 4.8083 1.0000
50.0939 12.5789 4.8119 1.0000
50.0939 12.8982 4.8192 1.0000
50.0939 13.0582 4.8229 1.0000
50.0939 13.2185 4.8267 1.0000
50.0939 -13.3057 4.8288 1.0000
50.0939 -12.9852 4.8212 1.0000
50.0939 -12.6656 4.8138 1.0000
50.0939 -12.3470 4.8066 1.0000
50.0939 -12.0294 4.7997 1.0000
50.0939 -11.8709 4.7962 1.0000
50.0939 -11.7127 4.7929 1.0000
50.0939 -11.0818 4.7798 1.0000
50.0939 -10.9247 4.7767 1.0000
50.0939 -10.6109 4.7705 1.0000
50.0939 -9.9858 4.7588 1.0000
50.0939 -9.8300 4.7560 1.0000
50.0939 -9.6744 4.7532 1.0000
50.0939 -9.0536 4.7426 1.0000
50.0939 -8.8989 4.7401 1.0000
50.0939 -8.7443 4.7376 1.0000
50.0939 -8.5898 4.7351 1.0000
50.0939 -8.4355 4.7327 1.0000
50.0939 -8.1275 4.7280 1.0000
50.0939 -7.8200 4.7235 1.0000
50.0939 -7.6665 4.7213 1.0000
50.0939 -7.5130 4.7192 1.0000
50.0938 -7.3598 4.7171 1.0000
50.0938 -7.2067 4.7150 1.0000
50.0938 -6.5955 4.7073 1.0000
50.0938 -5.9863 4.7002 1.0000
50.0938 -5.6824 4.6969 1.0000
50.0938 -5.5305 4.6953 1.0000
50.0938 -5.0757 4.6909 1.0000
50.0938 -4.9243 4.6895 1.0000
50.0938 -4.7729 4.6881 1.0000
50.0938 -4.1684 4.6831 1.0000
50.0938 -3.8665 4.6809 1.0000
50.0938 -3.4143 4.6778 1.0000
50.0938 -3.2637 4.6769 1.0000
50.0938 -3.1132 4.6760 1.0000
50.0938 -2.9627 4.6751 1.0000
50.0938 -2.8122 4.6743 1.0000
50.0938 -2.6619 4.6736 1.0000
50.0938 -2.5115 4.6728 1.0000
50.0938 -2.3612 4.6722 1.0000
50.0939 -2.0607 4.6709 1.0000
50.0939 -1.9105 4.6704 1.0000
50.0939 -1.7604 4.6699 1.0000
50.0939 -1.3102 4.6686 1.0000
50.0939 11.7736 3.9187 1.0000
50.0939 12.0904 3.9243 1.0000
50.0939 12.4083 3.9301 1.0000
50.0939 12.7270 3.9360 1.0000
50.0939 13.2070 3.9452 1.0000
50.0939 -13.1568 3.9442 1.0000
50.0939 -12.9966 3.9411 1.0000
50.0939 -12.8367 3.9381 1.0000
50.0939 -12.6770 3.9351 1.0000
50.0939 -12.3584 3.9292 1.0000
50.0939 -11.8823 3.9207 1.0000
50.0939 -11.4081 3.9125 1.0000
50.0939 -11.0931 3.9072 1.0000
50.0939 -10.9359 3.9046 1.0000
50.0939 -10.4656 3.8972 1.0000
50.0939 -9.3747 3.8810 1.0000
50.0939 -9.0647 3.8768 1.0000
50.0939 -8.7554 3.8726 1.0000
50.0939 -8.6009 3.8706 1.0000
50.0939 -8.4466 3.8686 1.0000
50.0939 -8.1385 3.8648 1.0000
50.0939 -7.9847 3.8630 1.0000
50.0939 -7.6775 3.8593 1.0000
50.0938 -7.3708 3.8559 1.0000
50.0938 -7.2177 3.8542 1.0000
50.0938 -6.7591 3.8494 1.0000
50.0938 -6.4540 3.8463 1.0000
50.0938 -6.1494 3.8434 1.0000
50.0938 -5.6933 3.8394 1.0000
50.0938 -5.3897 3.8368 1.0000
50.0938 -5.2381 3.8356 1.0000
50.0938 -5.0865 3.8344 1.0000
50.0938 -4.6325 3.8311 1.0000
50.0938 -4.4813 3.8300 1.0000
50.0938 -4.3302 3.8290 1.0000
50.0938 -4.1792 3.8280 1.0000
50.0938 -4.0282 3.8271 1.0000
50.0938 -3.7265 3.8253 1.0000
50.0938 -3.5758 3.8245 1.0000
50.0938 -3.2745 3.8229 1.0000
50.0938 -2.8230 3.8209 1.0000
50.0939 -2.6726 3.8202 1.0000
50.0938 -2.5223 3.8196 1.0000
50.0938 -2.3720 3.8191 1.0000
50.0939 -2.2217 3.8185 1.0000
50.0939 -2.0714 3.8181 1.0000
50.0939 -1.9213 3.8176 1.0000
50.0939 -1.7711 3.8172 1.0000
50.0939 -1.6210 3.8168 1.0000
50.0939 -1.4709 3.8164 1.0000
50.0939 -1.3209 3.8161 1.0000
50.0939 -1.0209 3.8156 1.0000
50.0939 -0.7208 3.8152 1.0000
50.0939 -0.2710 3.8149 1.0000
50.0939 -0.1211 3.8148 1.0000
50.0939 0.6287 3.8151 1.0000
50.0939 0.9286 3.8155 1.0000
50.0939 1.0786 3.8157 1.0000
50.0939 1.2287 3.8159 1.0000
50.0939 1.6789 3.8169 1.0000
50.0939 1.9792 3.8178 1.0000
50.0939 2.1293 3.8182 1.0000
50.0939 2.8810 3.8211 1.0000
50.0939 3.0314 3.8218 1.0000
50.0939 3.1820 3.8225 1.0000
50.0939 3.3325 3.8232 1.0000
50.0939 3.7846 3.8257 1.0000
50.0939 4.0863 3.8275 1.0000
50.0939 4.3884 3.8294 1.0000
50.0939 4.5395 3.8304 1.0000
50.0939 4.9934 3.8337 1.0000
50.0939 5.2964 3.8361 1.0000
50.0939 5.4481 3.8373 1.0000
50.0939 5.7518 3.8399 1.0000
50.0939 5.9037 3.8412 1.0000
50.0939 6.0558 3.8426 1.0000
50.0939 6.5127 3.8469 1.0000
50.0939 6.9707 3.8516 1.0000
50.0939 7.1236 3.8532 1.0000
50.0939 7.4298 3.8565 1.0000
50.0939 7.5831 3.8583 1.0000
50.0939 7.7366 3.8600 1.0000
50.0939 7.8902 3.8618 1.0000
50.0939 8.1978 3.8655 1.0000
50.0939 8.3518 3.8674 1.0000
50.0939 8.6604 3.8714 1.0000
50.0939 8.8148 3.8734 1.0000
50.0939 8.9695 3.8755 1.0000
50.0939 9.1243 3.8776 1.0000
50.0939 9.2793 3.8797 1.0000
50.0939 9.5899 3.8841 1.0000
50.0939 9.7454 3.8863 1.0000
50.0939 10.0570 3.8909 1.0000
50.0939 10.6825 3.9006 1.0000
50.0939 10.8393 3.9031 1.0000
50.0939 11.1536 3.9082 1.0000
50.0939 11.6268 3.9162 1.0000
50.0939 11.7849 3.9189 1.0000
50.0939 12.5789 3.9332 1.0000
50.0939 13.0582 3.9423 1.0000
50.0939 13.2185 3.9454 1.0000
50.0939 -13.1453 3.9440 1.0000
50.0939 -12.9851 3.9409 1.0000
50.0939 -12.8252 3.9378 1.0000
50.0939 -12.6656 3.9348 1.0000
50.0939 -12.3470 3.9290 1.0000
50.0939 -11.5546 3.9150 1.0000
50.0939 -11.0818 3.9070 1.0000
50.0939 -10.9246 3.9045 1.0000
50.0939 -10.6109 3.8994 1.0000
50.0939 -10.2979 3.8946 1.0000
50.0939 -9.6744 3.8853 1.0000
50.0939 -9.5189 3.8831 1.0000
50.0939 -9.2086 3.8787 1.0000
50.0939 -8.7443 3.8725 1.0000
50.0939 -8.5898 3.8705 1.0000
50.0939 -8.4355 3.8685 1.0000
50.0939 -8.2814 3.8666 1.0000
50.0939 -8.1275 3.8647 1.0000
50.0939 -7.8200 3.8610 1.0000
50.0939 -7.6664 3.8592 1.0000
50.0939 -7.5131 3.8575 1.0000
50.0938 -6.7482 3.8493 1.0000
50.0938 -6.5956 3.8477 1.0000
50.0938 -6.4431 3.8462 1.0000
50.0938 -6.1385 3.8433 1.0000
50.0938 -5.9863 3.8419 1.0000
50.0938 -5.8343 3.8406 1.0000
50.0938 -5.5305 3.8380 1.0000
50.0938 -5.2272 3.8355 1.0000
50.0938 -5.0757 3.8343 1.0000
50.0938 -4.7729 3.8321 1.0000
50.0938 -4.6216 3.8310 1.0000
50.0938 -3.7157 3.8253 1.0000
50.0938 -3.5650 3.8244 1.0000
50.0938 -3.1132 3.8222 1.0000
50.0938 -2.9627 3.8215 1.0000
50.0938 -2.8122 3.8208 1.0000
50.0938 -2.6618 3.8202 1.0000
50.0938 -2.5115 3.8196 1.0000
50.0939 -2.0607 3.8180 1.0000
50.0939 -1.9105 3.8176 1.0000
50.0939 -1.7604 3.8172 1.0000
50.0939 -1.4602 3.8164 1.0000
50.0939 -1.3101 3.8161 1.0000
50.0939 11.6154 3.0435 1.0000
50.0939 11.9319 3.0477 1.0000
50.0939 12.0904 3.0499 1.0000
50.0939 12.2492 3.0521 1.0000
50.0939 12.5675 3.0567 1.0000
50.0939 12.8867 3.0613 1.0000
50.0939 13.0467 3.0637 1.0000
50.0939 13.2070 3.0661 1.0000
50.0939 13.3675 3.0685 1.0000
50.0939 -13.3171 3.0678 1.0000
50.0939 -13.1568 3.0654 1.0000
50.0939 -12.9966 3.0630 1.0000
50.0939 -12.5176 3.0560 1.0000
50.0939 -12.1994 3.0515 1.0000
50.0939 -11.8823 3.0471 1.0000
50.0939 -11.4081 3.0407 1.0000
50.0939 -10.7789 3.0327 1.0000
50.0939 -10.6221 3.0307 1.0000
50.0939 -10.4656 3.0288 1.0000
50.0939 -9.6855 3.0197 1.0000
50.0939 -9.2196 3.0146 1.0000
50.0939 -9.0647 3.0129 1.0000
50.0939 -8.9100 3.0113 1.0000
50.0939 -8.7554 3.0097 1.0000
50.0939 -8.6009 3.0082 1.0000
50.0939 -8.2925 3.0051 1.0000
50.0939 -8.1385 3.0037 1.0000
50.0939 -7.9846 3.0022 1.0000
50.0938 -7.0647 2.9941 1.0000
50.0938 -6.9118 2.9929 1.0000
50.0938 -6.7591 2.9917 1.0000
50.0938 -6.6065 2.9905 1.0000
50.0938 -6.3016 2.9882 1.0000
50.0938 -6.1493 2.9871 1.0000
50.0938 -5.6932 2.9839 1.0000
50.0938 -5.5414 2.9829 1.0000
50.0938 -5.2381 2.9810 1.0000
50.0938 -5.0865 2.9800 1.0000
50.0938 -4.9351 2.9792 1.0000
25.0527 -2.3924 1.4895 1.0000
25.0513 -2.0900 1.4878 1.0000
25.0507 -1.9390 1.4871 1.0000
25.0509 -1.7129 1.4861 1.0000
25.0545 -1.4119 1.4852 1.0000
25.0529 -1.1863 1.4844 1.0000
25.0514 -0.8858 1.4836 1.0000
25.0527 -0.8107 1.4835 1.0000
25.0540 -0.7357 1.4835 1.0000
25.0553 -0.6607 1.4834 1.0000
25.0566 -0.5857 1.4834 1.0000
25.0579 -0.5107 1.4834 1.0000
25.0605 -0.2106 1.4833 1.0000
25.0616 0.0144 1.4833 1.0000
25.0620 0.0895 1.4833 1.0000
25.0624 0.1645 1.4833 1.0000
25.0636 0.3896 1.4836 1.0000
25.0647 0.6147 1.4839 1.0000
50.0939 1.8290 2.9668 1.0000
50.0939 2.1293 2.9675 1.0000
50.0939 2.4298 2.9683 1.0000
50.0939 3.0314 2.9702 1.0000
50.0939 3.1819 2.9708 1.0000
50.0939 3.3325 2.9714 1.0000
50.0939 3.4831 2.9720 1.0000
50.0939 3.6338 2.9726 1.0000
50.0939 3.9354 2.9739 1.0000
50.0939 4.0863 2.9746 1.0000
50.0939 4.2373 2.9754 1.0000
50.0939 4.5395 2.9770 1.0000
50.0939 4.8420 2.9786 1.0000
50.0939 4.9934 2.9795 1.0000
50.0939 5.1448 2.9804 1.0000
50.0939 5.4481 2.9823 1.0000
50.0939 6.3603 2.9886 1.0000
50.0939 6.5127 2.9898 1.0000
50.0939 6.8179 2.9921 1.0000
50.0939 6.9707 2.9934 1.0000
50.0939 7.1236 2.9946 1.0000
50.0939 7.2766 2.9959 1.0000
50.0939 7.5831 2.9986 1.0000
50.0939 7.8902 3.0014 1.0000
50.0939 8.1978 3.0042 1.0000
50.0939 8.3518 3.0057 1.0000
50.0939 8.6603 3.0088 1.0000
50.0939 9.1243 3.0136 1.0000
50.0939 9.9011 3.0222 1.0000
50.0939 10.0570 3.0240 1.0000
50.0939 10.2130 3.0258 1.0000
50.0939 10.3694 3.0277 1.0000
50.0939 10.5258 3.0295 1.0000
50.0939 10.8393 3.0334 1.0000
50.0939 10.9964 3.0354 1.0000
50.0939 11.1537 3.0374 1.0000
50.0939 11.3111 3.0394 1.0000
50.0939 11.6267 3.0436 1.0000
50.0939 12.1018 3.0501 1.0000
50.0939 12.2606 3.0523 1.0000
50.0939 12.4196 3.0546 1.0000
50.0939 13.0582 3.0639 1.0000
50.0939 13.3790 3.0687 1.0000
50.0939 -13.3057 3.0676 1.0000
50.0939 -12.8252 3.0604 1.0000
50.0939 -12.6656 3.0581 1.0000
50.0939 -12.1880 3.0513 1.0000
50.0939 -12.0294 3.0491 1.0000
50.0939 -11.7127 3.0448 1.0000
50.0939 -11.3968 3.0406 1.0000
50.0939 -11.2392 3.0385 1.0000
50.0939 -10.9246 3.0345 1.0000
50.0939 -10.7677 3.0325 1.0000
50.0939 -10.4543 3.0287 1.0000
50.0939 -10.2979 3.0268 1.0000
50.0939 -10.1418 3.0250 1.0000
50.0939 -9.6743 3.0196 1.0000
50.0939 -9.5189 3.0179 1.0000
50.0939 -9.2086 3.0145 1.0000
50.0939 -8.8989 3.0112 1.0000
50.0939 -8.7443 3.0096 1.0000
50.0939 -8.4355 3.0066 1.0000
50.0939 -8.2814 3.0050 1.0000
50.0939 -7.8200 3.0007 1.0000
50.0939 -7.5131 2.9980 1.0000
50.0938 -7.3598 2.9966 1.0000
50.0938 -7.2067 2.9953 1.0000
50.0938 -7.0538 2.9940 1.0000
50.0938 -6.7482 2.9916 1.0000
50.0938 -6.4431 2.9892 1.0000
50.0938 -6.2907 2.9881 1.0000
50.0938 -5.9863 2.9859 1.0000
50.0938 -5.8343 2.9848 1.0000
50.0938 -5.2272 2.9809 1.0000
25.0523 -2.3113 1.4890 1.0000
25.0520 -2.2357 1.4886 1.0000
25.0500 -1.7827 1.4863 1.0000
25.0523 -1.6322 1.4859 1.0000
25.0536 -1.5570 1.4857 1.0000
25.0546 -1.4818 1.4854 1.0000
25.0545 -1.4066 1.4852 1.0000
25.0509 -0.9554 1.4837 1.0000
25.0541 -0.7304 1.4834 1.0000
50.0938 11.6154 2.1727 1.0000
50.0938 11.7735 2.1742 1.0000
50.0938 11.9318 2.1757 1.0000
50.0938 12.0904 2.1773 1.0000
50.0938 12.8867 2.1854 1.0000
50.0938 13.2070 2.1888 1.0000
50.0938 13.3675 2.1906 1.0000
50.0939 -12.8367 2.1849 1.0000
50.0939 -12.6770 2.1832 1.0000
50.0939 -12.5176 2.1816 1.0000
50.0939 -12.1995 2.1784 1.0000
50.0939 -12.0407 2.1768 1.0000
50.0939 -11.8823 2.1752 1.0000
50.0939 -11.4081 2.1707 1.0000
50.0939 -11.2505 2.1692 1.0000
50.0938 -10.4655 2.1622 1.0000
50.0939 -9.9970 2.1582 1.0000
50.0939 -9.6855 2.1557 1.0000
50.0939 -9.2196 2.1521 1.0000
50.0939 -9.0647 2.1509 1.0000
50.0939 -8.7553 2.1486 1.0000
50.0939 -8.4466 2.1464 1.0000
50.0939 -8.2925 2.1453 1.0000
50.0938 -7.3708 2.1393 1.0000
50.0938 -7.2177 2.1384 1.0000
50.0938 -7.0647 2.1374 1.0000
50.0938 -6.9118 2.1366 1.0000
50.0938 -6.7591 2.1357 1.0000
50.0938 -6.4540 2.1340 1.0000
50.0938 -6.3016 2.1332 1.0000
50.0938 -6.1494 2.1324 1.0000
50.0938 -5.8452 2.1309 1.0000
50.0938 -5.6933 2.1301 1.0000
50.0938 -5.5414 2.1294 1.0000
25.0071 -2.3880 1.0614 1.0000
25.0067 -2.3125 1.0611 1.0000
25.0081 -2.2371 1.0608 1.0000
25.0094 -2.1618 1.0606 1.0000
25.0145 -1.8609 1.0598 1.0000
25.0209 -1.4852 1.0590 1.0000
25.0218 -1.4101 1.0589 1.0000
25.0236 -1.1849 1.0584 1.0000
25.0238 -1.1098 1.0583 1.0000
25.0248 -1.0348 1.0582 1.0000
25.0295 -0.7350 1.0580 1.0000
25.0334 -0.5102 1.0579 1.0000
25.0347 -0.4352 1.0579 1.0000
25.0361 -0.3603 1.0579 1.0000
25.0373 -0.2853 1.0579 1.0000
25.0387 -0.2104 1.0579 1.0000
25.0400 -0.1355 1.0580 1.0000
25.0413 -0.0605 1.0580 1.0000
25.0427 0.0144 1.0581 1.0000
25.0479 0.3143 1.0584 1.0000
25.0524 0.7645 1.0590 1.0000
25.2366 0.9214 1.0670 1.0000
25.2345 0.9970 1.0670 1.0000
25.2336 1.2240 1.0674 1.0000
25.2325 1.2996 1.0675 1.0000
25.2314 1.3753 1.0676 1.0000
25.2313 1.4511 1.0678 1.0000
25.2333 1.5270 1.0681 1.0000
25.2357 1.6029 1.0684 1.0000
25.2536 2.0600 1.0705 1.0000
25.2621 2.1369 1.0712 1.0000
25.2785 2.2907 1.0724 1.0000
25.2827 2.3674 1.0729 1.0000
50.0938 5.4481 2.1290 1.0000
50.0938 5.5999 2.1297 1.0000
50.0938 5.7518 2.1304 1.0000
50.0938 5.9037 2.1312 1.0000
50.0938 6.0558 2.1319 1.0000
50.0938 6.2080 2.1327 1.0000
50.0938 6.3603 2.1335 1.0000
50.0938 6.5127 2.1343 1.0000
50.0938 7.8902 2.1426 1.0000
50.0938 8.1978 2.1447 1.0000
50.0938 8.3518 2.1457 1.0000
50.0938 8.5060 2.1468 1.0000
50.0938 9.1243 2.1513 1.0000
50.0938 9.2793 2.1525 1.0000
50.0938 9.5898 2.1549 1.0000
50.0938 9.7454 2.1562 1.0000
50.0938 9.9011 2.1574 1.0000
50.0938 10.0570 2.1587 1.0000
50.0938 10.3693 2.1614 1.0000
50.0938 10.5258 2.1627 1.0000
50.0938 10.6825 2.1641 1.0000
50.0938 10.8393 2.1655 1.0000
50.0938 11.3111 2.1698 1.0000
50.0938 11.6268 2.1728 1.0000
50.0938 12.2606 2.1790 1.0000
