ply
format ascii 1.0
element vertex 1589
property float32 x
property float32 y
property float32 z
property float32 I
end_header
50.0941 -12.2987 2.1794 1.0000
50.0941 -12.1398 2.1778 1.0000
50.0941 -11.9811 2.1762 1.0000
50.0941 -11.8226 2.1747 1.0000
50.0941 -11.6643 2.1731 1.0000
50.0941 -11.5063 2.1716 1.0000
50.0941 -11.1909 2.1687 1.0000
50.0941 -11.0335 2.1672 1.0000
50.0941 -10.8763 2.1658 1.0000
50.0941 -10.7194 2.1644 1.0000
50.0941 -10.5626 2.1631 1.0000
50.0941 -10.2496 2.1604 1.0000
50.0941 -9.7816 2.1565 1.0000
50.0941 -9.6259 2.1552 1.0000
50.0941 -9.4705 2.1540 1.0000
50.0941 -9.1601 2.1516 1.0000
50.0941 -8.8504 2.1493 1.0000
50.0941 -8.6958 2.1482 1.0000
50.0941 -8.3870 2.1460 1.0000
50.0941 -8.2329 2.1449 1.0000
50.0941 -8.0789 2.1439 1.0000
50.0941 -7.7714 2.1418 1.0000
50.0940 -7.4644 2.1399 1.0000
50.0940 -7.3111 2.1389 1.0000
50.0940 -7.0050 2.1371 1.0000
50.0940 -6.6993 2.1354 1.0000
50.0940 -6.5467 2.1345 1.0000
50.0940 -6.3942 2.1337 1.0000
50.0940 -5.7853 2.1306 1.0000
50.0940 -5.1780 2.1278 1.0000
25.0137 -2.0568 1.0604 1.0000
25.0150 -1.9815 1.0602 1.0000
25.0186 -1.7557 1.0597 1.0000
25.0199 -1.6805 1.0595 1.0000
25.0211 -1.6054 1.0593 1.0000
25.0232 -1.4551 1.0590 1.0000
25.0240 -1.1545 1.0584 1.0000
25.0255 -1.0045 1.0582 1.0000
25.0277 -0.8545 1.0581 1.0000
25.0289 -0.7795 1.0580 1.0000
25.0314 -0.6295 1.0579 1.0000
25.0339 -0.4796 1.0579 1.0000
25.0365 -0.3296 1.0579 1.0000
25.0403 -0.1047 1.0580 1.0000
25.0429 0.0453 1.0581 1.0000
25.0467 0.2703 1.0583 1.0000
25.0479 0.3453 1.0584 1.0000
25.0489 0.4204 1.0585 1.0000
25.0499 0.6455 1.0587 1.0000
25.0503 0.7206 1.0588 1.0000
25.2354 0.9529 1.0670 1.0000
25.2336 1.0285 1.0670 1.0000
25.2332 1.1799 1.0673 1.0000
25.2322 1.3313 1.0676 1.0000
25.2329 1.4830 1.0679 1.0000
25.2371 1.6350 1.0685 1.0000
25.2394 1.7110 1.0688 1.0000
25.2429 1.8632 1.0694 1.0000
25.2441 1.9393 1.0697 1.0000
25.2500 2.0158 1.0702 1.0000
25.2584 2.0926 1.0708 1.0000
24.8446 2.1333 1.0536 1.0000
25.2753 2.2465 1.0721 1.0000
25.2854 2.4001 1.0731 1.0000
25.2893 2.4770 1.0736 1.0000
50.0941 5.2095 2.1279 1.0000
50.0941 5.8168 2.1307 1.0000
50.0941 5.9689 2.1315 1.0000
50.0941 7.0366 2.1373 1.0000
50.0941 7.4961 2.1401 1.0000
50.0941 7.9568 2.1430 1.0000
50.0941 8.1107 2.1441 1.0000
50.0941 8.2647 2.1451 1.0000
50.0941 8.4189 2.1462 1.0000
50.0941 8.7277 2.1484 1.0000
50.0941 8.8824 2.1495 1.0000
50.0941 9.1921 2.1518 1.0000
50.0941 9.3473 2.1530 1.0000
50.0941 9.5026 2.1543 1.0000
50.0941 9.8138 2.1567 1.0000
50.0941 9.9696 2.1580 1.0000
50.0941 10.1257 2.1593 1.0000
50.0941 10.2819 2.1606 1.0000
50.0941 10.7518 2.1647 1.0000
50.0941 10.9088 2.1661 1.0000
50.0941 11.0661 2.1675 1.0000
50.0941 11.3811 2.1705 1.0000
50.0941 11.5389 2.1719 1.0000
50.0941 11.8554 2.1750 1.0000
50.0941 12.0138 2.1765 1.0000
50.0941 12.1726 2.1781 1.0000
50.0941 12.3316 2.1797 1.0000
50.0941 12.4908 2.1813 1.0000
50.0941 13.2905 2.1897 1.0000
50.0941 -13.0732 2.1874 1.0000
50.0941 -12.7533 2.1840 1.0000
50.0941 -12.4343 2.1807 1.0000
50.0941 -12.2752 2.1791 1.0000
50.0941 -11.9576 2.1760 1.0000
50.0941 -11.6409 2.1729 1.0000
50.0941 -11.3251 2.1699 1.0000
50.0941 -10.8530 2.1656 1.0000
50.0941 -10.6961 2.1642 1.0000
50.0941 -10.5394 2.1629 1.0000
50.0941 -10.3828 2.1615 1.0000
50.0941 -10.2264 2.1602 1.0000
50.0941 -9.9143 2.1576 1.0000
50.0941 -9.6029 2.1551 1.0000
50.0941 -9.4474 2.1538 1.0000
50.0941 -9.1371 2.1514 1.0000
50.0941 -8.8275 2.1491 1.0000
50.0941 -8.6729 2.1480 1.0000
50.0941 -8.3641 2.1458 1.0000
50.0941 -8.0561 2.1437 1.0000
50.0941 -7.9023 2.1427 1.0000
50.0940 -7.2884 2.1388 1.0000
50.0940 -6.8295 2.1361 1.0000
50.0940 -6.2193 2.1328 1.0000
50.0940 -6.0670 2.1320 1.0000
50.0940 -5.9148 2.1312 1.0000
50.0940 -5.7627 2.1305 1.0000
50.0940 -5.6109 2.1298 1.0000
50.0940 -5.4590 2.1290 1.0000
50.0940 -5.3073 2.1284 1.0000
50.0940 -5.1556 2.1277 1.0000
25.0117 -2.4229 1.0617 1.0000
25.0114 -2.1962 1.0608 1.0000
25.0127 -2.1209 1.0606 1.0000
25.0139 -2.0455 1.0604 1.0000
25.0164 -1.8951 1.0600 1.0000
25.0188 -1.7446 1.0596 1.0000
25.0224 -1.5191 1.0592 1.0000
25.0246 -1.2186 1.0586 1.0000
25.0278 -0.8434 1.0580 1.0000
25.0304 -0.6934 1.0580 1.0000
25.0329 -0.5435 1.0579 1.0000
25.0354 -0.3935 1.0579 1.0000
25.0379 -0.2436 1.0579 1.0000
25.0405 -0.0936 1.0580 1.0000
25.0418 -0.0186 1.0580 1.0000
25.0443 0.1314 1.0582 1.0000
50.0940 12.3080 1.3072 1.0000
50.0939 12.4672 1.3081 1.0000
50.0940 12.6266 1.3091 1.0000
50.0939 13.2668 1.3132 1.0000
50.0940 -13.2573 1.3131 1.0000
50.0940 -12.9368 1.3111 1.0000
50.0940 -12.6172 1.3091 1.0000
50.0940 -12.4578 1.3081 1.0000
50.0940 -12.2987 1.3071 1.0000
50.0940 -11.9810 1.3052 1.0000
50.0940 -11.8225 1.3043 1.0000
50.0940 -11.5062 1.3025 1.0000
50.0940 -11.0334 1.2998 1.0000
50.0940 -10.8763 1.2990 1.0000
50.0940 -10.4060 1.2965 1.0000
50.0940 -10.2496 1.2957 1.0000
50.0940 -10.0934 1.2949 1.0000
50.0940 -9.9374 1.2942 1.0000
50.0939 -9.7816 1.2934 1.0000
50.0939 -9.3152 1.2912 1.0000
50.0939 -9.1601 1.2905 1.0000
50.0940 -9.0052 1.2898 1.0000
50.0940 -8.8504 1.2891 1.0000
50.0940 -7.9251 1.2852 1.0000
50.0939 -7.4644 1.2834 1.0000
50.0939 -7.3111 1.2829 1.0000
50.0939 -7.1580 1.2823 1.0000
50.0939 -6.5468 1.2802 1.0000
50.0939 -6.3943 1.2797 1.0000
50.0939 -6.2418 1.2792 1.0000
50.0939 -6.0896 1.2788 1.0000
50.0939 -5.7854 1.2779 1.0000
50.0939 -5.1781 1.2762 1.0000
24.9739 -2.4304 0.6358 1.0000
24.9752 -2.3550 0.6357 1.0000
24.9764 -2.2797 0.6356 1.0000
24.9776 -2.2045 0.6354 1.0000
24.9857 -1.8286 0.6348 1.0000
24.9904 -1.6785 0.6347 1.0000
24.9927 -1.6035 0.6346 1.0000
24.9971 -1.4535 0.6345 1.0000
25.0005 -1.3036 0.6344 1.0000
25.0026 -1.1536 0.6343 1.0000
25.0035 -1.0786 0.6342 1.0000
25.0050 -1.0036 0.6342 1.0000
25.0075 -0.9287 0.6341 1.0000
25.0098 -0.8538 0.6341 1.0000
25.0121 -0.7790 0.6341 1.0000
25.0190 -0.5542 0.6342 1.0000
25.0236 -0.4044 0.6342 1.0000
25.0259 -0.3295 0.6342 1.0000
25.0282 -0.2546 0.6343 1.0000
25.0302 -0.1796 0.6343 1.0000
25.0314 -0.1047 0.6343 1.0000
25.0327 -0.0297 0.6343 1.0000
25.0364 0.1952 0.6345 1.0000
25.0389 0.3452 0.6346 1.0000
25.0402 0.4202 0.6346 1.0000
25.0428 0.5703 0.6348 1.0000
25.0440 0.6454 0.6348 1.0000
25.0453 0.7204 0.6349 1.0000
25.2065 0.9518 0.6392 1.0000
25.2048 1.0273 0.6392 1.0000
25.2034 1.1029 0.6393 1.0000
25.2024 1.1784 0.6393 1.0000
25.2014 1.2540 0.6394 1.0000
25.2004 1.3296 0.6395 1.0000
25.1996 1.4810 0.6397 1.0000
25.2015 1.5568 0.6398 1.0000
25.2029 1.6327 0.6400 1.0000
25.2043 1.7845 0.6403 1.0000
25.2048 1.8604 0.6404 1.0000
25.2064 1.9364 0.6406 1.0000
25.2091 2.0125 0.6408 1.0000
25.2126 2.0888 0.6411 1.0000
25.2194 2.2415 0.6416 1.0000
25.0645 2.3034 0.6378 1.0000
25.2261 2.3945 0.6421 1.0000
25.2327 2.5477 0.6427 1.0000
50.0940 5.2094 1.2763 1.0000
50.0940 5.5129 1.2771 1.0000
50.0940 5.8167 1.2780 1.0000
50.0940 6.1210 1.2789 1.0000
50.0940 6.7309 1.2808 1.0000
50.0940 6.8837 1.2814 1.0000
50.0940 7.0366 1.2819 1.0000
50.0940 7.1896 1.2824 1.0000
50.0939 7.3428 1.2830 1.0000
50.0940 7.4961 1.2836 1.0000
50.0940 7.9568 1.2853 1.0000
50.0939 8.1107 1.2859 1.0000
50.0940 8.4189 1.2872 1.0000
50.0940 8.5732 1.2879 1.0000
50.0940 8.7277 1.2885 1.0000
50.0940 8.8823 1.2892 1.0000
50.0940 9.0371 1.2899 1.0000
50.0940 9.1921 1.2906 1.0000
50.0940 9.3473 1.2913 1.0000
50.0940 9.5026 1.2921 1.0000
50.0940 9.6581 1.2928 1.0000
50.0940 9.8138 1.2935 1.0000
50.0940 9.9696 1.2943 1.0000
50.0939 10.1257 1.2951 1.0000
50.0940 10.2819 1.2959 1.0000
50.0940 10.7518 1.2983 1.0000
50.0940 10.9088 1.2992 1.0000
50.0940 11.0660 1.3000 1.0000
50.0940 11.3811 1.3018 1.0000
50.0940 11.5389 1.3027 1.0000
50.0940 11.8554 1.3045 1.0000
50.0940 12.0139 1.3054 1.0000
50.0940 12.1726 1.3064 1.0000
50.0940 12.3316 1.3073 1.0000
50.0940 12.6503 1.3093 1.0000
50.0939 12.9699 1.3113 1.0000
50.0939 13.1301 1.3123 1.0000
50.0939 13.2905 1.3133 1.0000
50.0940 -12.9130 1.3109 1.0000
50.0940 -12.7532 1.3099 1.0000
50.0940 -12.5936 1.3089 1.0000
50.0940 -12.4342 1.3079 1.0000
50.0940 -12.1162 1.3060 1.0000
50.0940 -11.7991 1.3042 1.0000
50.0940 -11.6409 1.3033 1.0000
50.0940 -11.4829 1.3023 1.0000
50.0940 -11.3251 1.3015 1.0000
50.0940 -10.5393 1.2972 1.0000
50.0940 -10.3828 1.2964 1.0000
50.0940 -9.7585 1.2933 1.0000
50.0940 -9.6029 1.2925 1.0000
50.0940 -9.1371 1.2904 1.0000
50.0940 -8.9822 1.2897 1.0000
50.0940 -8.0561 1.2857 1.0000
50.0940 -7.9023 1.2851 1.0000
50.0940 -7.7486 1.2845 1.0000
50.0939 -7.2885 1.2828 1.0000
50.0939 -7.1353 1.2822 1.0000
50.0939 -6.9823 1.2817 1.0000
50.0939 -6.8295 1.2812 1.0000
50.0939 -6.3716 1.2796 1.0000
50.0939 -6.2193 1.2792 1.0000
50.0939 -6.0670 1.2787 1.0000
50.0939 -5.7628 1.2778 1.0000
50.0939 -5.4590 1.2769 1.0000
50.0939 -5.1556 1.2761 1.0000
24.9741 -2.4192 0.6358 1.0000
24.9754 -2.3439 0.6357 1.0000
24.9766 -2.2686 0.6355 1.0000
24.9779 -2.1933 0.6354 1.0000
24.9790 -2.1180 0.6353 1.0000
24.9883 -1.7425 0.6348 1.0000
24.9954 -1.5174 0.6346 1.0000
24.9995 -1.3675 0.6345 1.0000
25.0018 -1.2174 0.6343 1.0000
25.0036 -1.0675 0.6342 1.0000
25.0125 -0.7678 0.6341 1.0000
25.0286 -0.2434 0.6343 1.0000
25.0354 0.1313 0.6344 1.0000
50.0939 12.3080 0.4356 1.0000
50.0939 12.4671 0.4360 1.0000
50.0939 12.6266 0.4363 1.0000
50.0939 12.7862 0.4366 1.0000
50.0939 12.9461 0.4370 1.0000
50.0939 -13.4179 0.4380 1.0000
50.0939 -12.4578 0.4359 1.0000
50.0939 -12.2986 0.4356 1.0000
50.0939 -12.1397 0.4353 1.0000
50.0939 -11.8225 0.4347 1.0000
50.0939 -11.6643 0.4344 1.0000
50.0939 -11.5062 0.4341 1.0000
50.0939 -10.7193 0.4326 1.0000
50.0939 -10.2495 0.4318 1.0000
50.0939 -10.0933 0.4316 1.0000
50.0939 -9.9373 0.4313 1.0000
50.0939 -9.7815 0.4310 1.0000
50.0939 -9.3151 0.4303 1.0000
50.0939 -9.0051 0.4298 1.0000
50.0939 -8.5413 0.4292 1.0000
50.0939 -8.0789 0.4285 1.0000
50.0939 -7.7714 0.4281 1.0000
50.0939 -7.6178 0.4279 1.0000
50.0938 -7.4644 0.4277 1.0000
50.0938 -6.8521 0.4270 1.0000
50.0938 -6.6993 0.4268 1.0000
50.0938 -6.5467 0.4267 1.0000
50.0938 -6.3942 0.4265 1.0000
50.0938 -6.2418 0.4263 1.0000
50.0938 -5.9373 0.4260 1.0000
50.0938 -5.7853 0.4259 1.0000
50.0938 -5.6333 0.4257 1.0000
50.0938 -5.1781 0.4253 1.0000
24.9417 -2.2012 0.2115 1.0000
24.9458 -1.8257 0.2112 1.0000
24.9509 -1.6759 0.2112 1.0000
24.8281 -1.5183 0.2101 1.0000
24.8273 -1.4437 0.2100 1.0000
24.8299 -1.3693 0.2100 1.0000
24.8324 -1.2948 0.2100 1.0000
24.8401 -1.0716 0.2100 1.0000
24.8419 -0.9971 0.2100 1.0000
24.8445 -0.9227 0.2100 1.0000
25.0064 -0.4790 0.2112 1.0000
25.0133 -0.2544 0.2113 1.0000
25.0156 -0.1795 0.2113 1.0000
25.0179 -0.1046 0.2113 1.0000
25.0248 0.1202 0.2113 1.0000
25.0274 0.1951 0.2114 1.0000
25.0324 0.3451 0.2114 1.0000
25.0350 0.4202 0.2115 1.0000
25.0400 0.5702 0.2115 1.0000
25.0425 0.6453 0.2116 1.0000
25.0451 0.7204 0.2116 1.0000
25.2034 0.8006 0.2130 1.0000
25.1979 0.8759 0.2129 1.0000
25.1948 0.9513 0.2129 1.0000
25.1927 1.0268 0.2129 1.0000
25.4481 1.3428 0.2152 1.0000
25.4482 1.5721 0.2153 1.0000
25.2010 2.0879 0.2136 1.0000
25.2045 2.1642 0.2136 1.0000
25.2115 2.3170 0.2138 1.0000
50.0939 5.2095 0.4253 1.0000
50.0939 5.3611 0.4255 1.0000
50.0939 5.5129 0.4256 1.0000
50.0939 5.8168 0.4259 1.0000
50.0939 6.1210 0.4262 1.0000
50.0939 6.2734 0.4264 1.0000
50.0939 6.7309 0.4269 1.0000
50.0939 7.1896 0.4274 1.0000
50.0939 7.9568 0.4284 1.0000
50.0939 8.4189 0.4290 1.0000
50.0939 8.5732 0.4292 1.0000
50.0939 9.0371 0.4299 1.0000
50.0939 9.5025 0.4306 1.0000
50.0939 9.8137 0.4311 1.0000
50.0939 9.9696 0.4314 1.0000
50.0939 10.2819 0.4319 1.0000
50.0939 10.4383 0.4321 1.0000
50.0939 11.0660 0.4333 1.0000
50.0939 11.2234 0.4335 1.0000
50.0939 11.3811 0.4338 1.0000
50.0939 11.5389 0.4341 1.0000
50.0939 11.6970 0.4344 1.0000
50.0939 11.8553 0.4347 1.0000
50.0939 12.0138 0.4351 1.0000
50.0939 12.1726 0.4354 1.0000
50.0939 12.3316 0.4357 1.0000
50.0939 12.4907 0.4360 1.0000
50.0939 12.9698 0.4370 1.0000
50.0939 13.1300 0.4374 1.0000
50.0939 13.2905 0.4377 1.0000
50.0939 -13.3941 0.4379 1.0000
50.0939 -12.9130 0.4369 1.0000
50.0939 -12.7532 0.4366 1.0000
50.0939 -12.5936 0.4362 1.0000
50.0939 -12.2751 0.4356 1.0000
50.0939 -11.9575 0.4349 1.0000
50.0939 -11.7991 0.4346 1.0000
50.0939 -11.4829 0.4340 1.0000
50.0939 -11.1675 0.4334 1.0000
50.0939 -11.0102 0.4332 1.0000
50.0939 -10.8530 0.4329 1.0000
50.0939 -10.3828 0.4321 1.0000
50.0939 -9.4474 0.4305 1.0000
50.0939 -8.9821 0.4298 1.0000
50.0939 -8.6729 0.4294 1.0000
50.0939 -8.5184 0.4291 1.0000
50.0939 -8.3641 0.4289 1.0000
50.0939 -7.9022 0.4283 1.0000
50.0939 -7.5950 0.4279 1.0000
50.0938 -6.9823 0.4271 1.0000
50.0938 -6.8294 0.4270 1.0000
50.0938 -6.5241 0.4266 1.0000
50.0938 -6.2192 0.4263 1.0000
50.0938 -6.0670 0.4262 1.0000
50.0938 -5.7628 0.4259 1.0000
50.0938 -5.6108 0.4257 1.0000
50.0938 -5.3072 0.4254 1.0000
50.0938 -5.0040 0.4252 1.0000
24.9400 -2.4159 0.2116 1.0000
24.9406 -2.3406 0.2116 1.0000
24.9412 -2.2654 0.2115 1.0000
24.9424 -2.1149 0.2114 1.0000
24.9436 -1.9646 0.2113 1.0000
24.9512 -1.6648 0.2112 1.0000
24.8261 -1.5072 0.2100 1.0000
24.8276 -1.4327 0.2100 1.0000
24.8327 -1.2838 0.2100 1.0000
24.8421 -0.9861 0.2100 1.0000
24.8449 -0.9117 0.2100 1.0000
24.9463 -0.8406 0.2108 1.0000
24.9999 -0.6925 0.2112 1.0000
25.0136 -0.2433 0.2113 1.0000
25.0159 -0.1684 0.2113 1.0000
25.0182 -0.0936 0.2113 1.0000
25.0205 -0.0186 0.2113 1.0000
25.0228 0.0564 0.2113 1.0000
50.0938 12.4671 -0.4360 1.0000
50.0938 12.6266 -0.4363 1.0000
50.0938 12.7862 -0.4366 1.0000
50.0938 12.9461 -0.4370 1.0000
50.0938 13.2667 -0.4376 1.0000
50.0938 -13.2572 -0.4376 1.0000
50.0938 -12.9367 -0.4369 1.0000
50.0938 -12.7768 -0.4366 1.0000
50.0938 -12.4578 -0.4359 1.0000
50.0938 -12.1396 -0.4353 1.0000
50.0938 -11.9810 -0.4350 1.0000
50.0938 -11.5062 -0.4341 1.0000
50.0938 -11.3484 -0.4338 1.0000
50.0938 -11.1908 -0.4335 1.0000
50.0938 -11.0334 -0.4332 1.0000
50.0938 -10.7193 -0.4326 1.0000
50.0938 -10.5625 -0.4324 1.0000
50.0938 -10.4059 -0.4321 1.0000
50.0938 -10.2495 -0.4318 1.0000
50.0938 -9.9373 -0.4313 1.0000
50.0938 -9.7815 -0.4310 1.0000
50.0938 -9.4704 -0.4306 1.0000
50.0938 -9.1600 -0.4301 1.0000
50.0938 -8.8503 -0.4296 1.0000
50.0938 -8.6957 -0.4294 1.0000
50.0938 -8.5413 -0.4292 1.0000
50.0938 -8.2329 -0.4287 1.0000
50.0938 -8.0789 -0.4285 1.0000
50.0938 -7.9250 -0.4283 1.0000
50.0938 -7.7713 -0.4281 1.0000
50.0938 -7.6178 -0.4279 1.0000
50.0937 -7.4644 -0.4277 1.0000
50.0937 -7.3111 -0.4275 1.0000
50.0937 -7.1580 -0.4274 1.0000
50.0937 -6.8521 -0.4270 1.0000
50.0937 -6.5467 -0.4267 1.0000
50.0937 -6.2418 -0.4263 1.0000
50.0937 -5.9373 -0.4260 1.0000
50.0937 -5.7853 -0.4259 1.0000
50.0937 -5.6334 -0.4257 1.0000
50.0937 -5.4815 -0.4256 1.0000
50.0937 -5.3297 -0.4254 1.0000
50.0937 -5.1781 -0.4253 1.0000
24.9736 -2.4304 -0.2119 1.0000
24.9702 -2.3546 -0.2118 1.0000
24.9636 -2.2032 -0.2116 1.0000
24.9602 -2.1276 -0.2116 1.0000
24.9568 -2.0521 -0.2115 1.0000
24.9550 -1.9767 -0.2114 1.0000
24.9556 -1.9015 -0.2114 1.0000
24.9562 -1.8264 -0.2113 1.0000
24.8219 -1.7420 -0.2101 1.0000
24.8250 -1.5182 -0.2100 1.0000
24.8294 -1.3692 -0.2100 1.0000
24.8324 -1.2202 -0.2100 1.0000
24.8319 -1.1457 -0.2099 1.0000
24.8302 -1.0711 -0.2099 1.0000
24.8282 -0.9965 -0.2099 1.0000
24.8258 -0.9220 -0.2098 1.0000
24.8236 -0.8475 -0.2098 1.0000
24.8522 -0.7740 -0.2100 1.0000
24.8701 -0.7000 -0.2101 1.0000
25.0000 -0.3292 -0.2112 1.0000
25.0056 -0.1794 -0.2112 1.0000
25.0154 0.0452 -0.2113 1.0000
25.0187 0.1201 -0.2113 1.0000
25.0253 0.2700 -0.2114 1.0000
25.0286 0.3451 -0.2114 1.0000
25.0319 0.4200 -0.2114 1.0000
25.0352 0.4951 -0.2115 1.0000
25.1991 0.8004 -0.2129 1.0000
25.1936 0.8757 -0.2129 1.0000
25.1024 0.9479 -0.2121 1.0000
24.9642 1.0175 -0.2110 1.0000
24.9734 1.3177 -0.2112 1.0000
24.9754 1.3928 -0.2113 1.0000
24.9763 1.4678 -0.2113 1.0000
24.9749 1.5429 -0.2113 1.0000
24.9729 1.6179 -0.2113 1.0000
25.0343 1.9986 -0.2121 1.0000
25.1461 2.1591 -0.2131 1.0000
25.1221 2.3846 -0.2131 1.0000
25.1141 2.4597 -0.2131 1.0000
50.0938 5.2095 -0.4253 1.0000
50.0938 5.3611 -0.4255 1.0000
50.0938 6.4257 -0.4265 1.0000
50.0938 7.0366 -0.4272 1.0000
50.0938 7.4961 -0.4278 1.0000
50.0938 7.6495 -0.4280 1.0000
50.0938 8.1107 -0.4286 1.0000
50.0938 8.2647 -0.4288 1.0000
50.0938 8.5732 -0.4292 1.0000
50.0938 8.8823 -0.4297 1.0000
50.0938 9.1921 -0.4301 1.0000
50.0938 9.5026 -0.4306 1.0000
50.0938 9.9696 -0.4314 1.0000
50.0938 10.1256 -0.4316 1.0000
50.0938 10.4383 -0.4321 1.0000
50.0938 10.9087 -0.4330 1.0000
50.0938 11.0659 -0.4332 1.0000
50.0938 11.2234 -0.4335 1.0000
50.0938 11.3811 -0.4338 1.0000
50.0938 11.5389 -0.4341 1.0000
50.0938 11.6970 -0.4344 1.0000
50.0938 12.3316 -0.4357 1.0000
50.0938 12.4907 -0.4360 1.0000
50.0938 12.6502 -0.4363 1.0000
50.0938 12.8099 -0.4367 1.0000
50.0938 13.1300 -0.4373 1.0000
50.0938 13.2905 -0.4377 1.0000
50.0938 -13.2335 -0.4376 1.0000
50.0938 -13.0731 -0.4372 1.0000
50.0938 -12.9130 -0.4369 1.0000
50.0938 -12.7531 -0.4366 1.0000
50.0938 -12.4342 -0.4359 1.0000
50.0938 -12.2750 -0.4356 1.0000
50.0938 -11.9575 -0.4349 1.0000
50.0938 -11.6408 -0.4343 1.0000
50.0938 -10.6960 -0.4326 1.0000
50.0938 -9.9143 -0.4313 1.0000
50.0938 -9.6028 -0.4308 1.0000
50.0938 -9.2921 -0.4303 1.0000
50.0938 -9.1371 -0.4300 1.0000
50.0938 -8.3641 -0.4289 1.0000
50.0938 -8.2100 -0.4287 1.0000
50.0938 -7.5950 -0.4279 1.0000
50.0937 -7.4416 -0.4277 1.0000
50.0937 -7.2884 -0.4275 1.0000
50.0937 -6.8295 -0.4270 1.0000
50.0937 -6.6767 -0.4268 1.0000
50.0937 -6.5241 -0.4266 1.0000
50.0937 -6.3716 -0.4265 1.0000
50.0937 -5.9148 -0.4260 1.0000
50.0937 -5.7628 -0.4259 1.0000
50.0937 -5.6109 -0.4257 1.0000
50.0937 -5.4590 -0.4256 1.0000
24.9697 -2.3434 -0.2118 1.0000
24.9664 -2.2677 -0.2117 1.0000
24.9596 -2.1164 -0.2115 1.0000
24.9563 -2.0409 -0.2115 1.0000
24.9551 -1.9656 -0.2114 1.0000
24.9404 -1.8142 -0.2112 1.0000
24.8216 -1.7308 -0.2101 1.0000
25.3280 -1.6899 -0.2144 1.0000
24.8230 -1.5816 -0.2101 1.0000
24.8317 -1.1346 -0.2099 1.0000
24.8299 -1.0600 -0.2099 1.0000
24.8279 -0.9855 -0.2098 1.0000
24.8255 -0.9109 -0.2098 1.0000
24.8232 -0.8364 -0.2098 1.0000
24.8664 -0.6888 -0.2101 1.0000
24.9976 -0.3929 -0.2111 1.0000
25.0003 -0.3181 -0.2112 1.0000
25.0032 -0.2432 -0.2112 1.0000
25.0126 -0.0186 -0.2112 1.0000
25.0192 0.1312 -0.2113 1.0000
26.8990 6.6946 -0.7024 1.0000
26.8797 6.7752 -0.7025 1.0000
26.8200 7.0171 -0.7025 1.0000
26.7995 7.0975 -0.7025 1.0000
26.6245 -7.1315 -0.6985 1.0000
26.6468 -7.0521 -0.6985 1.0000
26.6686 -6.9724 -0.6985 1.0000
26.7120 -6.8131 -0.6986 1.0000
26.7330 -6.7332 -0.6986 1.0000
26.7543 -6.6536 -0.6986 1.0000
26.7750 -6.5736 -0.6986 1.0000
26.7954 -6.4935 -0.6987 1.0000
26.8358 -6.3334 -0.6987 1.0000
26.9511 -5.8516 -0.6989 1.0000
26.9695 -5.7710 -0.6989 1.0000
27.0055 -5.6098 -0.6989 1.0000
27.1077 -5.1248 -0.6991 1.0000
27.1239 -5.0439 -0.6991 1.0000
27.2013 -4.6380 -0.6992 1.0000
27.2726 -4.2311 -0.6994 1.0000
27.2861 -4.1494 -0.6994 1.0000
27.3252 -3.9045 -0.6995 1.0000
27.3500 -3.7411 -0.6995 1.0000
27.3854 -3.4956 -0.6996 1.0000
27.3968 -3.4137 -0.6996 1.0000
27.4076 -3.3318 -0.6996 1.0000
27.4594 -2.9215 -0.6998 1.0000
27.4690 -2.8393 -0.6998 1.0000
27.4783 -2.7573 -0.6998 1.0000
27.4875 -2.6750 -0.6998 1.0000
27.4963 -2.5928 -0.6999 1.0000
27.5131 -2.4282 -0.6999 1.0000
27.5213 -2.3460 -0.6999 1.0000
27.5368 -2.1811 -0.7000 1.0000
27.5512 -2.0164 -0.7000 1.0000
27.5581 -1.9340 -0.7001 1.0000
27.5647 -1.8515 -0.7001 1.0000
27.5712 -1.7689 -0.7001 1.0000
27.5771 -1.6865 -0.7001 1.0000
24.8229 -1.4434 -0.6301 1.0000
24.8243 -1.3689 -0.6300 1.0000
24.8250 -1.2945 -0.6299 1.0000
24.8235 -0.9963 -0.6296 1.0000
27.6250 -0.8603 -0.7004 1.0000
27.6284 -0.7776 -0.7004 1.0000
27.6316 -0.6949 -0.7004 1.0000
27.6343 -0.6123 -0.7004 1.0000
27.6370 -0.5295 -0.7005 1.0000
27.6417 -0.3640 -0.7005 1.0000
27.6450 -0.1984 -0.7006 1.0000
27.6464 -0.1155 -0.7006 1.0000
27.6486 0.0500 -0.7006 1.0000
27.6497 0.3812 -0.7007 1.0000
27.6495 0.4639 -0.7008 1.0000
27.6480 0.6296 -0.7008 1.0000
27.6468 0.7124 -0.7008 1.0000
27.6440 0.8780 -0.7009 1.0000
27.6421 0.9609 -0.7009 1.0000
27.6401 1.0437 -0.7009 1.0000
27.6352 1.2092 -0.7010 1.0000
24.9654 1.2423 -0.6334 1.0000
24.9667 1.3173 -0.6336 1.0000
24.9675 1.4673 -0.6338 1.0000
24.9664 1.6174 -0.6340 1.0000
27.5957 2.0368 -0.7012 1.0000
27.5902 2.1195 -0.7012 1.0000
27.5789 2.2849 -0.7013 1.0000
27.5154 3.0281 -0.7015 1.0000
27.5068 3.1105 -0.7015 1.0000
27.4896 3.2754 -0.7015 1.0000
27.4807 3.3579 -0.7016 1.0000
27.4616 3.5227 -0.7016 1.0000
27.4211 3.8518 -0.7017 1.0000
27.4100 3.9340 -0.7017 1.0000
27.3764 4.1805 -0.7018 1.0000
27.3525 4.3446 -0.7018 1.0000
27.3403 4.4268 -0.7018 1.0000
27.3276 4.5086 -0.7019 1.0000
27.3148 4.5906 -0.7019 1.0000
27.2886 4.7545 -0.7019 1.0000
27.2331 5.0816 -0.7020 1.0000
27.2186 5.1633 -0.7020 1.0000
27.1889 5.3266 -0.7021 1.0000
27.1734 5.4080 -0.7021 1.0000
27.1581 5.4896 -0.7021 1.0000
27.1422 5.5710 -0.7021 1.0000
27.1264 5.6525 -0.7022 1.0000
27.0937 5.8151 -0.7022 1.0000
27.0769 5.8965 -0.7022 1.0000
27.0598 5.9776 -0.7023 1.0000
26.9897 6.3021 -0.7023 1.0000
26.9343 6.5450 -0.7024 1.0000
26.8961 6.7066 -0.7024 1.0000
26.8768 6.7873 -0.7025 1.0000
26.8571 6.8680 -0.7025 1.0000
26.6278 -7.1197 -0.6985 1.0000
26.6719 -6.9605 -0.6985 1.0000
26.7781 -6.5616 -0.6987 1.0000
26.7984 -6.4817 -0.6987 1.0000
26.8187 -6.4018 -0.6987 1.0000
26.8586 -6.2414 -0.6988 1.0000
26.9353 -5.9201 -0.6989 1.0000
26.9538 -5.8397 -0.6989 1.0000
27.0081 -5.5979 -0.6990 1.0000
27.0431 -5.4363 -0.6990 1.0000
27.0603 -5.3556 -0.6990 1.0000
27.0771 -5.2747 -0.6991 1.0000
27.1263 -5.0318 -0.6991 1.0000
27.1579 -4.8695 -0.6992 1.0000
27.1734 -4.7885 -0.6992 1.0000
27.1886 -4.7072 -0.6992 1.0000
27.2182 -4.5446 -0.6993 1.0000
27.2326 -4.4632 -0.6993 1.0000
27.2469 -4.3818 -0.6993 1.0000
27.2609 -4.3004 -0.6994 1.0000
27.2746 -4.2188 -0.6994 1.0000
27.3394 -3.8107 -0.6995 1.0000
27.3518 -3.7289 -0.6995 1.0000
27.3984 -3.4016 -0.6996 1.0000
27.4200 -3.2375 -0.6997 1.0000
27.4308 -3.1555 -0.6997 1.0000
27.4409 -3.0735 -0.6997 1.0000
27.4511 -2.9914 -0.6997 1.0000
27.4608 -2.9093 -0.6998 1.0000
27.4796 -2.7450 -0.6998 1.0000
27.4888 -2.6629 -0.6998 1.0000
27.4975 -2.5806 -0.6999 1.0000
27.5062 -2.4984 -0.6999 1.0000
27.5225 -2.3337 -0.6999 1.0000
27.5379 -2.1690 -0.7000 1.0000
27.5452 -2.0866 -0.7000 1.0000
27.5523 -2.0042 -0.7000 1.0000
27.5591 -1.9218 -0.7001 1.0000
27.5781 -1.6742 -0.7001 1.0000
24.8232 -1.4324 -0.6301 1.0000
24.8256 -1.2088 -0.6298 1.0000
24.8219 -0.9108 -0.6294 1.0000
27.6286 -0.7653 -0.7004 1.0000
27.6347 -0.5999 -0.7005 1.0000
27.6374 -0.5172 -0.7005 1.0000
27.6398 -0.4344 -0.7005 1.0000
27.6452 -0.1861 -0.7006 1.0000
27.6479 -0.0206 -0.7006 1.0000
27.6486 0.0623 -0.7006 1.0000
16.0853 4.0033 -0.7003 1.0000
16.0373 4.1959 -0.7004 1.0000
16.0213 -4.0353 -0.6981 1.0000
16.0337 -3.9873 -0.6981 1.0000
16.0459 -3.9395 -0.6981 1.0000
16.0580 -3.8914 -0.6981 1.0000
16.0699 -3.8434 -0.6981 1.0000
16.0817 -3.7953 -0.6981 1.0000
16.0933 -3.7473 -0.6981 1.0000
16.1048 -3.6992 -0.6982 1.0000
16.1162 -3.6510 -0.6982 1.0000
16.1384 -3.5546 -0.6982 1.0000
16.1494 -3.5063 -0.6982 1.0000
16.1708 -3.4097 -0.6982 1.0000
16.2218 -3.1676 -0.6983 1.0000
16.2316 -3.1190 -0.6983 1.0000
16.2411 -3.0704 -0.6984 1.0000
16.2599 -2.9733 -0.6984 1.0000
16.2781 -2.8760 -0.6984 1.0000
16.3044 -2.7297 -0.6985 1.0000
16.3128 -2.6810 -0.6985 1.0000
16.3292 -2.5834 -0.6985 1.0000
16.3373 -2.5345 -0.6985 1.0000
16.3529 -2.4367 -0.6985 1.0000
16.3822 -2.2408 -0.6986 1.0000
16.3893 -2.1918 -0.6986 1.0000
16.4028 -2.0937 -0.6987 1.0000
16.4093 -2.0446 -0.6987 1.0000
16.4157 -1.9955 -0.6987 1.0000
16.4220 -1.9464 -0.6987 1.0000
16.4281 -1.8973 -0.6987 1.0000
16.4340 -1.8481 -0.6987 1.0000
16.4398 -1.7989 -0.6987 1.0000
16.4715 -1.5034 -0.6988 1.0000
16.4810 -1.4048 -0.6989 1.0000
16.4854 -1.3554 -0.6989 1.0000
16.4898 -1.3062 -0.6989 1.0000
16.4939 -1.2568 -0.6989 1.0000
16.5092 -1.0592 -0.6990 1.0000
16.5159 -0.9604 -0.6990 1.0000
16.5191 -0.9110 -0.6990 1.0000
16.5221 -0.8615 -0.6990 1.0000
16.5302 -0.7131 -0.6991 1.0000
16.5326 -0.6636 -0.6991 1.0000
16.5370 -0.5646 -0.6991 1.0000
16.5407 -0.4656 -0.6991 1.0000
16.5438 -0.3664 -0.6992 1.0000
16.5475 -0.2179 -0.6992 1.0000
16.5484 -0.1684 -0.6992 1.0000
16.5492 -0.1188 -0.6992 1.0000
16.5498 -0.0692 -0.6992 1.0000
16.5503 -0.0197 -0.6993 1.0000
16.5507 0.0795 -0.6993 1.0000
16.5507 0.1786 -0.6993 1.0000
16.5499 0.2777 -0.6993 1.0000
16.5487 0.3769 -0.6994 1.0000
16.5478 0.4264 -0.6994 1.0000
16.5443 0.5750 -0.6994 1.0000
16.5375 0.7733 -0.6995 1.0000
16.5332 0.8722 -0.6995 1.0000
16.5229 1.0704 -0.6996 1.0000
16.5136 1.2188 -0.6996 1.0000
16.5102 1.2683 -0.6996 1.0000
16.5028 1.3672 -0.6996 1.0000
16.4991 1.4166 -0.6997 1.0000
16.4950 1.4660 -0.6997 1.0000
16.4867 1.5649 -0.6997 1.0000
16.4822 1.6143 -0.6997 1.0000
16.4680 1.7623 -0.6998 1.0000
16.4629 1.8118 -0.6998 1.0000
16.4578 1.8611 -0.6998 1.0000
16.4524 1.9104 -0.6998 1.0000
16.4236 2.1568 -0.6999 1.0000
16.4173 2.2059 -0.6999 1.0000
16.4110 2.2552 -0.6999 1.0000
16.4045 2.3044 -0.6999 1.0000
16.3978 2.3534 -0.6999 1.0000
16.3696 2.5499 -0.7000 1.0000
16.3470 2.6970 -0.7000 1.0000
16.3391 2.7460 -0.7000 1.0000
16.3312 2.7950 -0.7000 1.0000
16.2711 3.1371 -0.7001 1.0000
16.2619 3.1858 -0.7001 1.0000
16.2238 3.3806 -0.7002 1.0000
16.2138 3.4293 -0.7002 1.0000
16.1936 3.5264 -0.7002 1.0000
16.1727 3.6235 -0.7003 1.0000
16.1404 3.7688 -0.7003 1.0000
16.1068 3.9139 -0.7003 1.0000
16.0718 4.0586 -0.7004 1.0000
16.0599 4.1068 -0.7004 1.0000
16.0231 4.2511 -0.7004 1.0000
15.9593 -4.2672 -0.6980 1.0000
15.9724 -4.2195 -0.6980 1.0000
15.9980 -4.1240 -0.6980 1.0000
16.0231 -4.0281 -0.6981 1.0000
16.0355 -3.9803 -0.6981 1.0000
16.0717 -3.8364 -0.6981 1.0000
16.0834 -3.7882 -0.6981 1.0000
16.1065 -3.6920 -0.6982 1.0000
16.1401 -3.5474 -0.6982 1.0000
16.1510 -3.4992 -0.6982 1.0000
16.1723 -3.4025 -0.6983 1.0000
16.2033 -3.2572 -0.6983 1.0000
16.2133 -3.2088 -0.6983 1.0000
16.2232 -3.1604 -0.6983 1.0000
16.2520 -3.0146 -0.6984 1.0000
16.2705 -2.9174 -0.6984 1.0000
16.2795 -2.8687 -0.6984 1.0000
16.2971 -2.7713 -0.6984 1.0000
16.3056 -2.7226 -0.6985 1.0000
16.3141 -2.6737 -0.6985 1.0000
16.3384 -2.5272 -0.6985 1.0000
16.3539 -2.4295 -0.6986 1.0000
16.3689 -2.3316 -0.6986 1.0000
16.3762 -2.2826 -0.6986 1.0000
16.3903 -2.1846 -0.6986 1.0000
16.4103 -2.0374 -0.6987 1.0000
16.4289 -1.8900 -0.6987 1.0000
16.4408 -1.7916 -0.6987 1.0000
16.4464 -1.7424 -0.6988 1.0000
16.4518 -1.6932 -0.6988 1.0000
16.4723 -1.4961 -0.6988 1.0000
16.4771 -1.4468 -0.6988 1.0000
16.4817 -1.3976 -0.6989 1.0000
16.4861 -1.3481 -0.6989 1.0000
16.4904 -1.2987 -0.6989 1.0000
16.4945 -1.2495 -0.6989 1.0000
16.4986 -1.2001 -0.6989 1.0000
16.5024 -1.1507 -0.6989 1.0000
16.5062 -1.1013 -0.6989 1.0000
16.5097 -1.0519 -0.6990 1.0000
16.5226 -0.8541 -0.6990 1.0000
16.5253 -0.8047 -0.6990 1.0000
16.5280 -0.7552 -0.6990 1.0000
16.5373 -0.5572 -0.6991 1.0000
16.5426 -0.4087 -0.6991 1.0000
16.5441 -0.3592 -0.6992 1.0000
16.5454 -0.3096 -0.6992 1.0000
16.5466 -0.2602 -0.6992 1.0000
16.5476 -0.2105 -0.6992 1.0000
16.5493 -0.1114 -0.6992 1.0000
16.5499 -0.0619 -0.6992 1.0000
16.5503 -0.0124 -0.6993 1.0000
16.5508 0.0867 -0.6993 1.0000
11.4683 2.8542 -0.6995 1.0000
11.4598 2.8885 -0.6995 1.0000
11.4513 2.9229 -0.6995 1.0000
11.4427 2.9572 -0.6995 1.0000
11.4250 3.0258 -0.6995 1.0000
11.3974 -3.0163 -0.6978 1.0000
11.4156 -2.9480 -0.6978 1.0000
11.4247 -2.9139 -0.6978 1.0000
11.4334 -2.8797 -0.6978 1.0000
11.4422 -2.8456 -0.6978 1.0000
11.4509 -2.8113 -0.6978 1.0000
11.4761 -2.7084 -0.6979 1.0000
11.4926 -2.6397 -0.6979 1.0000
11.5005 -2.6054 -0.6979 1.0000
11.5085 -2.5710 -0.6979 1.0000
11.5240 -2.5020 -0.6979 1.0000
11.5317 -2.4676 -0.6980 1.0000
11.5392 -2.4332 -0.6980 1.0000
11.5539 -2.3641 -0.6980 1.0000
11.5752 -2.2602 -0.6980 1.0000
11.5888 -2.1909 -0.6980 1.0000
11.6021 -2.1215 -0.6981 1.0000
11.6086 -2.0869 -0.6981 1.0000
11.6213 -2.0173 -0.6981 1.0000
11.6275 -1.9825 -0.6981 1.0000
11.6335 -1.9477 -0.6981 1.0000
11.6454 -1.8781 -0.6981 1.0000
11.6567 -1.8083 -0.6982 1.0000
11.6677 -1.7385 -0.6982 1.0000
11.6730 -1.7037 -0.6982 1.0000
11.6933 -1.5638 -0.6982 1.0000
11.6981 -1.5288 -0.6982 1.0000
11.7119 -1.4237 -0.6983 1.0000
11.7163 -1.3887 -0.6983 1.0000
11.7206 -1.3537 -0.6983 1.0000
11.7288 -1.2834 -0.6983 1.0000
11.7328 -1.2483 -0.6983 1.0000
11.7367 -1.2132 -0.6983 1.0000
11.7441 -1.1429 -0.6984 1.0000
11.7476 -1.1078 -0.6984 1.0000
11.7576 -1.0022 -0.6984 1.0000
11.7607 -0.9670 -0.6984 1.0000
11.7637 -0.9318 -0.6984 1.0000
11.7722 -0.8262 -0.6984 1.0000
11.7747 -0.7909 -0.6985 1.0000
11.7820 -0.6851 -0.6985 1.0000
11.7841 -0.6498 -0.6985 1.0000
11.7861 -0.6146 -0.6985 1.0000
11.7881 -0.5792 -0.6985 1.0000
11.7900 -0.5440 -0.6985 1.0000
11.7963 -0.4027 -0.6986 1.0000
11.8019 -0.2261 -0.6986 1.0000
11.8027 -0.1906 -0.6986 1.0000
11.8034 -0.1554 -0.6986 1.0000
11.8040 -0.1201 -0.6987 1.0000
11.8044 -0.0847 -0.6987 1.0000
11.8048 -0.0494 -0.6987 1.0000
11.8053 0.0213 -0.6987 1.0000
11.8053 0.0566 -0.6987 1.0000
11.8048 0.1628 -0.6987 1.0000
11.8034 0.2687 -0.6988 1.0000
11.8027 0.3041 -0.6988 1.0000
11.8019 0.3395 -0.6988 1.0000
11.8010 0.3749 -0.6988 1.0000
11.7976 0.4808 -0.6988 1.0000
11.7963 0.5163 -0.6988 1.0000
11.7949 0.5515 -0.6988 1.0000
11.7917 0.6221 -0.6989 1.0000
11.7900 0.6575 -0.6989 1.0000
11.7881 0.6928 -0.6989 1.0000
11.7861 0.7281 -0.6989 1.0000
11.7841 0.7634 -0.6989 1.0000
11.7819 0.7987 -0.6989 1.0000
11.7747 0.9045 -0.6989 1.0000
11.7695 0.9751 -0.6990 1.0000
11.7666 1.0103 -0.6990 1.0000
11.7637 1.0456 -0.6990 1.0000
11.7607 1.0809 -0.6990 1.0000
11.7544 1.1513 -0.6990 1.0000
11.7510 1.1865 -0.6990 1.0000
11.7366 1.3273 -0.6991 1.0000
11.7328 1.3624 -0.6991 1.0000
11.7287 1.3974 -0.6991 1.0000
11.7247 1.4327 -0.6991 1.0000
11.7205 1.4678 -0.6991 1.0000
11.7162 1.5029 -0.6991 1.0000
11.7118 1.5380 -0.6991 1.0000
11.6979 1.6432 -0.6991 1.0000
11.6882 1.7133 -0.6992 1.0000
11.6832 1.7482 -0.6992 1.0000
11.6451 1.9930 -0.6992 1.0000
11.6272 2.0975 -0.6993 1.0000
11.6210 2.1324 -0.6993 1.0000
11.6147 2.1672 -0.6993 1.0000
11.6084 2.2020 -0.6993 1.0000
11.5678 2.4104 -0.6993 1.0000
11.5607 2.4450 -0.6994 1.0000
11.5387 2.5490 -0.6994 1.0000
11.5235 2.6181 -0.6994 1.0000
11.5157 2.6526 -0.6994 1.0000
11.5079 2.6872 -0.6994 1.0000
11.4999 2.7215 -0.6994 1.0000
11.4755 2.8249 -0.6994 1.0000
11.4671 2.8593 -0.6995 1.0000
11.4501 2.9280 -0.6995 1.0000
11.4414 2.9622 -0.6995 1.0000
11.4259 -2.9089 -0.6978 1.0000
11.4347 -2.8747 -0.6978 1.0000
11.4691 -2.7377 -0.6979 1.0000
11.4774 -2.7034 -0.6979 1.0000
11.4937 -2.6347 -0.6979 1.0000
11.5096 -2.5659 -0.6979 1.0000
11.5175 -2.5314 -0.6979 1.0000
11.5252 -2.4970 -0.6979 1.0000
11.5328 -2.4625 -0.6980 1.0000
11.5692 -2.2897 -0.6980 1.0000
11.5763 -2.2551 -0.6980 1.0000
11.5831 -2.2204 -0.6980 1.0000
11.5899 -2.1858 -0.6980 1.0000
11.6031 -2.1164 -0.6981 1.0000
11.6096 -2.0817 -0.6981 1.0000
11.6222 -2.0121 -0.6981 1.0000
11.6344 -1.9426 -0.6981 1.0000
11.6403 -1.9077 -0.6981 1.0000
11.6462 -1.8729 -0.6981 1.0000
11.6630 -1.7683 -0.6982 1.0000
11.6738 -1.6985 -0.6982 1.0000
11.6790 -1.6635 -0.6982 1.0000
11.6841 -1.6286 -0.6982 1.0000
11.6891 -1.5936 -0.6982 1.0000
11.6940 -1.5586 -0.6982 1.0000
11.7081 -1.4536 -0.6983 1.0000
11.7125 -1.4185 -0.6983 1.0000
11.7169 -1.3835 -0.6983 1.0000
11.7294 -1.2782 -0.6983 1.0000
11.7334 -1.2431 -0.6983 1.0000
11.7372 -1.2080 -0.6983 1.0000
11.7410 -1.1729 -0.6983 1.0000
11.7446 -1.1377 -0.6984 1.0000
11.7515 -1.0674 -0.6984 1.0000
11.7548 -1.0322 -0.6984 1.0000
11.7611 -0.9617 -0.6984 1.0000
11.7642 -0.9266 -0.6984 1.0000
11.7726 -0.8209 -0.6984 1.0000
11.7800 -0.7152 -0.6985 1.0000
11.7823 -0.6799 -0.6985 1.0000
11.7844 -0.6446 -0.6985 1.0000
11.7865 -0.6093 -0.6985 1.0000
11.7884 -0.5740 -0.6985 1.0000
11.7902 -0.5388 -0.6985 1.0000
11.7936 -0.4681 -0.6986 1.0000
11.7978 -0.3622 -0.6986 1.0000
11.8001 -0.2915 -0.6986 1.0000
11.8028 -0.1855 -0.6986 1.0000
11.8045 -0.0795 -0.6987 1.0000
11.8053 0.0266 -0.6987 1.0000
8.9132 2.1900 -0.6990 1.0000
8.9068 2.2167 -0.6990 1.0000
8.8867 2.2966 -0.6990 1.0000
8.8799 2.3232 -0.6990 1.0000
8.8729 2.3499 -0.6990 1.0000
8.8492 -2.3703 -0.6977 1.0000
8.8564 -2.3437 -0.6977 1.0000
8.8635 -2.3173 -0.6977 1.0000
8.8705 -2.2908 -0.6977 1.0000
8.8774 -2.2642 -0.6977 1.0000
8.9173 -2.1045 -0.6977 1.0000
8.9300 -2.0512 -0.6978 1.0000
8.9484 -1.9709 -0.6978 1.0000
8.9602 -1.9173 -0.6978 1.0000
8.9884 -1.7830 -0.6978 1.0000
9.0147 -1.6484 -0.6979 1.0000
9.0246 -1.5944 -0.6979 1.0000
9.0295 -1.5674 -0.6979 1.0000
9.0343 -1.5404 -0.6979 1.0000
9.0435 -1.4862 -0.6979 1.0000
9.0480 -1.4592 -0.6979 1.0000
9.0524 -1.4321 -0.6979 1.0000
9.0611 -1.3779 -0.6980 1.0000
9.0694 -1.3237 -0.6980 1.0000
9.0774 -1.2693 -0.6980 1.0000
9.0994 -1.1062 -0.6980 1.0000
9.1027 -1.0789 -0.6980 1.0000
9.1060 -1.0516 -0.6981 1.0000
9.1184 -0.9425 -0.6981 1.0000
9.1213 -0.9152 -0.6981 1.0000
9.1241 -0.8879 -0.6981 1.0000
9.1268 -0.8605 -0.6981 1.0000
9.1320 -0.8059 -0.6981 1.0000
9.1344 -0.7786 -0.6981 1.0000
9.1369 -0.7513 -0.6981 1.0000
9.1476 -0.6145 -0.6982 1.0000
9.1496 -0.5870 -0.6982 1.0000
9.1514 -0.5597 -0.6982 1.0000
9.1531 -0.5322 -0.6982 1.0000
9.1547 -0.5048 -0.6982 1.0000
9.1563 -0.4775 -0.6982 1.0000
9.1592 -0.4226 -0.6982 1.0000
9.1605 -0.3951 -0.6982 1.0000
9.1618 -0.3677 -0.6983 1.0000
9.1640 -0.3129 -0.6983 1.0000
9.1660 -0.2579 -0.6983 1.0000
9.1693 -0.1207 -0.6983 1.0000
9.1706 0.0166 -0.6984 1.0000
9.1677 0.2637 -0.6984 1.0000
9.1670 0.2912 -0.6984 1.0000
9.1662 0.3187 -0.6985 1.0000
9.1653 0.3460 -0.6985 1.0000
9.1644 0.3736 -0.6985 1.0000
9.1632 0.4009 -0.6985 1.0000
9.1609 0.4558 -0.6985 1.0000
9.1596 0.4833 -0.6985 1.0000
9.1582 0.5107 -0.6985 1.0000
9.1552 0.5655 -0.6985 1.0000
9.1536 0.5929 -0.6985 1.0000
9.1481 0.6752 -0.6986 1.0000
9.1462 0.7026 -0.6986 1.0000
9.1442 0.7300 -0.6986 1.0000
9.1375 0.8121 -0.6986 1.0000
9.1327 0.8669 -0.6986 1.0000
9.1275 0.9215 -0.6986 1.0000
9.1248 0.9490 -0.6986 1.0000
9.1220 0.9762 -0.6986 1.0000
9.1192 1.0036 -0.6986 1.0000
9.1069 1.1128 -0.6987 1.0000
9.0933 1.2219 -0.6987 1.0000
9.0784 1.3307 -0.6987 1.0000
9.0745 1.3579 -0.6987 1.0000
9.0663 1.4122 -0.6988 1.0000
9.0536 1.4937 -0.6988 1.0000
9.0491 1.5208 -0.6988 1.0000
9.0400 1.5751 -0.6988 1.0000
9.0258 1.6563 -0.6988 1.0000
9.0159 1.7103 -0.6988 1.0000
9.0108 1.7373 -0.6988 1.0000
9.0057 1.7642 -0.6988 1.0000
8.9952 1.8182 -0.6989 1.0000
8.9843 1.8721 -0.6989 1.0000
8.9787 1.8990 -0.6989 1.0000
8.9437 2.0601 -0.6989 1.0000
8.9376 2.0870 -0.6989 1.0000
8.9314 2.1137 -0.6989 1.0000
8.9123 2.1939 -0.6990 1.0000
8.8991 2.2472 -0.6990 1.0000
8.8924 2.2739 -0.6990 1.0000
8.8789 2.3272 -0.6990 1.0000
8.8503 -2.3663 -0.6977 1.0000
8.8715 -2.2869 -0.6977 1.0000
8.8987 -2.1805 -0.6977 1.0000
8.9183 -2.1006 -0.6977 1.0000
8.9309 -2.0472 -0.6978 1.0000
8.9611 -1.9133 -0.6978 1.0000
8.9726 -1.8597 -0.6978 1.0000
8.9838 -1.8059 -0.6978 1.0000
8.9893 -1.7792 -0.6978 1.0000
8.9947 -1.7521 -0.6978 1.0000
9.0052 -1.6984 -0.6979 1.0000
9.0253 -1.5904 -0.6979 1.0000
9.0302 -1.5634 -0.6979 1.0000
9.0487 -1.4552 -0.6979 1.0000
9.0659 -1.3468 -0.6980 1.0000
9.0700 -1.3196 -0.6980 1.0000
9.0740 -1.2926 -0.6980 1.0000
9.0892 -1.1838 -0.6980 1.0000
9.0964 -1.1293 -0.6980 1.0000
9.1097 -1.0203 -0.6981 1.0000
9.1128 -0.9930 -0.6981 1.0000
9.1272 -0.8565 -0.6981 1.0000
9.1298 -0.8293 -0.6981 1.0000
9.1372 -0.7472 -0.6981 1.0000
9.1417 -0.6925 -0.6982 1.0000
9.1459 -0.6377 -0.6982 1.0000
9.1498 -0.5830 -0.6982 1.0000
9.1516 -0.5556 -0.6982 1.0000
9.1533 -0.5282 -0.6982 1.0000
9.1566 -0.4734 -0.6982 1.0000
9.1594 -0.4185 -0.6982 1.0000
9.1608 -0.3912 -0.6983 1.0000
9.1620 -0.3637 -0.6983 1.0000
9.1642 -0.3088 -0.6983 1.0000
9.1652 -0.2814 -0.6983 1.0000
9.1661 -0.2539 -0.6983 1.0000
9.1669 -0.2265 -0.6983 1.0000
9.1683 -0.1716 -0.6983 1.0000
9.1698 -0.0893 -0.6983 1.0000
9.1706 0.0481 -0.6984 1.0000
7.2824 1.7892 -0.6986 1.0000
7.2717 1.8329 -0.6987 1.0000
7.2662 1.8547 -0.6987 1.0000
7.2384 -1.9156 -0.6976 1.0000
7.2499 -1.8723 -0.6976 1.0000
7.2556 -1.8506 -0.6976 1.0000
7.2612 -1.8289 -0.6976 1.0000
7.2775 -1.7636 -0.6976 1.0000
7.3035 -1.6545 -0.6977 1.0000
7.3134 -1.6109 -0.6977 1.0000
7.3182 -1.5889 -0.6977 1.0000
7.3278 -1.5451 -0.6977 1.0000
7.3325 -1.5231 -0.6977 1.0000
7.3370 -1.5012 -0.6977 1.0000
7.3547 -1.4133 -0.6977 1.0000
7.3633 -1.3691 -0.6978 1.0000
7.3674 -1.3472 -0.6978 1.0000
7.3714 -1.3251 -0.6978 1.0000
7.3755 -1.3031 -0.6978 1.0000
7.3794 -1.2810 -0.6978 1.0000
7.3833 -1.2589 -0.6978 1.0000
7.3871 -1.2367 -0.6978 1.0000
7.3908 -1.2147 -0.6978 1.0000
7.3982 -1.1704 -0.6978 1.0000
7.4017 -1.1482 -0.6978 1.0000
7.4052 -1.1262 -0.6978 1.0000
7.4152 -1.0596 -0.6978 1.0000
7.4215 -1.0151 -0.6979 1.0000
7.4276 -0.9707 -0.6979 1.0000
7.4306 -0.9485 -0.6979 1.0000
7.4335 -0.9262 -0.6979 1.0000
7.4362 -0.9039 -0.6979 1.0000
7.4416 -0.8594 -0.6979 1.0000
7.4443 -0.8371 -0.6979 1.0000
7.4469 -0.8148 -0.6979 1.0000
7.4517 -0.7703 -0.6979 1.0000
7.4540 -0.7480 -0.6979 1.0000
7.4563 -0.7257 -0.6979 1.0000
7.4585 -0.7033 -0.6980 1.0000
7.4628 -0.6586 -0.6980 1.0000
7.4667 -0.6141 -0.6980 1.0000
7.4686 -0.5916 -0.6980 1.0000
7.4704 -0.5692 -0.6980 1.0000
7.4721 -0.5468 -0.6980 1.0000
7.4738 -0.5245 -0.6980 1.0000
7.4754 -0.5021 -0.6980 1.0000
7.4799 -0.4349 -0.6980 1.0000
7.4812 -0.4126 -0.6980 1.0000
7.4825 -0.3902 -0.6980 1.0000
7.4837 -0.3677 -0.6981 1.0000
7.4878 -0.2781 -0.6981 1.0000
7.4887 -0.2556 -0.6981 1.0000
7.4895 -0.2333 -0.6981 1.0000
7.4935 -0.0538 -0.6981 1.0000
7.4937 -0.0314 -0.6981 1.0000
7.4938 -0.0089 -0.6982 1.0000
7.4938 0.0360 -0.6982 1.0000
7.4934 0.1033 -0.6982 1.0000
7.4931 0.1257 -0.6982 1.0000
7.4928 0.1482 -0.6982 1.0000
7.4914 0.2155 -0.6982 1.0000
7.4901 0.2603 -0.6982 1.0000
7.4893 0.2828 -0.6982 1.0000
7.4885 0.3052 -0.6982 1.0000
7.4876 0.3277 -0.6983 1.0000
7.4846 0.3948 -0.6983 1.0000
7.4835 0.4173 -0.6983 1.0000
7.4823 0.4398 -0.6983 1.0000
7.4810 0.4621 -0.6983 1.0000
7.4796 0.4846 -0.6983 1.0000
7.4735 0.5742 -0.6983 1.0000
7.4718 0.5965 -0.6983 1.0000
7.4683 0.6413 -0.6983 1.0000
7.4644 0.6859 -0.6983 1.0000
7.4582 0.7531 -0.6984 1.0000
7.4536 0.7976 -0.6984 1.0000
7.4513 0.8201 -0.6984 1.0000
7.4464 0.8646 -0.6984 1.0000
7.4412 0.9092 -0.6984 1.0000
7.4329 0.9761 -0.6984 1.0000
7.4271 1.0206 -0.6984 1.0000
7.4240 1.0428 -0.6984 1.0000
7.4178 1.0873 -0.6985 1.0000
7.4146 1.1094 -0.6985 1.0000
7.4112 1.1316 -0.6985 1.0000
7.3938 1.2427 -0.6985 1.0000
7.3901 1.2648 -0.6985 1.0000
7.3863 1.2868 -0.6985 1.0000
7.3825 1.3091 -0.6985 1.0000
7.3786 1.3312 -0.6985 1.0000
7.3707 1.3754 -0.6985 1.0000
7.3666 1.3974 -0.6985 1.0000
7.3451 1.5076 -0.6986 1.0000
7.3267 1.5955 -0.6986 1.0000
7.3172 1.6394 -0.6986 1.0000
7.3123 1.6613 -0.6986 1.0000
7.3074 1.6833 -0.6986 1.0000
7.2973 1.7271 -0.6986 1.0000
7.2921 1.7488 -0.6986 1.0000
7.2869 1.7708 -0.6986 1.0000
7.2816 1.7925 -0.6986 1.0000
7.2763 1.8144 -0.6986 1.0000
7.2709 1.8360 -0.6987 1.0000
7.2654 1.8579 -0.6987 1.0000
7.2543 1.9015 -0.6987 1.0000
7.2393 -1.9124 -0.6976 1.0000
7.2451 -1.8908 -0.6976 1.0000
7.2564 -1.8474 -0.6976 1.0000
7.2620 -1.8257 -0.6976 1.0000
7.2783 -1.7604 -0.6976 1.0000
7.2836 -1.7386 -0.6976 1.0000
7.2940 -1.6950 -0.6977 1.0000
7.2992 -1.6731 -0.6977 1.0000
7.3042 -1.6513 -0.6977 1.0000
7.3141 -1.6075 -0.6977 1.0000
7.3285 -1.5419 -0.6977 1.0000
7.3331 -1.5199 -0.6977 1.0000
7.3377 -1.4979 -0.6977 1.0000
7.3554 -1.4100 -0.6977 1.0000
7.3638 -1.3660 -0.6978 1.0000
7.3680 -1.3438 -0.6978 1.0000
7.3721 -1.3217 -0.6978 1.0000
7.3800 -1.2777 -0.6978 1.0000
7.3838 -1.2555 -0.6978 1.0000
7.3876 -1.2336 -0.6978 1.0000
7.3914 -1.2114 -0.6978 1.0000
7.4056 -1.1228 -0.6978 1.0000
7.4156 -1.0562 -0.6978 1.0000
7.4188 -1.0340 -0.6979 1.0000
7.4280 -0.9675 -0.6979 1.0000
7.4310 -0.9451 -0.6979 1.0000
7.4367 -0.9006 -0.6979 1.0000
7.4421 -0.8561 -0.6979 1.0000
7.4472 -0.8115 -0.6979 1.0000
7.4497 -0.7892 -0.6979 1.0000
7.4521 -0.7669 -0.6979 1.0000
7.4544 -0.7446 -0.6979 1.0000
7.4567 -0.7223 -0.6979 1.0000
7.4588 -0.7000 -0.6980 1.0000
7.4610 -0.6778 -0.6980 1.0000
7.4670 -0.6107 -0.6980 1.0000
7.4689 -0.5883 -0.6980 1.0000
7.4724 -0.5436 -0.6980 1.0000
7.4741 -0.5211 -0.6980 1.0000
7.4787 -0.4540 -0.6980 1.0000
7.4814 -0.4092 -0.6980 1.0000
7.4827 -0.3869 -0.6980 1.0000
7.4838 -0.3644 -0.6981 1.0000
7.4849 -0.3420 -0.6981 1.0000
7.4879 -0.2748 -0.6981 1.0000
7.4896 -0.2299 -0.6981 1.0000
7.4903 -0.2075 -0.6981 1.0000
7.4910 -0.1851 -0.6981 1.0000
7.4933 -0.0728 -0.6981 1.0000
7.4935 -0.0504 -0.6981 1.0000
7.4938 0.0168 -0.6982 1.0000
6.1394 1.5671 -0.6984 1.0000
6.1347 1.5854 -0.6984 1.0000
6.1124 -1.6373 -0.6975 1.0000
6.1174 -1.6189 -0.6975 1.0000
6.1222 -1.6006 -0.6975 1.0000
6.1271 -1.5823 -0.6975 1.0000
6.1318 -1.5639 -0.6975 1.0000
6.1365 -1.5457 -0.6976 1.0000
6.1503 -1.4904 -0.6976 1.0000
6.1548 -1.4721 -0.6976 1.0000
6.1636 -1.4352 -0.6976 1.0000
6.1679 -1.4168 -0.6976 1.0000
6.1846 -1.3428 -0.6976 1.0000
6.1887 -1.3244 -0.6976 1.0000
6.1927 -1.3057 -0.6976 1.0000
6.2005 -1.2686 -0.6976 1.0000
6.2043 -1.2502 -0.6976 1.0000
6.2081 -1.2315 -0.6977 1.0000
6.2154 -1.1944 -0.6977 1.0000
6.2226 -1.1571 -0.6977 1.0000
6.2261 -1.1385 -0.6977 1.0000
6.2295 -1.1198 -0.6977 1.0000
6.2329 -1.1012 -0.6977 1.0000
6.2362 -1.0825 -0.6977 1.0000
6.2427 -1.0451 -0.6977 1.0000
6.2489 -1.0078 -0.6977 1.0000
6.2520 -0.9891 -0.6977 1.0000
6.2579 -0.9517 -0.6977 1.0000
6.2608 -0.9329 -0.6977 1.0000
6.2636 -0.9141 -0.6977 1.0000
6.2663 -0.8954 -0.6978 1.0000
6.2743 -0.8391 -0.6978 1.0000
6.2768 -0.8203 -0.6978 1.0000
6.2793 -0.8015 -0.6978 1.0000
6.2841 -0.7639 -0.6978 1.0000
6.2909 -0.7075 -0.6978 1.0000
6.2930 -0.6886 -0.6978 1.0000
6.3010 -0.6131 -0.6978 1.0000
6.3029 -0.5943 -0.6978 1.0000
6.3046 -0.5754 -0.6978 1.0000
6.3128 -0.4810 -0.6979 1.0000
6.3170 -0.4243 -0.6979 1.0000
6.3207 -0.3676 -0.6979 1.0000
6.3219 -0.3486 -0.6979 1.0000
6.3229 -0.3296 -0.6979 1.0000
6.3239 -0.3108 -0.6979 1.0000
6.3249 -0.2918 -0.6979 1.0000
6.3266 -0.2539 -0.6979 1.0000
6.3274 -0.2350 -0.6979 1.0000
6.3281 -0.2161 -0.6980 1.0000
6.3294 -0.1781 -0.6980 1.0000
6.3309 -0.1213 -0.6980 1.0000
6.3316 -0.0834 -0.6980 1.0000
6.3319 -0.0644 -0.6980 1.0000
6.3321 -0.0455 -0.6980 1.0000
6.3324 0.0114 -0.6980 1.0000
6.3324 0.0494 -0.6980 1.0000
6.3318 0.1062 -0.6980 1.0000
6.3315 0.1253 -0.6981 1.0000
6.3311 0.1442 -0.6981 1.0000
6.3307 0.1631 -0.6981 1.0000
6.3285 0.2389 -0.6981 1.0000
6.3278 0.2579 -0.6981 1.0000
6.3270 0.2769 -0.6981 1.0000
6.3254 0.3148 -0.6981 1.0000
6.3234 0.3527 -0.6981 1.0000
6.3224 0.3715 -0.6981 1.0000
6.3213 0.3905 -0.6981 1.0000
6.3202 0.4095 -0.6981 1.0000
6.3189 0.4284 -0.6981 1.0000
6.3177 0.4473 -0.6981 1.0000
6.3164 0.4662 -0.6981 1.0000
6.3150 0.4851 -0.6982 1.0000
6.3089 0.5607 -0.6982 1.0000
6.3055 0.5985 -0.6982 1.0000
6.3038 0.6175 -0.6982 1.0000
6.3020 0.6362 -0.6982 1.0000
6.2941 0.7117 -0.6982 1.0000
6.2919 0.7307 -0.6982 1.0000
6.2876 0.7683 -0.6982 1.0000
6.2829 0.8059 -0.6982 1.0000
6.2781 0.8436 -0.6982 1.0000
6.2755 0.8624 -0.6983 1.0000
6.2704 0.8999 -0.6983 1.0000
6.2622 0.9563 -0.6983 1.0000
6.2505 1.0313 -0.6983 1.0000
6.2345 1.1247 -0.6983 1.0000
6.2278 1.1620 -0.6983 1.0000
6.2243 1.1807 -0.6983 1.0000
6.2208 1.1994 -0.6983 1.0000
6.2172 1.2180 -0.6983 1.0000
6.2136 1.2367 -0.6984 1.0000
6.1866 1.3667 -0.6984 1.0000
6.1825 1.3851 -0.6984 1.0000
6.1742 1.4222 -0.6984 1.0000
6.1700 1.4406 -0.6984 1.0000
6.1656 1.4591 -0.6984 1.0000
6.1613 1.4776 -0.6984 1.0000
6.1479 1.5330 -0.6984 1.0000
6.1433 1.5514 -0.6984 1.0000
6.1387 1.5698 -0.6984 1.0000
6.1293 1.6065 -0.6984 1.0000
6.1245 1.6248 -0.6985 1.0000
6.1181 -1.6163 -0.6975 1.0000
6.1230 -1.5979 -0.6975 1.0000
6.1325 -1.5613 -0.6975 1.0000
6.1372 -1.5428 -0.6976 1.0000
6.1465 -1.5062 -0.6976 1.0000
6.1510 -1.4877 -0.6976 1.0000
6.1642 -1.4325 -0.6976 1.0000
6.1728 -1.3955 -0.6976 1.0000
6.1770 -1.3771 -0.6976 1.0000
6.1893 -1.3215 -0.6976 1.0000
6.1972 -1.2844 -0.6976 1.0000
6.2049 -1.2474 -0.6976 1.0000
6.2123 -1.2102 -0.6977 1.0000
6.2160 -1.1915 -0.6977 1.0000
6.2266 -1.1357 -0.6977 1.0000
6.2301 -1.1171 -0.6977 1.0000
6.2367 -1.0797 -0.6977 1.0000
6.2494 -1.0050 -0.6977 1.0000
6.2525 -0.9863 -0.6977 1.0000
6.2583 -0.9488 -0.6977 1.0000
6.2612 -0.9300 -0.6977 1.0000
6.2640 -0.9114 -0.6977 1.0000
6.2667 -0.8926 -0.6978 1.0000
6.2695 -0.8738 -0.6978 1.0000
6.2721 -0.8551 -0.6978 1.0000
6.2747 -0.8363 -0.6978 1.0000
6.2844 -0.7612 -0.6978 1.0000
6.2912 -0.7047 -0.6978 1.0000
6.2933 -0.6858 -0.6978 1.0000
6.2954 -0.6670 -0.6978 1.0000
6.3013 -0.6104 -0.6978 1.0000
6.3049 -0.5727 -0.6979 1.0000
6.3084 -0.5349 -0.6979 1.0000
6.3115 -0.4971 -0.6979 1.0000
6.3130 -0.4782 -0.6979 1.0000
6.3172 -0.4215 -0.6979 1.0000
6.3185 -0.4026 -0.6979 1.0000
6.3210 -0.3647 -0.6979 1.0000
6.3250 -0.2890 -0.6979 1.0000
6.3275 -0.2322 -0.6979 1.0000
6.3289 -0.1943 -0.6980 1.0000
6.3300 -0.1564 -0.6980 1.0000
6.3313 -0.0995 -0.6980 1.0000
6.3319 -0.0616 -0.6980 1.0000
6.3321 -0.0426 -0.6980 1.0000
6.3323 -0.0047 -0.6980 1.0000
6.3324 0.0143 -0.6980 1.0000
6.3324 0.0332 -0.6980 1.0000
5.3204 1.3242 -0.6983 1.0000
5.3165 1.3401 -0.6983 1.0000
5.3084 1.3719 -0.6983 1.0000
5.3043 1.3878 -0.6983 1.0000
5.2943 -1.4011 -0.6975 1.0000
5.3027 -1.3694 -0.6975 1.0000
5.3109 -1.3377 -0.6975 1.0000
5.3149 -1.3217 -0.6975 1.0000
5.3189 -1.3059 -0.6975 1.0000
5.3267 -1.2739 -0.6975 1.0000
5.3305 -1.2580 -0.6975 1.0000
5.3560 -1.1461 -0.6976 1.0000
5.3594 -1.1300 -0.6976 1.0000
5.3628 -1.1140 -0.6976 1.0000
5.3727 -1.0658 -0.6976 1.0000
5.3791 -1.0337 -0.6976 1.0000
5.3912 -0.9692 -0.6976 1.0000
5.3970 -0.9369 -0.6976 1.0000
5.4080 -0.8721 -0.6977 1.0000
5.4106 -0.8560 -0.6977 1.0000
5.4132 -0.8397 -0.6977 1.0000
5.4207 -0.7911 -0.6977 1.0000
5.4403 -0.6448 -0.6977 1.0000
5.4422 -0.6285 -0.6977 1.0000
5.4460 -0.5960 -0.6977 1.0000
5.4561 -0.4980 -0.6978 1.0000
5.4618 -0.4327 -0.6978 1.0000
5.4656 -0.3836 -0.6978 1.0000
5.4689 -0.3344 -0.6978 1.0000
5.4709 -0.3017 -0.6978 1.0000
5.4735 -0.2525 -0.6978 1.0000
5.4763 -0.1869 -0.6979 1.0000
5.4773 -0.1542 -0.6979 1.0000
5.4783 -0.1213 -0.6979 1.0000
5.4787 -0.1050 -0.6979 1.0000
5.4789 -0.0885 -0.6979 1.0000
5.4793 -0.0722 -0.6979 1.0000
5.4795 -0.0557 -0.6979 1.0000
5.4797 -0.0393 -0.6979 1.0000
5.4798 -0.0229 -0.6979 1.0000
5.4799 0.0099 -0.6979 1.0000
5.4799 0.0264 -0.6979 1.0000
5.4797 0.0591 -0.6979 1.0000
5.4793 0.0920 -0.6979 1.0000
5.4791 0.1084 -0.6979 1.0000
5.4787 0.1247 -0.6979 1.0000
5.4784 0.1412 -0.6980 1.0000
5.4780 0.1576 -0.6980 1.0000
5.4775 0.1740 -0.6980 1.0000
5.4770 0.1904 -0.6980 1.0000
5.4764 0.2069 -0.6980 1.0000
5.4752 0.2396 -0.6980 1.0000
5.4745 0.2560 -0.6980 1.0000
5.4737 0.2725 -0.6980 1.0000
5.4721 0.3052 -0.6980 1.0000
5.4712 0.3215 -0.6980 1.0000
5.4681 0.3707 -0.6980 1.0000
5.4647 0.4198 -0.6980 1.0000
5.4635 0.4361 -0.6980 1.0000
5.4608 0.4688 -0.6980 1.0000
5.4595 0.4853 -0.6980 1.0000
5.4580 0.5016 -0.6981 1.0000
5.4550 0.5342 -0.6981 1.0000
5.4534 0.5505 -0.6981 1.0000
5.4517 0.5670 -0.6981 1.0000
5.4465 0.6159 -0.6981 1.0000
5.4447 0.6322 -0.6981 1.0000
5.4428 0.6485 -0.6981 1.0000
5.4389 0.6811 -0.6981 1.0000
5.4327 0.7299 -0.6981 1.0000
5.4305 0.7462 -0.6981 1.0000
5.4260 0.7787 -0.6981 1.0000
5.4237 0.7950 -0.6981 1.0000
5.4213 0.8113 -0.6981 1.0000
5.4189 0.8274 -0.6981 1.0000
5.4164 0.8438 -0.6981 1.0000
5.4113 0.8762 -0.6982 1.0000
5.4087 0.8924 -0.6982 1.0000
5.4060 0.9085 -0.6982 1.0000
5.4033 0.9248 -0.6982 1.0000
5.3978 0.9571 -0.6982 1.0000
5.3949 0.9732 -0.6982 1.0000
5.3920 0.9894 -0.6982 1.0000
5.3890 1.0055 -0.6982 1.0000
5.3860 1.0216 -0.6982 1.0000
5.3736 1.0862 -0.6982 1.0000
5.3637 1.1344 -0.6982 1.0000
5.3569 1.1665 -0.6982 1.0000
5.3534 1.1826 -0.6982 1.0000
5.3498 1.1986 -0.6982 1.0000
5.3463 1.2146 -0.6982 1.0000
5.3426 1.2307 -0.6982 1.0000
5.3389 1.2466 -0.6982 1.0000
5.3352 1.2626 -0.6983 1.0000
5.3276 1.2946 -0.6983 1.0000
5.3198 1.3265 -0.6983 1.0000
5.3158 1.3423 -0.6983 1.0000
5.3118 1.3584 -0.6983 1.0000
5.2907 -1.4146 -0.6975 1.0000
5.2949 -1.3987 -0.6975 1.0000
5.2992 -1.3829 -0.6975 1.0000
5.3033 -1.3671 -0.6975 1.0000
5.3115 -1.3353 -0.6975 1.0000
5.3234 -1.2876 -0.6975 1.0000
5.3310 -1.2557 -0.6975 1.0000
5.3348 -1.2397 -0.6975 1.0000
5.3386 -1.2238 -0.6975 1.0000
5.3422 -1.2078 -0.6976 1.0000
5.3459 -1.1917 -0.6976 1.0000
5.3495 -1.1757 -0.6976 1.0000
5.3530 -1.1598 -0.6976 1.0000
5.3565 -1.1437 -0.6976 1.0000
5.3633 -1.1116 -0.6976 1.0000
