ply
format ascii 1.0
element vertex 1606
property float32 x
property float32 y
property float32 z
property float32 I
end_header
50.0941 10.3431 10.0623 1.0000
50.0941 10.8134 10.0814 1.0000
50.0941 10.9705 10.0880 1.0000
50.0941 11.1278 10.0946 1.0000
50.0941 11.4431 10.1082 1.0000
50.0941 11.6011 10.1152 1.0000
50.0941 11.7593 10.1223 1.0000
50.0941 11.9177 10.1294 1.0000
50.0941 12.0763 10.1367 1.0000
50.0941 12.3943 10.1516 1.0000
50.0941 12.8730 10.1746 1.0000
50.0941 13.1934 10.1905 1.0000
50.0941 13.3540 10.1985 1.0000
50.0941 -13.0098 10.1813 1.0000
50.0941 -12.8498 10.1735 1.0000
50.0940 -12.5304 10.1580 1.0000
50.0940 -12.3711 10.1505 1.0000
50.0941 -12.0532 10.1357 1.0000
50.0940 -11.5780 10.1142 1.0000
50.0941 -11.4201 10.1072 1.0000
50.0940 -11.1049 10.0937 1.0000
50.0941 -10.6336 10.0740 1.0000
50.0940 -10.4769 10.0676 1.0000
50.0940 -10.3204 10.0614 1.0000
50.0940 -10.1641 10.0552 1.0000
50.0941 -10.0080 10.0491 1.0000
50.0940 -9.6963 10.0373 1.0000
50.0941 -8.9202 10.0094 1.0000
50.0941 -8.7655 10.0041 1.0000
50.0941 -8.6110 9.9989 1.0000
50.0941 -8.4566 9.9938 1.0000
50.0940 -8.1483 9.9839 1.0000
50.0941 -7.9943 9.9791 1.0000
50.0940 -7.8405 9.9744 1.0000
50.0941 -7.6869 9.9698 1.0000
50.0941 -7.5334 9.9652 1.0000
50.0939 -7.3800 9.9608 1.0000
50.0939 -7.2268 9.9564 1.0000
50.0939 -7.0737 9.9522 1.0000
50.0939 -6.9208 9.9480 1.0000
50.0939 -6.6152 9.9400 1.0000
50.0939 -4.9427 9.9023 1.0000
50.0939 -4.4886 9.8939 1.0000
50.0939 -4.1863 9.8888 1.0000
50.0939 -4.0352 9.8863 1.0000
50.0939 -3.8843 9.8840 1.0000
50.0939 -3.4318 9.8775 1.0000
50.0939 -3.2811 9.8755 1.0000
50.0939 -2.9798 9.8718 1.0000
50.0939 -2.8293 9.8701 1.0000
50.0940 -2.6788 9.8685 1.0000
50.0940 -2.5283 9.8669 1.0000
50.0940 -2.2276 9.8641 1.0000
50.0939 -2.0773 9.8629 1.0000
50.0940 -1.7767 9.8606 1.0000
50.0940 -1.6265 9.8596 1.0000
50.0940 -1.4763 9.8587 1.0000
50.0940 -1.1760 9.8571 1.0000
50.0940 -0.8759 9.8559 1.0000
50.0940 -0.5757 9.8551 1.0000
50.0940 -0.4257 9.8548 1.0000
50.0940 -0.2756 9.8546 1.0000
50.0940 -0.1256 9.8544 1.0000
50.0940 0.0245 9.8544 1.0000
50.0940 0.1745 9.8545 1.0000
50.0940 0.3245 9.8546 1.0000
50.0940 0.4745 9.8548 1.0000
50.0940 0.6246 9.8552 1.0000
50.0940 1.0748 9.8567 1.0000
50.0940 1.9759 9.8621 1.0000
50.0940 2.1262 9.8633 1.0000
50.0940 2.2766 9.8646 1.0000
50.0940 2.5773 9.8674 1.0000
50.0940 2.7278 9.8690 1.0000
50.0940 2.8782 9.8707 1.0000
50.0940 3.0288 9.8724 1.0000
50.0940 3.1795 9.8742 1.0000
50.0940 3.3301 9.8762 1.0000
50.0940 3.4808 9.8782 1.0000
50.0940 3.6316 9.8803 1.0000
50.0940 4.0844 9.8871 1.0000
50.0940 4.2355 9.8896 1.0000
50.0940 4.8405 9.9003 1.0000
50.0940 5.2952 9.9093 1.0000
50.0940 5.4470 9.9125 1.0000
50.0940 5.5988 9.9158 1.0000
50.0940 5.7508 9.9191 1.0000
50.0940 5.9029 9.9226 1.0000
50.0940 6.3598 9.9335 1.0000
50.0940 6.8177 9.9452 1.0000
50.0940 6.9705 9.9494 1.0000
50.0940 7.5833 9.9667 1.0000
50.0940 7.7368 9.9713 1.0000
50.0940 8.0444 9.9807 1.0000
50.0940 8.1984 9.9855 1.0000
50.0940 8.6612 10.0006 1.0000
50.0940 8.8158 10.0058 1.0000
50.0940 8.9706 10.0112 1.0000
50.0940 9.1255 10.0166 1.0000
50.0940 9.2806 10.0221 1.0000
50.0941 9.4359 10.0277 1.0000
50.0941 10.2149 10.0572 1.0000
50.0941 10.3713 10.0634 1.0000
50.0941 10.5279 10.0697 1.0000
50.0941 10.6846 10.0761 1.0000
50.0941 11.4715 10.1095 1.0000
50.0941 11.6295 10.1165 1.0000
50.0941 11.7877 10.1236 1.0000
50.0941 12.1049 10.1380 1.0000
50.0941 13.0619 10.1839 1.0000
50.0941 -13.3017 10.1959 1.0000
50.0941 -12.8210 10.1720 1.0000
50.0940 -12.6613 10.1643 1.0000
50.0941 -12.0247 10.1343 1.0000
50.0941 -11.8661 10.1271 1.0000
50.0940 -11.3918 10.1060 1.0000
50.0941 -11.2341 10.0992 1.0000
50.0940 -11.0766 10.0925 1.0000
50.0941 -10.9193 10.0858 1.0000
50.0940 -10.6054 10.0728 1.0000
50.0941 -10.4487 10.0665 1.0000
50.0940 -10.2922 10.0603 1.0000
50.0940 -9.9799 10.0481 1.0000
50.0940 -9.8240 10.0421 1.0000
50.0941 -9.5128 10.0305 1.0000
50.0940 -9.3574 10.0249 1.0000
50.0941 -9.2023 10.0193 1.0000
50.0941 -9.0472 10.0138 1.0000
50.0941 -8.7377 10.0032 1.0000
50.0940 -8.4288 9.9929 1.0000
50.0941 -8.1206 9.9831 1.0000
50.0940 -7.6593 9.9689 1.0000
50.0941 -7.5058 9.9644 1.0000
50.0939 -7.0462 9.9514 1.0000
50.0939 -6.4352 9.9354 1.0000
50.0939 -5.9781 9.9243 1.0000
50.0939 -5.8261 9.9208 1.0000
50.0939 -5.5221 9.9141 1.0000
50.0939 -5.2186 9.9077 1.0000
50.0939 -5.0670 9.9047 1.0000
50.0939 -4.7641 9.8989 1.0000
50.0939 -4.4614 9.8934 1.0000
50.0939 -4.3102 9.8908 1.0000
50.0939 -4.0080 9.8859 1.0000
50.0939 -3.5554 9.8792 1.0000
50.0939 -3.4046 9.8771 1.0000
50.0939 -3.1033 9.8733 1.0000
50.0939 -2.9527 9.8715 1.0000
50.0939 -2.5013 9.8667 1.0000
50.0939 -2.3509 9.8653 1.0000
50.0940 -2.2005 9.8639 1.0000
50.0940 -2.0502 9.8627 1.0000
50.0940 -1.8999 9.8615 1.0000
50.0940 -1.7497 9.8604 1.0000
50.0940 -1.4493 9.8585 1.0000
50.0940 -1.2992 9.8577 1.0000
50.0940 -0.9989 9.8564 1.0000
50.0940 -0.8489 9.8558 1.0000
50.0940 -0.5487 9.8550 1.0000
50.0940 0.0514 9.8544 1.0000
50.0940 0.3515 9.8547 1.0000
50.0940 0.5016 9.8549 1.0000
50.0940 0.6516 9.8552 1.0000
50.0940 0.8016 9.8557 1.0000
50.0940 0.9517 9.8562 1.0000
50.0940 1.1018 9.8568 1.0000
50.0940 1.7986 8.9842 1.0000
50.0940 1.9489 8.9852 1.0000
50.0940 2.0991 8.9863 1.0000
50.0940 2.2495 8.9874 1.0000
50.0940 2.3998 8.9887 1.0000
50.0940 2.7007 8.9914 1.0000
50.0940 3.0017 8.9945 1.0000
50.0940 3.1523 8.9962 1.0000
50.0940 3.4537 8.9997 1.0000
50.0940 3.6045 9.0016 1.0000
50.0940 3.7553 9.0036 1.0000
50.0940 4.0572 9.0078 1.0000
50.0940 4.3594 9.0123 1.0000
50.0940 4.6619 9.0172 1.0000
50.0940 4.8132 9.0197 1.0000
50.0940 4.9647 9.0224 1.0000
50.0940 5.2679 9.0279 1.0000
50.0940 5.5715 9.0338 1.0000
50.0940 5.8755 9.0399 1.0000
50.0940 6.4848 9.0533 1.0000
50.0940 6.9430 9.0642 1.0000
50.0940 7.2491 9.0719 1.0000
50.0940 7.5557 9.0799 1.0000
50.0940 7.7093 9.0841 1.0000
50.0940 7.8629 9.0883 1.0000
50.0940 8.6334 9.1108 1.0000
50.0940 9.2527 9.1303 1.0000
50.0940 9.5633 9.1405 1.0000
50.0940 10.1868 9.1622 1.0000
50.0940 10.4996 9.1735 1.0000
50.0940 10.8133 9.1852 1.0000
50.0940 10.9704 9.1912 1.0000
50.0940 11.2854 9.2034 1.0000
50.0940 11.7593 9.2225 1.0000
50.0940 11.9177 9.2290 1.0000
50.0940 12.0763 9.2356 1.0000
50.0940 12.3943 9.2491 1.0000
50.0940 12.7132 9.2630 1.0000
50.0940 12.8730 9.2701 1.0000
50.0940 13.0331 9.2773 1.0000
50.0940 13.1934 9.2846 1.0000
50.0940 13.3540 9.2920 1.0000
50.0941 -13.1701 9.2835 1.0000
50.0941 -12.6900 9.2620 1.0000
50.0941 -12.5304 9.2550 1.0000
50.0941 -12.3712 9.2481 1.0000
50.0941 -11.5781 9.2151 1.0000
50.0940 -11.2624 9.2025 1.0000
50.0940 -10.7905 9.1843 1.0000
50.0940 -10.3204 9.1670 1.0000
50.0940 -10.1641 9.1613 1.0000
50.0940 -10.0080 9.1558 1.0000
50.0940 -9.6963 9.1450 1.0000
50.0940 -9.2301 9.1295 1.0000
50.0940 -8.9202 9.1196 1.0000
50.0940 -7.9943 9.0920 1.0000
50.0939 -7.2268 9.0713 1.0000
50.0939 -6.6152 9.0563 1.0000
50.0939 -6.1578 9.0460 1.0000
50.0939 -5.8534 9.0395 1.0000
50.0939 -5.3977 9.0304 1.0000
50.0939 -4.9427 9.0220 1.0000
50.0939 -4.7912 9.0194 1.0000
50.0939 -3.8843 9.0053 1.0000
50.0939 -3.7334 9.0033 1.0000
50.0939 -3.4318 8.9994 1.0000
50.0939 -3.2811 8.9976 1.0000
50.0939 -3.1304 8.9959 1.0000
50.0940 -2.8293 8.9927 1.0000
50.0940 -2.5283 8.9898 1.0000
50.0939 -2.3779 8.9885 1.0000
50.0940 -1.7768 8.9840 1.0000
50.0940 -1.6265 8.9831 1.0000
50.0940 -1.4764 8.9823 1.0000
50.0940 -1.3262 8.9815 1.0000
50.0940 -1.0260 8.9803 1.0000
50.0940 -0.8759 8.9798 1.0000
50.0940 -0.7258 8.9793 1.0000
50.0940 -0.5757 8.9790 1.0000
50.0940 -0.4257 8.9787 1.0000
50.0940 0.0244 8.9784 1.0000
50.0940 0.1744 8.9784 1.0000
50.0940 0.3245 8.9786 1.0000
50.0940 0.6246 8.9791 1.0000
50.0940 0.7746 8.9795 1.0000
50.0940 1.5252 8.9825 1.0000
50.0940 1.9759 8.9854 1.0000
50.0940 2.1261 8.9865 1.0000
50.0940 2.4268 8.9889 1.0000
50.0940 2.5773 8.9903 1.0000
50.0940 2.7277 8.9917 1.0000
50.0940 2.8782 8.9932 1.0000
50.0940 3.1794 8.9965 1.0000
50.0940 3.4808 9.0000 1.0000
50.0940 3.6316 9.0020 1.0000
50.0940 4.0844 9.0082 1.0000
50.0940 4.2354 9.0104 1.0000
50.0940 4.9920 9.0229 1.0000
50.0940 5.1436 9.0256 1.0000
50.0940 5.2952 9.0284 1.0000
50.0940 5.5989 9.0343 1.0000
50.0940 5.7508 9.0374 1.0000
50.0940 6.0550 9.0437 1.0000
50.0940 6.3597 9.0505 1.0000
50.0940 6.5122 9.0539 1.0000
50.0940 6.6649 9.0575 1.0000
50.0940 6.8176 9.0612 1.0000
50.0940 7.2766 9.0726 1.0000
50.0940 7.7368 9.0848 1.0000
50.0940 8.1984 9.0978 1.0000
50.0940 8.5068 9.1069 1.0000
50.0940 8.8158 9.1164 1.0000
50.0940 8.9706 9.1212 1.0000
50.0940 9.2806 9.1312 1.0000
50.0940 9.4359 9.1363 1.0000
50.0940 9.5913 9.1415 1.0000
50.0940 10.0588 9.1576 1.0000
50.0940 10.2149 9.1632 1.0000
50.0940 10.5279 9.1745 1.0000
50.0940 10.6846 9.1804 1.0000
50.0940 10.8416 9.1863 1.0000
50.0940 10.9987 9.1923 1.0000
50.0940 11.1561 9.1984 1.0000
50.0940 11.3137 9.2045 1.0000
50.0940 11.4715 9.2108 1.0000
50.0940 11.7878 9.2236 1.0000
50.0940 11.9462 9.2302 1.0000
50.0940 12.2638 9.2435 1.0000
50.0940 12.5823 9.2573 1.0000
50.0940 12.7420 9.2643 1.0000
50.0940 12.9018 9.2714 1.0000
50.0940 13.2223 9.2859 1.0000
50.0940 13.3829 9.2933 1.0000
50.0941 -13.1412 9.2822 1.0000
50.0941 -12.9810 9.2749 1.0000
50.0941 -12.6613 9.2607 1.0000
50.0941 -12.3425 9.2469 1.0000
50.0941 -11.7078 9.2204 1.0000
50.0941 -11.5497 9.2139 1.0000
50.0941 -11.3918 9.2076 1.0000
50.0940 -10.2923 9.1659 1.0000
50.0940 -9.9799 9.1548 1.0000
50.0940 -9.5127 9.1389 1.0000
50.0940 -9.3574 9.1337 1.0000
50.0940 -9.0472 9.1236 1.0000
50.0940 -8.7377 9.1140 1.0000
50.0940 -8.5832 9.1092 1.0000
50.0940 -8.4288 9.1046 1.0000
50.0940 -8.2746 9.1001 1.0000
50.0940 -8.1205 9.0956 1.0000
50.0940 -7.9666 9.0912 1.0000
50.0940 -7.6593 9.0827 1.0000
50.0941 -7.5058 9.0786 1.0000
50.0939 -7.1993 9.0706 1.0000
50.0939 -6.5878 9.0557 1.0000
50.0939 -6.2827 9.0487 1.0000
50.0939 -5.9782 9.0421 1.0000
50.0940 -5.8261 9.0389 1.0000
50.0939 -5.6740 9.0358 1.0000
50.0939 -4.9155 9.0215 1.0000
50.0939 -4.6127 9.0164 1.0000
50.0939 -4.3102 9.0116 1.0000
50.0939 -3.8571 9.0050 1.0000
50.0939 -3.4046 8.9991 1.0000
50.0939 -3.2540 8.9973 1.0000
50.0939 -3.1033 8.9956 1.0000
50.0939 -2.9528 8.9940 1.0000
50.0940 -2.8022 8.9924 1.0000
50.0940 -2.6517 8.9910 1.0000
50.0939 -2.3509 8.9883 1.0000
50.0940 -2.2005 8.9870 1.0000
50.0940 -2.0502 8.9859 1.0000
50.0940 -1.5995 8.9830 1.0000
50.0940 -1.2992 8.9814 1.0000
50.0940 -1.1491 8.9808 1.0000
50.0940 -0.9989 8.9802 1.0000
50.0940 -0.8489 8.9797 1.0000
50.0940 -0.2487 8.9785 1.0000
50.0940 -0.0986 8.9784 1.0000
50.0940 0.0514 8.9784 1.0000
50.0940 0.6516 8.9791 1.0000
50.0940 1.1018 8.9806 1.0000
50.0939 2.2495 8.1158 1.0000
50.0939 2.3998 8.1169 1.0000
50.0939 2.5502 8.1182 1.0000
50.0939 2.8512 8.1208 1.0000
50.0939 3.1523 8.1237 1.0000
50.0940 3.3030 8.1253 1.0000
50.0940 3.4537 8.1269 1.0000
50.0940 3.7553 8.1304 1.0000
50.0939 3.9063 8.1323 1.0000
50.0940 4.5106 8.1405 1.0000
50.0940 4.9647 8.1474 1.0000
50.0940 5.1163 8.1498 1.0000
50.0940 6.1799 8.1691 1.0000
50.0940 6.3323 8.1722 1.0000
50.0940 6.4848 8.1753 1.0000
50.0940 6.9430 8.1852 1.0000
50.0939 7.0959 8.1886 1.0000
50.0940 7.2491 8.1921 1.0000
50.0940 7.4023 8.1957 1.0000
50.0940 7.7092 8.2031 1.0000
50.0940 8.0167 8.2108 1.0000
50.0940 8.3247 8.2188 1.0000
50.0940 8.4790 8.2230 1.0000
50.0939 8.7880 8.2315 1.0000
50.0940 8.9427 8.2358 1.0000
50.0940 9.8747 8.2637 1.0000
50.0940 10.0307 8.2686 1.0000
50.0939 10.1868 8.2736 1.0000
50.0939 10.4997 8.2838 1.0000
50.0940 10.8133 8.2944 1.0000
50.0939 11.1278 8.3053 1.0000
50.0939 11.4431 8.3165 1.0000
50.0939 11.6011 8.3222 1.0000
50.0939 11.7593 8.3281 1.0000
50.0939 12.0763 8.3399 1.0000
50.0939 12.3943 8.3521 1.0000
50.0939 12.5536 8.3584 1.0000
50.0939 12.8730 8.3711 1.0000
50.0940 13.1934 8.3841 1.0000
50.0940 13.3540 8.3908 1.0000
50.0940 -13.3306 8.3898 1.0000
50.0940 -13.0098 8.3766 1.0000
50.0940 -12.8497 8.3701 1.0000
50.0940 -12.6900 8.3638 1.0000
50.0940 -12.5304 8.3575 1.0000
50.0940 -12.3711 8.3512 1.0000
50.0940 -11.8946 8.3331 1.0000
50.0940 -11.7362 8.3272 1.0000
50.0940 -11.4201 8.3157 1.0000
50.0940 -10.9476 8.2990 1.0000
50.0940 -10.7905 8.2936 1.0000
50.0940 -10.3204 8.2779 1.0000
50.0940 -10.1641 8.2729 1.0000
50.0940 -9.8520 8.2630 1.0000
50.0940 -9.5407 8.2534 1.0000
50.0940 -9.2301 8.2441 1.0000
50.0940 -9.0751 8.2396 1.0000
50.0940 -8.7655 8.2308 1.0000
50.0940 -8.6109 8.2266 1.0000
50.0940 -8.3023 8.2183 1.0000
50.0940 -8.1482 8.2142 1.0000
50.0940 -7.9943 8.2103 1.0000
50.0940 -7.8405 8.2064 1.0000
50.0940 -7.6868 8.2026 1.0000
50.0940 -7.5334 8.1988 1.0000
50.0939 -7.2268 8.1916 1.0000
50.0939 -7.0737 8.1881 1.0000
50.0939 -6.7679 8.1813 1.0000
50.0939 -6.6152 8.1780 1.0000
50.0939 -6.3101 8.1717 1.0000
50.0939 -5.8534 8.1628 1.0000
50.0939 -5.5494 8.1573 1.0000
50.0939 -5.3976 8.1546 1.0000
50.0939 -4.7912 8.1447 1.0000
50.0939 -4.4886 8.1401 1.0000
50.0939 -4.3374 8.1380 1.0000
50.0939 -4.0352 8.1339 1.0000
50.0939 -3.4318 8.1267 1.0000
50.0939 -3.1304 8.1235 1.0000
50.0939 -2.9798 8.1220 1.0000
50.0939 -2.8293 8.1206 1.0000
50.0939 -2.5283 8.1180 1.0000
50.0939 -2.3779 8.1168 1.0000
50.0939 -2.0773 8.1146 1.0000
50.0939 -1.7767 8.1128 1.0000
50.0939 -1.6266 8.1119 1.0000
50.0939 -1.4764 8.1112 1.0000
50.0939 -0.5757 8.1082 1.0000
50.0939 -0.4257 8.1080 1.0000
50.0939 -0.2757 8.1078 1.0000
50.0939 -0.1256 8.1077 1.0000
50.0939 0.1745 8.1077 1.0000
50.0939 0.3245 8.1078 1.0000
50.0939 0.4745 8.1080 1.0000
50.0939 0.6246 8.1083 1.0000
50.0939 0.9247 8.1090 1.0000
50.0939 1.0748 8.1095 1.0000
50.0939 1.2249 8.1101 1.0000
50.0939 1.6754 8.1122 1.0000
50.0939 1.9759 8.1140 1.0000
50.0939 2.1262 8.1150 1.0000
50.0940 2.2765 8.1160 1.0000
50.0939 2.7277 8.1197 1.0000
50.0939 2.8783 8.1210 1.0000
50.0940 3.9334 8.1326 1.0000
50.0940 4.0843 8.1346 1.0000
50.0939 4.2355 8.1366 1.0000
50.0940 4.5378 8.1409 1.0000
50.0940 4.9920 8.1478 1.0000
50.0939 5.4470 8.1554 1.0000
50.0940 5.7508 8.1609 1.0000
50.0940 5.9029 8.1638 1.0000
50.0940 6.3597 8.1727 1.0000
50.0939 6.8176 8.1824 1.0000
50.0940 7.1234 8.1892 1.0000
50.0940 7.2766 8.1927 1.0000
50.0940 7.5833 8.2000 1.0000
50.0939 7.8905 8.2076 1.0000
50.0939 8.1984 8.2155 1.0000
50.0939 8.3525 8.2196 1.0000
50.0940 8.5067 8.2237 1.0000
50.0940 8.6612 8.2280 1.0000
50.0939 8.8158 8.2323 1.0000
50.0939 8.9705 8.2366 1.0000
50.0940 9.1255 8.2411 1.0000
50.0940 9.2806 8.2456 1.0000
50.0940 9.7470 8.2597 1.0000
50.0940 9.9027 8.2646 1.0000
50.0939 10.0588 8.2695 1.0000
50.0940 10.3713 8.2796 1.0000
50.0939 10.5279 8.2848 1.0000
50.0940 10.8416 8.2954 1.0000
50.0939 10.9987 8.3008 1.0000
50.0939 11.1561 8.3063 1.0000
50.0939 11.3137 8.3119 1.0000
50.0939 11.4715 8.3175 1.0000
50.0939 11.6295 8.3233 1.0000
50.0939 11.9462 8.3350 1.0000
50.0939 12.1048 8.3410 1.0000
50.0939 12.5823 8.3595 1.0000
50.0939 12.7420 8.3658 1.0000
50.0940 -13.1412 8.3820 1.0000
50.0940 -12.9810 8.3755 1.0000
50.0940 -12.8210 8.3690 1.0000
50.0940 -12.6613 8.3626 1.0000
50.0940 -12.0246 8.3380 1.0000
50.0940 -11.3918 8.3147 1.0000
50.0940 -10.7622 8.2927 1.0000
50.0940 -10.6054 8.2874 1.0000
50.0940 -10.4487 8.2822 1.0000
50.0940 -10.1360 8.2720 1.0000
50.0940 -9.9799 8.2670 1.0000
50.0940 -9.5127 8.2526 1.0000
50.0940 -9.3574 8.2479 1.0000
50.0940 -9.2022 8.2433 1.0000
50.0940 -9.0472 8.2388 1.0000
50.0940 -8.8923 8.2344 1.0000
50.0940 -8.5832 8.2258 1.0000
50.0940 -8.2746 8.2175 1.0000
50.0940 -7.9666 8.2096 1.0000
50.0939 -7.3525 8.1945 1.0000
50.0939 -6.8932 8.1841 1.0000
50.0939 -6.2827 8.1712 1.0000
50.0939 -6.1304 8.1681 1.0000
50.0939 -5.9781 8.1652 1.0000
50.0939 -5.8260 8.1623 1.0000
50.0939 -5.5221 8.1568 1.0000
50.0939 -5.3703 8.1541 1.0000
50.0939 -5.2186 8.1515 1.0000
50.0939 -4.9154 8.1466 1.0000
50.0939 -4.6126 8.1420 1.0000
50.0939 -4.4614 8.1397 1.0000
50.0939 -4.3102 8.1376 1.0000
50.0939 -4.1591 8.1356 1.0000
50.0939 -4.0080 8.1336 1.0000
50.0939 -3.8571 8.1317 1.0000
50.0939 -3.7062 8.1298 1.0000
50.0939 -3.5554 8.1281 1.0000
50.0939 -3.4046 8.1264 1.0000
50.0939 -3.2539 8.1247 1.0000
50.0939 -3.1033 8.1232 1.0000
50.0939 -2.5013 8.1177 1.0000
50.0939 -2.2005 8.1155 1.0000
50.0939 -1.5995 8.1118 1.0000
50.0939 -1.4494 8.1110 1.0000
50.0939 -0.8489 8.1088 1.0000
50.0939 -0.3987 8.1079 1.0000
50.0939 -0.2487 8.1078 1.0000
50.0939 0.5015 8.1081 1.0000
50.0939 0.6516 8.1083 1.0000
50.0939 0.8016 8.1087 1.0000
50.0939 0.9517 8.1091 1.0000
50.0939 1.1018 8.1096 1.0000
50.0940 1.7986 7.2463 1.0000
50.0940 1.9488 7.2472 1.0000
50.0940 2.0991 7.2480 1.0000
50.0940 2.3998 7.2500 1.0000
50.0940 2.8511 7.2534 1.0000
50.0940 3.0017 7.2547 1.0000
50.0940 3.1523 7.2560 1.0000
50.0940 3.3029 7.2574 1.0000
50.0940 3.4536 7.2589 1.0000
50.0940 3.7553 7.2620 1.0000
50.0940 4.0571 7.2654 1.0000
50.0940 4.5106 7.2710 1.0000
50.0940 4.6619 7.2730 1.0000
50.0940 4.8132 7.2750 1.0000
50.0940 4.9647 7.2771 1.0000
50.0940 5.1163 7.2794 1.0000
50.0940 5.2679 7.2816 1.0000
50.0940 5.4196 7.2839 1.0000
50.0940 5.8755 7.2913 1.0000
50.0939 6.0277 7.2939 1.0000
50.0940 6.3323 7.2993 1.0000
50.0940 6.6374 7.3050 1.0000
50.0940 6.9430 7.3109 1.0000
50.0939 7.5557 7.3236 1.0000
50.0940 7.7092 7.3269 1.0000
50.0940 8.0167 7.3338 1.0000
50.0940 8.6334 7.3484 1.0000
50.0939 8.7880 7.3523 1.0000
50.0940 9.0976 7.3601 1.0000
50.0939 9.5633 7.3725 1.0000
50.0940 10.1868 7.3899 1.0000
50.0940 10.4996 7.3990 1.0000
50.0940 10.8133 7.4085 1.0000
50.0939 10.9704 7.4133 1.0000
50.0939 11.2854 7.4232 1.0000
50.0940 11.7592 7.4385 1.0000
50.0940 11.9177 7.4438 1.0000
50.0939 12.2352 7.4546 1.0000
50.0940 12.5536 7.4656 1.0000
50.0939 12.8730 7.4770 1.0000
50.0940 13.0331 7.4828 1.0000
50.0940 13.1934 7.4886 1.0000
50.0940 13.3539 7.4946 1.0000
50.0940 -13.1701 7.4878 1.0000
50.0940 -13.0098 7.4819 1.0000
50.0940 -12.3712 7.4592 1.0000
50.0940 -12.0533 7.4484 1.0000
50.0940 -11.7362 7.4378 1.0000
50.0940 -11.5781 7.4326 1.0000
50.0940 -11.2624 7.4225 1.0000
50.0940 -10.9476 7.4126 1.0000
50.0940 -10.7905 7.4078 1.0000
50.0940 -10.6336 7.4030 1.0000
50.0940 -9.8520 7.3804 1.0000
50.0940 -9.6963 7.3761 1.0000
50.0940 -9.5407 7.3719 1.0000
50.0940 -9.3854 7.3677 1.0000
50.0940 -8.9202 7.3556 1.0000
50.0940 -8.7655 7.3517 1.0000
50.0940 -8.6110 7.3479 1.0000
50.0940 -8.3023 7.3405 1.0000
50.0940 -8.1483 7.3369 1.0000
50.0940 -7.9943 7.3333 1.0000
50.0940 -7.6869 7.3264 1.0000
50.0940 -7.5334 7.3231 1.0000
50.0939 -6.9207 7.3105 1.0000
50.0939 -6.7679 7.3075 1.0000
50.0939 -6.4626 7.3017 1.0000
50.0939 -6.3102 7.2989 1.0000
50.0939 -6.1578 7.2962 1.0000
50.0939 -6.0055 7.2935 1.0000
50.0939 -5.8534 7.2909 1.0000
50.0939 -5.5495 7.2860 1.0000
50.0939 -5.0942 7.2790 1.0000
50.0939 -4.6399 7.2727 1.0000
50.0939 -2.8293 7.2532 1.0000
50.0939 -2.5284 7.2509 1.0000
50.0940 -2.3779 7.2498 1.0000
50.0940 -1.9270 7.2470 1.0000
50.0940 -1.7768 7.2462 1.0000
50.0940 -1.6266 7.2455 1.0000
50.0940 -1.1761 7.2437 1.0000
50.0940 -1.0260 7.2432 1.0000
50.0940 -0.8759 7.2428 1.0000
50.0940 -0.4257 7.2419 1.0000
50.0940 -0.2757 7.2418 1.0000
50.0940 -0.1257 7.2417 1.0000
50.0940 0.1744 7.2417 1.0000
50.0940 0.6246 7.2422 1.0000
50.0940 1.6754 7.2457 1.0000
50.0940 2.5772 7.2513 1.0000
50.0940 3.3300 7.2577 1.0000
50.0940 3.6316 7.2607 1.0000
50.0940 3.7825 7.2623 1.0000
50.0940 3.9333 7.2640 1.0000
50.0940 4.0843 7.2657 1.0000
50.0940 4.2354 7.2675 1.0000
50.0940 4.3866 7.2694 1.0000
50.0940 4.5378 7.2713 1.0000
50.0940 4.6891 7.2733 1.0000
50.0940 4.8405 7.2754 1.0000
50.0940 4.9920 7.2775 1.0000
50.0940 5.2952 7.2820 1.0000
50.0939 5.4470 7.2844 1.0000
50.0939 5.7508 7.2892 1.0000
50.0939 5.9029 7.2918 1.0000
50.0940 6.5122 7.3026 1.0000
50.0940 6.6648 7.3055 1.0000
50.0940 7.1235 7.3145 1.0000
50.0940 7.2766 7.3177 1.0000
50.0939 7.4299 7.3209 1.0000
50.0940 7.5833 7.3242 1.0000
50.0940 8.1983 7.3380 1.0000
50.0940 8.3525 7.3417 1.0000
50.0940 8.5068 7.3454 1.0000
50.0940 8.6612 7.3491 1.0000
50.0940 9.1255 7.3609 1.0000
50.0940 9.7469 7.3775 1.0000
50.0939 10.5279 7.3999 1.0000
50.0940 10.6846 7.4046 1.0000
50.0940 11.1561 7.4191 1.0000
50.0940 11.4714 7.4291 1.0000
50.0940 11.6295 7.4343 1.0000
50.0940 11.7877 7.4395 1.0000
50.0940 12.1048 7.4501 1.0000
50.0940 12.4229 7.4610 1.0000
50.0940 12.7419 7.4723 1.0000
50.0940 13.0619 7.4838 1.0000
50.0940 -13.1412 7.4867 1.0000
50.0940 -12.8210 7.4751 1.0000
50.0940 -12.6613 7.4694 1.0000
50.0940 -12.3425 7.4583 1.0000
50.0940 -12.0247 7.4474 1.0000
50.0940 -11.5497 7.4317 1.0000
50.0940 -11.3918 7.4266 1.0000
50.0940 -11.2341 7.4216 1.0000
50.0940 -11.0766 7.4166 1.0000
50.0940 -10.6054 7.4022 1.0000
50.0940 -10.1360 7.3884 1.0000
50.0940 -9.9799 7.3840 1.0000
50.0940 -9.8240 7.3796 1.0000
50.0940 -9.2022 7.3629 1.0000
50.0940 -8.7377 7.3510 1.0000
50.0940 -8.5832 7.3472 1.0000
50.0940 -8.2746 7.3398 1.0000
50.0940 -8.1206 7.3362 1.0000
50.0940 -7.9666 7.3327 1.0000
50.0940 -7.5058 7.3225 1.0000
50.0939 -7.3525 7.3193 1.0000
50.0939 -7.0462 7.3130 1.0000
50.0939 -6.7404 7.3069 1.0000
50.0939 -6.5878 7.3040 1.0000
50.0939 -6.1304 7.2957 1.0000
50.0939 -4.9155 7.2765 1.0000
50.0939 -4.7641 7.2743 1.0000
50.0939 -4.3102 7.2684 1.0000
50.0939 -4.1591 7.2666 1.0000
50.0939 -4.0081 7.2648 1.0000
50.0939 -3.5554 7.2599 1.0000
50.0939 -3.4046 7.2584 1.0000
50.0939 -3.2540 7.2569 1.0000
50.0939 -2.6517 7.2518 1.0000
50.0940 -2.3509 7.2496 1.0000
50.0939 -2.0503 7.2477 1.0000
50.0940 -1.5995 7.2454 1.0000
50.0940 -1.4494 7.2447 1.0000
50.0940 -0.9990 7.2431 1.0000
50.0940 -0.8489 7.2427 1.0000
50.0940 -0.5488 7.2421 1.0000
50.0940 -0.2487 7.2418 1.0000
50.0940 0.0514 7.2417 1.0000
50.0940 0.5015 7.2420 1.0000
50.0940 0.8016 7.2426 1.0000
50.0939 1.7986 6.3840 1.0000
50.0939 2.2495 6.3863 1.0000
50.0939 2.5502 6.3882 1.0000
50.0939 3.1523 6.3925 1.0000
50.0939 3.3030 6.3938 1.0000
50.0939 3.9062 6.3993 1.0000
50.0939 4.3594 6.4040 1.0000
50.0939 4.8133 6.4093 1.0000
50.0939 4.9648 6.4112 1.0000
50.0939 5.1163 6.4131 1.0000
50.0939 5.5715 6.4193 1.0000
50.0939 5.8755 6.4237 1.0000
50.0939 6.0277 6.4259 1.0000
50.0939 6.1800 6.4283 1.0000
50.0939 6.3323 6.4307 1.0000
50.0939 6.4848 6.4332 1.0000
50.0939 6.9430 6.4409 1.0000
50.0939 7.4023 6.4492 1.0000
50.0939 7.5557 6.4521 1.0000
50.0939 7.7092 6.4550 1.0000
50.0939 8.1707 6.4642 1.0000
50.0939 8.4790 6.4707 1.0000
50.0939 8.6334 6.4740 1.0000
50.0939 8.7880 6.4773 1.0000
50.0939 9.0976 6.4843 1.0000
50.0939 9.2527 6.4878 1.0000
50.0939 9.4079 6.4914 1.0000
50.0939 9.8747 6.5027 1.0000
50.0939 11.2854 6.5398 1.0000
50.0939 11.4431 6.5443 1.0000
50.0939 11.7593 6.5533 1.0000
50.0939 11.9177 6.5580 1.0000
50.0939 12.2352 6.5675 1.0000
50.0939 13.0331 6.5923 1.0000
50.0939 13.3539 6.6027 1.0000
50.0940 -13.0098 6.5916 1.0000
50.0940 -12.6900 6.5814 1.0000
50.0940 -12.5304 6.5765 1.0000
50.0940 -12.0532 6.5620 1.0000
50.0940 -11.5781 6.5481 1.0000
50.0940 -11.4201 6.5436 1.0000
50.0940 -11.1049 6.5348 1.0000
50.0940 -10.9476 6.5305 1.0000
50.0940 -10.7905 6.5262 1.0000
50.0940 -10.6336 6.5221 1.0000
50.0940 -10.3204 6.5139 1.0000
50.0940 -10.1641 6.5099 1.0000
50.0940 -10.0080 6.5060 1.0000
50.0940 -9.8520 6.5021 1.0000
50.0940 -9.5407 6.4946 1.0000
50.0940 -9.2302 6.4873 1.0000
50.0940 -8.9202 6.4803 1.0000
50.0940 -8.7655 6.4769 1.0000
50.0940 -8.4566 6.4702 1.0000
50.0940 -8.3023 6.4669 1.0000
50.0940 -7.9943 6.4606 1.0000
50.0940 -7.6869 6.4546 1.0000
50.0939 -7.2268 6.4460 1.0000
50.0939 -6.9208 6.4405 1.0000
50.0939 -6.7679 6.4379 1.0000
50.0939 -6.3102 6.4303 1.0000
50.0939 -6.0055 6.4256 1.0000
50.0939 -5.7014 6.4211 1.0000
50.0939 -5.5494 6.4189 1.0000
50.0939 -4.9427 6.4109 1.0000
50.0939 -4.7912 6.4090 1.0000
50.0939 -4.6399 6.4072 1.0000
50.0939 -4.4886 6.4055 1.0000
50.0939 -4.0352 6.4006 1.0000
50.0939 -3.8843 6.3991 1.0000
50.0939 -3.7334 6.3976 1.0000
50.0939 -3.5825 6.3962 1.0000
50.0939 -3.4318 6.3949 1.0000
50.0939 -2.0772 6.3854 1.0000
50.0939 -1.6265 6.3833 1.0000
50.0939 -1.1761 6.3817 1.0000
50.0939 -1.0260 6.3812 1.0000
50.0939 -0.7258 6.3806 1.0000
50.0939 -0.1256 6.3799 1.0000
50.0939 0.0244 6.3799 1.0000
50.0939 0.1745 6.3800 1.0000
50.0939 0.4746 6.3802 1.0000
50.0939 1.0748 6.3814 1.0000
50.0939 1.6754 6.3835 1.0000
50.0939 1.8257 6.3842 1.0000
50.0939 1.9759 6.3849 1.0000
50.0939 2.1262 6.3857 1.0000
50.0939 2.2765 6.3865 1.0000
50.0939 2.5773 6.3883 1.0000
50.0939 3.1794 6.3928 1.0000
50.0939 3.4808 6.3953 1.0000
50.0939 3.6316 6.3967 1.0000
50.0939 3.7825 6.3981 1.0000
50.0939 4.3866 6.4043 1.0000
50.0939 4.9920 6.4115 1.0000
50.0939 5.5988 6.4196 1.0000
50.0939 6.3597 6.4311 1.0000
50.0939 6.5122 6.4336 1.0000
50.0939 6.6649 6.4361 1.0000
50.0939 6.8176 6.4387 1.0000
50.0939 7.1235 6.4441 1.0000
50.0939 7.2766 6.4469 1.0000
50.0939 7.4299 6.4497 1.0000
50.0939 7.7368 6.4556 1.0000
50.0939 7.8906 6.4586 1.0000
50.0939 8.0444 6.4617 1.0000
50.0939 8.5068 6.4713 1.0000
50.0939 8.6612 6.4746 1.0000
50.0939 8.9706 6.4814 1.0000
50.0939 9.1255 6.4849 1.0000
50.0939 9.2806 6.4885 1.0000
50.0939 10.0588 6.5073 1.0000
50.0939 10.2149 6.5112 1.0000
50.0939 10.3713 6.5152 1.0000
50.0939 10.5279 6.5193 1.0000
50.0939 10.6846 6.5234 1.0000
50.0939 10.8416 6.5276 1.0000
50.0939 11.6295 6.5496 1.0000
50.0939 11.9462 6.5588 1.0000
50.0939 12.1049 6.5635 1.0000
50.0939 12.2638 6.5683 1.0000
50.0939 12.4229 6.5732 1.0000
50.0939 12.7419 6.5831 1.0000
50.0939 13.0619 6.5932 1.0000
50.0939 13.3829 6.6037 1.0000
50.0940 -13.1412 6.5958 1.0000
50.0940 -12.8210 6.5856 1.0000
50.0940 -12.6613 6.5805 1.0000
50.0940 -12.5018 6.5756 1.0000
50.0940 -12.3425 6.5707 1.0000
50.0940 -12.0247 6.5611 1.0000
50.0940 -11.8661 6.5565 1.0000
50.0940 -11.7078 6.5518 1.0000
50.0940 -11.5496 6.5473 1.0000
50.0940 -11.3918 6.5428 1.0000
50.0940 -11.0766 6.5340 1.0000
50.0940 -9.9799 6.5053 1.0000
50.0940 -9.8240 6.5014 1.0000
50.0940 -9.0472 6.4831 1.0000
50.0940 -8.8924 6.4797 1.0000
50.0940 -8.7377 6.4762 1.0000
50.0940 -8.5832 6.4729 1.0000
50.0940 -7.9667 6.4601 1.0000
50.0940 -7.6593 6.4541 1.0000
50.0939 -7.1993 6.4455 1.0000
50.0939 -6.8932 6.4400 1.0000
50.0939 -6.5878 6.4349 1.0000
50.0939 -6.4352 6.4323 1.0000
50.0939 -6.2827 6.4299 1.0000
50.0939 -6.1304 6.4275 1.0000
50.0939 -5.8261 6.4229 1.0000
50.0939 -5.6740 6.4207 1.0000
50.0939 -5.5221 6.4186 1.0000
50.0939 -4.7640 6.4087 1.0000
50.0939 -4.6127 6.4069 1.0000
50.0939 -4.4614 6.4052 1.0000
50.0939 -4.3102 6.4035 1.0000
50.0939 -4.0081 6.4003 1.0000
50.0939 -3.8571 6.3988 1.0000
50.0939 -3.5554 6.3960 1.0000
50.0939 -3.2539 6.3934 1.0000
50.0939 -3.1033 6.3921 1.0000
50.0939 -2.9528 6.3910 1.0000
50.0939 -2.8022 6.3899 1.0000
50.0939 -2.0503 6.3853 1.0000
50.0939 -1.9000 6.3845 1.0000
50.0939 -1.7497 6.3838 1.0000
50.0939 -1.5995 6.3832 1.0000
50.0939 -1.2992 6.3821 1.0000
50.0939 -0.9989 6.3812 1.0000
50.0939 -0.8489 6.3808 1.0000
50.0939 -0.3987 6.3801 1.0000
50.0939 -0.0986 6.3799 1.0000
50.0939 0.0514 6.3799 1.0000
50.0939 0.2014 6.3800 1.0000
50.0939 0.8017 6.3807 1.0000
50.0939 0.9518 6.3811 1.0000
50.0939 1.1018 6.3815 1.0000
50.0939 1.7986 5.5254 1.0000
50.0939 2.0991 5.5267 1.0000
50.0939 2.2495 5.5274 1.0000
50.0939 3.0017 5.5318 1.0000
50.0939 3.3030 5.5338 1.0000
50.0939 3.6045 5.5361 1.0000
50.0939 3.9062 5.5386 1.0000
50.0939 4.2083 5.5413 1.0000
50.0939 4.5106 5.5442 1.0000
50.0939 4.8133 5.5473 1.0000
50.0939 4.9647 5.5489 1.0000
50.0939 5.4197 5.5541 1.0000
50.0939 5.7234 5.5578 1.0000
50.0939 6.1799 5.5637 1.0000
50.0939 6.3323 5.5658 1.0000
50.0939 6.4848 5.5679 1.0000
50.0939 6.6374 5.5701 1.0000
50.0939 6.9430 5.5746 1.0000
50.0939 7.0959 5.5770 1.0000
50.0939 7.2491 5.5794 1.0000
50.0939 7.4023 5.5818 1.0000
50.0939 7.5557 5.5843 1.0000
50.0939 8.1706 5.5948 1.0000
50.0939 8.6334 5.6033 1.0000
50.0939 8.7880 5.6062 1.0000
50.0939 8.9427 5.6091 1.0000
50.0939 9.2527 5.6153 1.0000
50.0939 9.4079 5.6184 1.0000
50.0939 9.5634 5.6216 1.0000
50.0939 9.7189 5.6248 1.0000
50.0939 9.8747 5.6281 1.0000
50.0939 10.4997 5.6418 1.0000
50.0939 10.6564 5.6454 1.0000
50.0939 10.9705 5.6527 1.0000
50.0939 11.2853 5.6602 1.0000
50.0939 11.4431 5.6641 1.0000
50.0939 11.7592 5.6720 1.0000
50.0939 11.9177 5.6760 1.0000
50.0939 12.0763 5.6800 1.0000
50.0939 12.7132 5.6969 1.0000
50.0939 12.8730 5.7013 1.0000
50.0939 13.1934 5.7102 1.0000
50.0939 13.3540 5.7147 1.0000
50.0939 -13.3306 5.7140 1.0000
50.0940 -12.3711 5.6877 1.0000
50.0940 -11.7362 5.6714 1.0000
50.0939 -11.5781 5.6674 1.0000
50.0940 -11.4201 5.6635 1.0000
50.0940 -11.2624 5.6597 1.0000
50.0940 -10.9476 5.6522 1.0000
50.0940 -10.6336 5.6449 1.0000
50.0940 -10.3204 5.6378 1.0000
50.0940 -10.0080 5.6310 1.0000
50.0939 -9.6962 5.6243 1.0000
50.0940 -9.3853 5.6179 1.0000
50.0939 -9.2301 5.6148 1.0000
50.0939 -8.9202 5.6087 1.0000
50.0940 -8.6109 5.6028 1.0000
50.0940 -8.4566 5.6000 1.0000
50.0939 -7.9943 5.5917 1.0000
50.0940 -7.5334 5.5840 1.0000
50.0939 -7.2268 5.5790 1.0000
50.0939 -6.9207 5.5743 1.0000
50.0939 -6.7679 5.5720 1.0000
50.0939 -6.4626 5.5676 1.0000
50.0939 -6.0055 5.5614 1.0000
50.0939 -5.8534 5.5594 1.0000
50.0939 -5.7014 5.5575 1.0000
50.0939 -5.5494 5.5556 1.0000
50.0939 -5.3976 5.5538 1.0000
50.0939 -5.2458 5.5520 1.0000
50.0939 -4.9427 5.5487 1.0000
50.0939 -4.7912 5.5470 1.0000
50.0939 -4.6399 5.5455 1.0000
50.0939 -4.4886 5.5440 1.0000
50.0939 -4.3374 5.5425 1.0000
50.0939 -4.1863 5.5411 1.0000
50.0939 -4.0352 5.5397 1.0000
50.0939 -2.8293 5.5307 1.0000
50.0939 -2.6788 5.5297 1.0000
50.0939 -2.3779 5.5281 1.0000
50.0939 -1.9270 5.5259 1.0000
50.0939 -1.7767 5.5253 1.0000
50.0939 -1.6266 5.5248 1.0000
50.0939 -1.0259 5.5230 1.0000
50.0939 -0.8759 5.5227 1.0000
50.0939 -0.7258 5.5224 1.0000
50.0939 -0.4257 5.5220 1.0000
50.0939 -0.2757 5.5219 1.0000
50.0939 0.0244 5.5219 1.0000
50.0939 0.1745 5.5219 1.0000
50.0939 0.3245 5.5220 1.0000
50.0939 1.0748 5.5231 1.0000
50.0939 1.3750 5.5239 1.0000
50.0939 1.5252 5.5244 1.0000
50.0939 1.6754 5.5249 1.0000
50.0939 1.8256 5.5255 1.0000
50.0939 2.2765 5.5275 1.0000
50.0939 2.4268 5.5283 1.0000
50.0939 2.7277 5.5300 1.0000
50.0939 2.8782 5.5310 1.0000
50.0939 3.7824 5.5376 1.0000
50.0939 4.0844 5.5402 1.0000
50.0939 4.2355 5.5416 1.0000
50.0939 4.3866 5.5430 1.0000
50.0939 4.5378 5.5445 1.0000
50.0939 4.8405 5.5476 1.0000
50.0939 4.9920 5.5492 1.0000
50.0939 5.1436 5.5509 1.0000
50.0939 5.2952 5.5526 1.0000
50.0939 5.5988 5.5562 1.0000
50.0939 5.7508 5.5581 1.0000
50.0939 5.9029 5.5601 1.0000
50.0939 6.0551 5.5620 1.0000
50.0939 6.2073 5.5641 1.0000
50.0939 6.5122 5.5683 1.0000
50.0939 6.6648 5.5705 1.0000
50.0939 6.8176 5.5728 1.0000
50.0939 7.7369 5.5873 1.0000
50.0939 8.0444 5.5926 1.0000
50.0939 8.3525 5.5981 1.0000
50.0939 8.5068 5.6009 1.0000
50.0939 8.6612 5.6038 1.0000
50.0939 8.8158 5.6067 1.0000
50.0939 9.2806 5.6158 1.0000
50.0939 9.5913 5.6222 1.0000
50.0939 9.9027 5.6287 1.0000
50.0939 10.2149 5.6355 1.0000
50.0939 10.3713 5.6390 1.0000
50.0939 10.5279 5.6425 1.0000
50.0939 10.6846 5.6461 1.0000
50.0939 10.8416 5.6497 1.0000
50.0939 10.9987 5.6534 1.0000
50.0939 11.6295 5.6687 1.0000
50.0939 11.7877 5.6727 1.0000
50.0939 11.9462 5.6767 1.0000
50.0939 12.1048 5.6808 1.0000
50.0939 12.7419 5.6977 1.0000
50.0939 13.0619 5.7065 1.0000
50.0939 13.3829 5.7155 1.0000
50.0940 -13.3017 5.7132 1.0000
50.0939 -13.1412 5.7087 1.0000
50.0940 -12.9810 5.7042 1.0000
50.0939 -12.8210 5.6998 1.0000
50.0940 -12.6613 5.6955 1.0000
50.0940 -12.5018 5.6912 1.0000
50.0940 -12.3425 5.6870 1.0000
50.0940 -12.1835 5.6828 1.0000
50.0940 -11.5496 5.6667 1.0000
50.0939 -10.9193 5.6515 1.0000
50.0940 -10.7622 5.6479 1.0000
50.0939 -10.4487 5.6407 1.0000
50.0940 -10.2923 5.6372 1.0000
50.0940 -10.1360 5.6338 1.0000
50.0940 -9.6683 5.6238 1.0000
50.0939 -9.2022 5.6143 1.0000
50.0940 -9.0472 5.6112 1.0000
50.0940 -8.8924 5.6082 1.0000
50.0940 -8.5832 5.6023 1.0000
50.0940 -8.1205 5.5939 1.0000
50.0940 -7.9666 5.5912 1.0000
50.0939 -7.6593 5.5860 1.0000
50.0940 -7.5057 5.5835 1.0000
50.0939 -6.8932 5.5739 1.0000
50.0939 -6.7404 5.5716 1.0000
50.0939 -6.2827 5.5651 1.0000
50.0939 -5.9782 5.5610 1.0000
50.0939 -5.2186 5.5517 1.0000
50.0939 -5.0670 5.5500 1.0000
50.0939 -4.6127 5.5452 1.0000
50.0939 -4.4614 5.5437 1.0000
50.0939 -4.0081 5.5395 1.0000
50.0939 -3.7062 5.5369 1.0000
50.0939 -3.5554 5.5357 1.0000
50.0939 -3.4046 5.5346 1.0000
50.0939 -3.2539 5.5335 1.0000
50.0939 -3.1033 5.5324 1.0000
50.0939 -2.9527 5.5314 1.0000
50.0939 -2.8022 5.5305 1.0000
50.0939 -2.5013 5.5287 1.0000
50.0939 -2.3509 5.5279 1.0000
50.0939 -1.4494 5.5242 1.0000
50.0939 -1.2992 5.5237 1.0000
50.0939 -0.6988 5.5224 1.0000
50.0939 -0.5487 5.5222 1.0000
50.0939 -0.2487 5.5219 1.0000
50.0939 0.0514 5.5219 1.0000
50.0939 0.2014 5.5219 1.0000
50.0939 0.3515 5.5220 1.0000
50.0939 0.5015 5.5221 1.0000
50.0939 0.6516 5.5223 1.0000
50.0939 1.7986 4.6700 1.0000
50.0939 1.9489 4.6705 1.0000
50.0939 2.0991 4.6711 1.0000
50.0939 2.2495 4.6717 1.0000
50.0939 2.5502 4.6730 1.0000
50.0939 2.7007 4.6738 1.0000
50.0939 3.1523 4.6762 1.0000
50.0939 3.3029 4.6771 1.0000
50.0939 3.6045 4.6790 1.0000
50.0939 3.9062 4.6811 1.0000
50.0939 4.0571 4.6823 1.0000
50.0939 4.2082 4.6834 1.0000
50.0939 4.3594 4.6846 1.0000
50.0939 4.5106 4.6859 1.0000
50.0939 4.6619 4.6871 1.0000
50.0939 5.7235 4.6973 1.0000
50.0939 6.1799 4.7024 1.0000
50.0939 6.3323 4.7041 1.0000
50.0939 7.0959 4.7136 1.0000
50.0939 7.7092 4.7219 1.0000
50.0939 8.1707 4.7287 1.0000
50.0939 8.9427 4.7408 1.0000
50.0939 9.0976 4.7433 1.0000
50.0939 9.8747 4.7568 1.0000
50.0939 10.0307 4.7596 1.0000
50.0939 10.1868 4.7625 1.0000
50.0939 10.4996 4.7684 1.0000
50.0939 10.6564 4.7714 1.0000
50.0939 10.8133 4.7745 1.0000
50.0939 10.9704 4.7776 1.0000
50.0939 11.1278 4.7807 1.0000
50.0939 11.4431 4.7872 1.0000
50.0939 11.7593 4.7938 1.0000
50.0939 12.3943 4.8077 1.0000
50.0939 12.5536 4.8113 1.0000
50.0939 12.7132 4.8149 1.0000
50.0939 12.8730 4.8186 1.0000
50.0939 13.0331 4.8224 1.0000
50.0939 13.1934 4.8261 1.0000
50.0939 -13.3306 4.8294 1.0000
50.0939 -12.2120 4.8037 1.0000
50.0939 -11.8946 4.7967 1.0000
50.0939 -11.7362 4.7934 1.0000
50.0939 -11.5780 4.7900 1.0000
50.0939 -11.4202 4.7867 1.0000
50.0939 -11.2624 4.7835 1.0000
50.0939 -11.1048 4.7803 1.0000
50.0939 -10.9476 4.7771 1.0000
50.0939 -10.6336 4.7710 1.0000
50.0939 -9.3853 4.7482 1.0000
50.0939 -9.0751 4.7430 1.0000
50.0939 -8.4566 4.7330 1.0000
50.0939 -8.1482 4.7283 1.0000
50.0939 -7.8405 4.7238 1.0000
50.0939 -7.6869 4.7216 1.0000
50.0939 -7.5334 4.7195 1.0000
50.0938 -7.3800 4.7173 1.0000
50.0938 -7.2268 4.7153 1.0000
50.0938 -6.9207 4.7113 1.0000
50.0938 -6.6152 4.7075 1.0000
50.0938 -5.8534 4.6987 1.0000
50.0938 -5.7013 4.6971 1.0000
50.0938 -5.3976 4.6940 1.0000
50.0938 -4.9427 4.6896 1.0000
50.0938 -4.7912 4.6883 1.0000
50.0938 -4.6398 4.6870 1.0000
50.0938 -4.4886 4.6857 1.0000
50.0938 -4.0352 4.6821 1.0000
50.0938 -3.7334 4.6799 1.0000
50.0938 -3.5825 4.6789 1.0000
50.0938 -3.4317 4.6779 1.0000
50.0938 -3.2810 4.6770 1.0000
50.0938 -2.9798 4.6752 1.0000
50.0938 -2.8293 4.6744 1.0000
50.0938 -2.6788 4.6737 1.0000
50.0939 -2.3779 4.6722 1.0000
50.0939 -1.9270 4.6704 1.0000
50.0939 -1.7768 4.6699 1.0000
50.0939 -1.1761 4.6683 1.0000
50.0939 -1.0260 4.6680 1.0000
50.0939 -0.7258 4.6675 1.0000
50.0939 -0.5757 4.6673 1.0000
50.0939 -0.4257 4.6671 1.0000
50.0939 -0.2757 4.6671 1.0000
50.0939 0.0244 4.6670 1.0000
50.0939 0.1745 4.6670 1.0000
50.0939 0.3245 4.6671 1.0000
50.0939 0.4745 4.6672 1.0000
50.0939 0.6246 4.6673 1.0000
50.0939 0.7746 4.6675 1.0000
50.0939 1.2249 4.6684 1.0000
50.0939 1.3750 4.6687 1.0000
50.0939 1.5252 4.6691 1.0000
50.0939 1.8256 4.6701 1.0000
50.0939 2.4269 4.6725 1.0000
50.0939 2.5773 4.6732 1.0000
50.0939 2.7277 4.6739 1.0000
50.0939 3.0288 4.6755 1.0000
50.0939 3.1794 4.6764 1.0000
50.0939 3.3300 4.6773 1.0000
50.0939 3.7825 4.6803 1.0000
50.0939 3.9334 4.6813 1.0000
50.0939 4.3866 4.6848 1.0000
50.0939 4.5378 4.6861 1.0000
50.0939 4.6891 4.6874 1.0000
50.0939 4.8405 4.6887 1.0000
50.0939 4.9920 4.6901 1.0000
50.0939 5.1436 4.6915 1.0000
50.0939 5.2952 4.6930 1.0000
50.0939 5.4470 4.6945 1.0000
50.0939 6.0550 4.7009 1.0000
50.0939 6.2073 4.7027 1.0000
50.0939 6.3597 4.7044 1.0000
50.0939 6.6648 4.7081 1.0000
50.0939 6.9705 4.7119 1.0000
50.0939 7.1235 4.7139 1.0000
50.0939 7.5833 4.7202 1.0000
50.0939 7.7368 4.7223 1.0000
50.0939 8.0443 4.7268 1.0000
50.0939 8.1983 4.7291 1.0000
50.0939 8.3525 4.7314 1.0000
50.0939 8.5068 4.7338 1.0000
50.0939 8.9705 4.7412 1.0000
50.0939 9.2806 4.7464 1.0000
50.0939 9.4358 4.7491 1.0000
50.0939 10.6846 4.7720 1.0000
50.0939 11.3137 4.7845 1.0000
50.0939 11.6295 4.7911 1.0000
50.0939 12.1048 4.8013 1.0000
50.0939 12.2638 4.8048 1.0000
50.0939 12.4229 4.8084 1.0000
50.0939 12.7419 4.8156 1.0000
50.0939 12.9018 4.8193 1.0000
50.0939 13.0618 4.8230 1.0000
50.0939 -12.9810 4.8211 1.0000
50.0939 -12.8210 4.8174 1.0000
50.0939 -12.6613 4.8137 1.0000
50.0939 -12.3425 4.8066 1.0000
50.0939 -12.1834 4.8030 1.0000
50.0939 -12.0246 4.7996 1.0000
50.0939 -11.7077 4.7928 1.0000
50.0939 -11.2341 4.7829 1.0000
50.0939 -11.0766 4.7797 1.0000
50.0939 -10.7622 4.7735 1.0000
50.0939 -10.6054 4.7704 1.0000
50.0939 -10.2923 4.7645 1.0000
50.0939 -9.9799 4.7587 1.0000
50.0939 -9.8240 4.7559 1.0000
50.0939 -9.6683 4.7531 1.0000
50.0939 -9.5127 4.7504 1.0000
50.0939 -9.3574 4.7477 1.0000
50.0939 -9.2022 4.7451 1.0000
50.0939 -8.8923 4.7399 1.0000
50.0939 -8.5831 4.7350 1.0000
50.0939 -8.4288 4.7326 1.0000
50.0939 -8.1205 4.7279 1.0000
50.0939 -7.8129 4.7234 1.0000
50.0939 -7.6592 4.7212 1.0000
50.0939 -7.5058 4.7191 1.0000
50.0938 -7.1992 4.7149 1.0000
50.0938 -7.0462 4.7129 1.0000
50.0938 -6.4352 4.7053 1.0000
50.0938 -6.2827 4.7035 1.0000
50.0938 -5.9782 4.7001 1.0000
50.0938 -5.6740 4.6968 1.0000
50.0938 -5.3703 4.6937 1.0000
50.0938 -5.2186 4.6922 1.0000
50.0938 -4.4613 4.6855 1.0000
50.0938 -4.1591 4.6830 1.0000
50.0938 -4.0080 4.6819 1.0000
50.0938 -3.8571 4.6808 1.0000
50.0938 -3.7062 4.6797 1.0000
50.0938 -3.4046 4.6777 1.0000
50.0938 -2.8022 4.6743 1.0000
50.0938 -2.6517 4.6735 1.0000
50.0939 -2.3509 4.6721 1.0000
50.0939 -2.2005 4.6715 1.0000
50.0939 -1.5995 4.6694 1.0000
50.0939 -1.2992 4.6685 1.0000
50.0939 -1.1491 4.6682 1.0000
50.0939 -0.9990 4.6679 1.0000
50.0939 -0.6988 4.6674 1.0000
50.0939 -0.5488 4.6673 1.0000
50.0939 -0.3987 4.6671 1.0000
50.0939 0.2014 4.6670 1.0000
50.0939 0.5015 4.6672 1.0000
50.0939 0.6516 4.6674 1.0000
50.0939 0.8016 4.6676 1.0000
50.0939 0.9517 4.6678 1.0000
50.0939 1.9489 3.8177 1.0000
50.0939 2.0992 3.8181 1.0000
50.0939 2.5502 3.8197 1.0000
50.0939 3.0018 3.8216 1.0000
50.0939 3.4537 3.8238 1.0000
50.0939 3.7553 3.8255 1.0000
50.0939 4.0572 3.8273 1.0000
50.0939 4.2082 3.8282 1.0000
50.0939 4.3594 3.8292 1.0000
50.0939 4.6619 3.8313 1.0000
50.0939 4.9647 3.8335 1.0000
50.0939 5.2680 3.8358 1.0000
50.0939 5.7235 3.8396 1.0000
50.0939 6.4848 3.8466 1.0000
50.0939 6.7902 3.8497 1.0000
50.0939 7.0960 3.8529 1.0000
50.0939 7.2491 3.8545 1.0000
50.0939 7.5557 3.8579 1.0000
50.0939 7.7093 3.8597 1.0000
50.0939 8.0167 3.8633 1.0000
50.0939 8.1707 3.8652 1.0000
50.0939 8.3247 3.8671 1.0000
50.0939 8.6334 3.8710 1.0000
50.0939 8.7880 3.8731 1.0000
50.0939 8.9427 3.8751 1.0000
50.0939 9.0976 3.8772 1.0000
50.0939 9.2527 3.8793 1.0000
50.0939 9.7189 3.8859 1.0000
50.0939 10.0307 3.8905 1.0000
50.0939 10.1868 3.8929 1.0000
50.0939 10.3432 3.8953 1.0000
50.0939 10.4997 3.8977 1.0000
50.0939 10.6564 3.9002 1.0000
50.0939 10.9705 3.9052 1.0000
50.0939 11.1278 3.9078 1.0000
50.0939 11.2853 3.9104 1.0000
50.0939 11.4431 3.9131 1.0000
50.0939 11.6011 3.9158 1.0000
50.0939 11.7593 3.9185 1.0000
50.0939 11.9177 3.9213 1.0000
50.0939 12.2352 3.9269 1.0000
50.0939 12.5536 3.9328 1.0000
50.0939 12.7132 3.9357 1.0000
50.0939 12.8730 3.9387 1.0000
50.0939 13.0331 3.9418 1.0000
50.0939 -13.3306 3.9476 1.0000
50.0939 -13.0098 3.9414 1.0000
50.0939 -12.2120 3.9265 1.0000
50.0939 -12.0532 3.9237 1.0000
50.0939 -11.8946 3.9209 1.0000
50.0939 -11.7362 3.9181 1.0000
50.0939 -11.5780 3.9154 1.0000
50.0939 -11.4201 3.9127 1.0000
50.0939 -11.1049 3.9074 1.0000
50.0939 -10.9476 3.9048 1.0000
50.0939 -10.7905 3.9023 1.0000
50.0939 -10.4769 3.8973 1.0000
50.0939 -10.3204 3.8949 1.0000
50.0939 -10.0079 3.8902 1.0000
50.0939 -9.8520 3.8879 1.0000
50.0939 -9.5407 3.8834 1.0000
50.0939 -9.2301 3.8790 1.0000
50.0939 -8.6109 3.8708 1.0000
50.0939 -8.1482 3.8649 1.0000
50.0939 -7.8405 3.8612 1.0000
50.0938 -7.2268 3.8543 1.0000
50.0938 -7.0737 3.8526 1.0000
50.0938 -6.7679 3.8494 1.0000
50.0938 -6.4626 3.8464 1.0000
50.0938 -6.3101 3.8449 1.0000
50.0938 -5.7013 3.8394 1.0000
50.0938 -5.5494 3.8381 1.0000
50.0938 -5.3975 3.8369 1.0000
50.0938 -5.2459 3.8357 1.0000
50.0938 -4.9427 3.8333 1.0000
50.0938 -4.7912 3.8322 1.0000
50.0938 -4.4886 3.8301 1.0000
50.0938 -4.1862 3.8281 1.0000
50.0938 -4.0352 3.8272 1.0000
50.0938 -3.7333 3.8254 1.0000
50.0938 -3.2810 3.8230 1.0000
50.0938 -2.3779 3.8191 1.0000
50.0938 -2.2276 3.8186 1.0000
50.0939 -1.7767 3.8172 1.0000
50.0939 -1.1761 3.8158 1.0000
50.0939 -0.8759 3.8154 1.0000
50.0939 -0.4257 3.8149 1.0000
50.0939 -0.2756 3.8149 1.0000
50.0939 -0.1256 3.8148 1.0000
50.0939 0.0244 3.8148 1.0000
50.0939 0.1745 3.8148 1.0000
50.0939 0.3245 3.8149 1.0000
50.0939 0.4746 3.8150 1.0000
50.0939 1.3751 3.8162 1.0000
50.0939 1.5253 3.8166 1.0000
50.0939 2.2765 3.8187 1.0000
50.0939 2.5773 3.8198 1.0000
50.0939 2.7278 3.8204 1.0000
50.0939 3.3301 3.8232 1.0000
50.0939 3.4808 3.8240 1.0000
50.0939 3.6316 3.8248 1.0000
50.0939 3.7825 3.8257 1.0000
50.0939 3.9334 3.8265 1.0000
50.0939 4.0844 3.8275 1.0000
50.0939 4.5378 3.8304 1.0000
50.0939 4.6891 3.8315 1.0000
50.0939 4.8405 3.8326 1.0000
50.0939 4.9920 3.8337 1.0000
50.0939 5.1436 3.8349 1.0000
50.0939 5.4470 3.8373 1.0000
50.0939 6.2073 3.8440 1.0000
50.0939 6.3597 3.8454 1.0000
50.0939 6.5123 3.8469 1.0000
50.0939 6.6649 3.8484 1.0000
50.0939 6.8176 3.8500 1.0000
50.0939 6.9705 3.8516 1.0000
50.0939 7.1235 3.8532 1.0000
50.0939 7.2766 3.8548 1.0000
50.0939 7.4299 3.8565 1.0000
50.0939 7.7369 3.8600 1.0000
50.0939 7.8905 3.8618 1.0000
50.0939 8.3525 3.8675 1.0000
50.0939 8.5068 3.8694 1.0000
50.0939 8.6612 3.8714 1.0000
50.0939 8.9706 3.8755 1.0000
50.0939 9.1255 3.8776 1.0000
50.0939 9.2806 3.8797 1.0000
50.0939 9.5913 3.8841 1.0000
50.0939 9.7470 3.8863 1.0000
50.0939 10.2150 3.8933 1.0000
50.0939 10.6846 3.9006 1.0000
50.0939 10.8416 3.9031 1.0000
50.0939 10.9987 3.9057 1.0000
50.0939 12.1049 3.9246 1.0000
50.0939 12.2638 3.9275 1.0000
50.0939 12.4229 3.9303 1.0000
50.0939 12.5823 3.9333 1.0000
50.0939 12.7419 3.9363 1.0000
50.0939 13.0619 3.9423 1.0000
50.0939 -13.3017 3.9470 1.0000
50.0939 -13.1412 3.9439 1.0000
50.0939 -12.9810 3.9408 1.0000
50.0939 -12.6612 3.9348 1.0000
50.0939 -12.3425 3.9289 1.0000
50.0939 -12.1834 3.9260 1.0000
50.0939 -12.0246 3.9232 1.0000
50.0939 -11.8661 3.9204 1.0000
50.0939 -11.3918 3.9122 1.0000
50.0939 -11.0765 3.9069 1.0000
50.0939 -10.9193 3.9044 1.0000
50.0939 -10.7622 3.9018 1.0000
50.0939 -10.4487 3.8969 1.0000
50.0939 -9.9799 3.8898 1.0000
50.0939 -9.8239 3.8875 1.0000
50.0939 -9.6682 3.8852 1.0000
50.0939 -9.3574 3.8808 1.0000
50.0939 -9.0471 3.8765 1.0000
50.0939 -8.7377 3.8724 1.0000
50.0939 -8.5832 3.8704 1.0000
50.0939 -8.4288 3.8684 1.0000
50.0939 -8.1205 3.8646 1.0000
50.0939 -7.9666 3.8627 1.0000
50.0939 -7.5057 3.8574 1.0000
50.0938 -7.1992 3.8540 1.0000
50.0938 -7.0462 3.8524 1.0000
50.0938 -6.8932 3.8507 1.0000
50.0938 -5.9781 3.8419 1.0000
50.0938 -5.8260 3.8405 1.0000
50.0938 -5.6740 3.8392 1.0000
50.0938 -5.5221 3.8379 1.0000
50.0938 -5.2186 3.8354 1.0000
50.0938 -5.0669 3.8343 1.0000
50.0938 -4.7640 3.8320 1.0000
50.0938 -4.6127 3.8309 1.0000
50.0938 -4.3102 3.8289 1.0000
50.0938 -4.1591 3.8279 1.0000
50.0938 -3.8571 3.8261 1.0000
50.0938 -3.7062 3.8252 1.0000
50.0938 -2.8022 3.8208 1.0000
50.0938 -2.6517 3.8201 1.0000
50.0938 -2.5013 3.8195 1.0000
50.0939 -2.3508 3.8190 1.0000
50.0939 -2.2005 3.8185 1.0000
50.0939 -1.7497 3.8171 1.0000
50.0939 -1.5995 3.8167 1.0000
50.0939 -0.8488 3.8153 1.0000
50.0939 -0.6988 3.8152 1.0000
50.0939 -0.2486 3.8148 1.0000
50.0939 -0.0986 3.8148 1.0000
50.0939 0.0514 3.8148 1.0000
50.0939 0.2014 3.8148 1.0000
50.0939 0.3515 3.8149 1.0000
50.0939 0.5015 3.8150 1.0000
50.0939 0.6516 3.8151 1.0000
50.0939 1.7986 2.9667 1.0000
50.0939 2.3998 2.9682 1.0000
50.0939 2.7006 2.9691 1.0000
50.0939 3.0017 2.9701 1.0000
50.0939 3.1523 2.9707 1.0000
50.0939 3.4537 2.9718 1.0000
50.0939 3.6045 2.9725 1.0000
50.0939 4.0572 2.9745 1.0000
50.0939 4.5106 2.9768 1.0000
50.0939 4.8133 2.9785 1.0000
50.0939 4.9647 2.9793 1.0000
50.0939 5.1163 2.9802 1.0000
50.0939 5.2679 2.9811 1.0000
50.0939 5.4197 2.9821 1.0000
50.0939 5.5715 2.9831 1.0000
50.0939 5.7234 2.9841 1.0000
50.0939 6.4848 2.9895 1.0000
50.0939 6.6374 2.9907 1.0000
50.0939 6.7901 2.9919 1.0000
50.0939 6.9430 2.9931 1.0000
50.0939 7.0959 2.9944 1.0000
50.0939 7.2491 2.9957 1.0000
50.0939 7.4023 2.9970 1.0000
50.0939 7.5557 2.9983 1.0000
50.0939 7.8629 3.0011 1.0000
50.0939 8.4790 3.0070 1.0000
50.0939 8.6334 3.0085 1.0000
50.0939 8.7880 3.0101 1.0000
50.0939 9.4079 3.0166 1.0000
50.0939 9.8747 3.0219 1.0000
50.0939 10.1868 3.0255 1.0000
50.0939 10.6564 3.0312 1.0000
50.0939 10.9705 3.0351 1.0000
50.0939 11.1278 3.0371 1.0000
50.0939 11.4430 3.0412 1.0000
50.0939 11.7592 3.0454 1.0000
50.0939 12.3943 3.0542 1.0000
50.0939 12.7132 3.0588 1.0000
50.0939 13.0330 3.0635 1.0000
50.0939 13.1934 3.0659 1.0000
50.0939 -13.0097 3.0632 1.0000
50.0939 -12.3711 3.0539 1.0000
50.0939 -12.2120 3.0516 1.0000
50.0939 -12.0532 3.0494 1.0000
50.0939 -11.7362 3.0451 1.0000
50.0939 -11.4201 3.0409 1.0000
50.0939 -11.2624 3.0388 1.0000
50.0939 -10.9475 3.0348 1.0000
50.0939 -10.7905 3.0328 1.0000
50.0939 -10.6336 3.0309 1.0000
50.0939 -10.3204 3.0271 1.0000
50.0939 -10.0079 3.0234 1.0000
50.0939 -9.8520 3.0216 1.0000
50.0939 -9.3853 3.0164 1.0000
50.0939 -9.2301 3.0147 1.0000
50.0939 -9.0750 3.0131 1.0000
50.0939 -8.9202 3.0114 1.0000
50.0939 -8.3023 3.0052 1.0000
50.0939 -8.1482 3.0038 1.0000
50.0939 -7.9943 3.0023 1.0000
50.0939 -7.8405 3.0009 1.0000
50.0939 -7.6868 2.9995 1.0000
50.0939 -7.5334 2.9981 1.0000
50.0938 -7.3800 2.9968 1.0000
50.0938 -7.2268 2.9955 1.0000
50.0938 -6.7679 2.9917 1.0000
50.0938 -6.6152 2.9905 1.0000
50.0938 -6.3101 2.9882 1.0000
50.0938 -6.1578 2.9871 1.0000
50.0938 -6.0055 2.9860 1.0000
50.0938 -5.7013 2.9839 1.0000
50.0938 -5.5494 2.9829 1.0000
50.0938 -5.2458 2.9810 1.0000
50.0938 -4.9427 2.9792 1.0000
25.0517 -2.1691 1.4882 1.0000
25.0511 -2.0180 1.4874 1.0000
25.0501 -1.7915 1.4864 1.0000
25.0509 -1.7161 1.4861 1.0000
25.0534 -1.5656 1.4857 1.0000
25.0535 -1.2646 1.4847 1.0000
25.0509 -0.9637 1.4837 1.0000
25.0514 -0.8886 1.4836 1.0000
25.0538 -0.7384 1.4835 1.0000
25.0552 -0.6634 1.4834 1.0000
25.0579 -0.5132 1.4834 1.0000
25.0591 -0.4382 1.4834 1.0000
25.0601 -0.2880 1.4833 1.0000
25.0609 -0.1379 1.4832 1.0000
25.0616 0.0121 1.4833 1.0000
25.0620 0.0873 1.4833 1.0000
25.0627 0.2374 1.4834 1.0000
25.0631 0.3125 1.4835 1.0000
25.0639 0.4627 1.4837 1.0000
25.0643 0.5378 1.4838 1.0000
25.0647 0.6129 1.4839 1.0000
25.0651 0.6880 1.4840 1.0000
50.0939 1.6754 2.9665 1.0000
50.0939 1.8256 2.9668 1.0000
50.0939 1.9759 2.9671 1.0000
50.0939 2.1262 2.9675 1.0000
50.0939 2.2765 2.9679 1.0000
50.0939 2.4269 2.9683 1.0000
50.0939 2.7277 2.9692 1.0000
50.0939 2.8782 2.9697 1.0000
50.0939 3.1794 2.9708 1.0000
50.0939 3.3301 2.9713 1.0000
50.0939 3.4808 2.9720 1.0000
50.0939 3.6316 2.9726 1.0000
50.0939 3.7824 2.9732 1.0000
50.0939 3.9334 2.9739 1.0000
50.0939 4.0844 2.9746 1.0000
50.0939 4.3866 2.9761 1.0000
50.0939 4.5378 2.9769 1.0000
50.0939 5.1435 2.9804 1.0000
50.0939 5.2952 2.9813 1.0000
50.0939 5.4470 2.9823 1.0000
50.0939 5.5988 2.9833 1.0000
50.0939 6.2073 2.9875 1.0000
50.0939 6.3597 2.9886 1.0000
50.0939 6.6648 2.9909 1.0000
50.0939 6.9705 2.9934 1.0000
50.0939 7.2766 2.9959 1.0000
50.0939 7.4299 2.9972 1.0000
50.0939 8.1984 3.0042 1.0000
50.0939 8.6612 3.0088 1.0000
50.0939 9.2806 3.0153 1.0000
50.0939 9.4359 3.0169 1.0000
50.0939 9.7470 3.0204 1.0000
50.0939 9.9027 3.0222 1.0000
50.0939 10.0588 3.0240 1.0000
50.0939 10.2149 3.0258 1.0000
50.0939 10.3713 3.0277 1.0000
50.0939 10.5278 3.0296 1.0000
50.0939 10.8416 3.0334 1.0000
50.0939 11.1561 3.0374 1.0000
50.0939 11.9462 3.0479 1.0000
50.0939 12.2638 3.0524 1.0000
50.0939 12.7419 3.0592 1.0000
50.0939 13.2223 3.0663 1.0000
50.0939 -13.3017 3.0675 1.0000
