50.0939 0.1541 5.5219 50.39755890546684 1.461009096366112 0.003076213149958426
50.0939 0.304 5.522 50.39825113245498 1.4610086141826841 0.006068528666836586
50.0939 0.454 5.5221 50.39939009174615 1.4610091090866557 0.009062731599171953
50.0939 0.9038 5.5228 50.40552540634806 1.4610085547541098 0.01804015960888952
50.0939 1.0537 5.5231 50.408468876866316 1.4610090039763985 0.02103139579924416
50.0939 1.3537 5.5239 50.4157196924729 1.4610088932136458 0.02701667525242986
50.0939 1.5037 5.5243 50.420014095495844 1.4610103004345052 0.030008615894319406
50.0939 1.6537 5.5249 50.42477626038612 1.4610087396085014 0.0330000192162112
50.0939 1.8039 5.5254 50.42998034483059 1.4610101400053068 0.03599481917320593
50.0939 2.1041 5.5267 50.44175321011354 1.4610099386241382 0.04197844275835729
50.0939 2.2543 5.5274 50.44831847009373 1.4610103240919432 0.04497114605374501
50.0939 2.5548 5.529 50.46281463860295 1.4610100904613033 0.050956072886126635
50.0939 2.8555 5.5308 50.47912881676941 1.4610098408643264 0.056941327973604565
50.0939 3.0059 5.5318 50.487969490364726 1.4610092159222596 0.05993344609976724
50.0939 3.307 5.5339 50.507020456764224 1.4610089639737096 0.06592037009514091
50.0939 3.6082 5.5362 50.527887694717656 1.4610086923795322 0.07190455137403597
50.0939 4.2115 5.5413 50.57510805870809 1.4610101605101475 0.08387487111187089
50.0939 4.6648 5.5457 50.61535305359432 1.461010348806955 0.09285334246462261
50.0939 5.1188 5.5506 50.65974823279326 1.461009637515748 0.10183065512267736
50.0939 5.2703 5.5523 50.67546659469452 1.461010078298477 0.10482279899969389
50.0939 5.4219 5.5541 50.69165457577805 1.461009555335121 0.10781503335813344
50.0939 5.7254 5.5578 50.72541930048484 1.4610095449807645 0.11379955138972517
50.0939 5.8773 5.5597 50.74299692164427 1.4610100588072519 0.11679172400103019
50.0939 6.0293 5.5617 50.76104591702184 1.4610096139328472 0.11978376498227172
50.0939 6.1815 5.5637 50.77956791023334 1.4610101961406605 0.12277758514318304
50.0939 6.7912 5.5724 50.85834107017255 1.4610088280110525 0.1347478947608976
50.0939 6.9439 5.5747 50.87920837149493 1.4610085584852803 0.13773993366510082
50.0939 7.2497 5.5794 50.922359250726 1.461009110239357 0.14372434290001093
50.0939 7.7095 5.5869 50.99067227513283 1.4610088111203348 0.15270288056139905
50.0939 7.863 5.5895 51.01439107212787 1.461008787450372 0.15569483970840006
50.0939 8.4786 5.6004 51.114087640590824 1.4610092493229307 0.16766515853485767
50.0939 9.0967 5.6122 51.221534113495665 1.4610087101980886 0.1796354845707048
50.0939 9.4067 5.6184 51.27817509096828 1.461008827782775 0.18561972760139778
50.0939 9.8731 5.6281 51.366841740854575 1.4610091205125084 0.19459771539654552
50.0939 10.0289 5.6314 51.39737657098852 1.4610100131565547 0.19758980288309586
50.0939 10.3411 5.6383 51.45996106984536 1.4610091749802618 0.2035746779104425
50.0939 10.6541 5.6454 51.52454953883634 1.4610087209623075 0.20956008006971028
50.0939 10.8109 5.649 51.55759475596199 1.4610091243310461 0.21255282648373372
50.0939 10.9679 5.6527 51.59114909468484 1.4610086649186043 0.21554552189916223
50.0939 11.1251 5.6564 51.62520245170957 1.4610092716190832 0.2185381054287998
50.0939 11.2825 5.6602 51.65976662258551 1.4610090200079922 0.22153051621708844
50.0939 11.4401 5.664 51.69483147491633 1.4610098363548358 0.22452269344715814
50.0939 11.5979 5.6679 51.73040877501356 1.4610097987282615 0.22751457634786723
50.0939 11.9143 5.6759 51.80313892526205 1.4610091920257093 0.23350099509843472
50.0939 12.2315 5.6841 51.87790861503574 1.4610090421124815 0.2394854869683304
50.0939 12.8687 5.7011 52.033689068813864 1.461010364153561 0.2514542439424759
50.0939 13.1888 5.71 52.11475187171095 1.4610100107039161 0.2574393647202462
50.094 -13.3354 5.7142 52.15260118920244 1.4610089881989596 6.023011619120271
50.094 -13.175 5.7096 52.11131348526921 1.4610104599541418 6.026004075804724
50.0939 -13.0148 5.7052 52.070463252116355 1.4610089959087027 6.028997024332217
50.094 -12.855 5.7008 52.0303659571985 1.4610091247463708 6.03198811622245
50.094 -12.5359 5.6921 51.95149302204894 1.4610102507609686 6.03797368385133
50.094 -12.0591 5.6796 51.837135192543194 1.4610096744995251 6.046950738866742
50.094 -11.5843 5.6676 51.72742533946572 1.461009275866751 6.055928862239735
50.0939 -11.4265 5.6637 51.69179061659598 1.4610091906843476 6.058920661568131
50.0939 -11.1115 5.6561 51.62224052353791 1.4610087935869542 6.064905945787617
50.0939 -10.9543 5.6523 51.588215718223864 1.4610101977123566 6.06789887084785
50.0939 -10.7973 5.6487 51.554711871855126 1.4610088146704254 6.070891903387327
50.094 -10.6406 5.6451 51.52182409785197 1.4610087479307043 6.0738834781518936
50.094 -10.484 5.6415 51.48931553487578 1.4610094929394961 6.076876535027756
50.094 -10.3277 5.638 51.45733443630753 1.4610094136688994 6.079867601759319
50.094 -10.1714 5.6345 51.425808736567284 1.4610103104382108 6.082862361962425
50.094 -9.8596 5.6278 51.36431330213614 1.4610095703617194 6.088847400087338
50.094 -9.704 5.6245 51.33431067278492 1.4610098196814783 6.0918394709669474
50.094 -9.5486 5.6213 51.30481080415364 1.461009188544198 6.094831161817416
50.094 -9.3933 5.6181 51.27578345086499 1.4610095724787102 6.097824340178259
50.094 -9.2382 5.615 51.24725748993794 1.4610090721682234 6.100817021035798
50.0939 -9.0833 5.6119 51.21912316420499 1.4610094141562293 6.103808793012376
50.094 -8.9286 5.6089 51.19168382823523 1.4610092877503098 6.10680064656899
50.0939 -8.6195 5.603 51.13793314614895 1.4610094986333915 6.112787034492904
50.0939 -8.4653 5.6001 51.11185030215596 1.4610103292015222 6.1157782673102
50.094 -8.0034 5.5919 51.036580931426045 1.4610094040370216 6.124756616343401
50.094 -7.8498 5.5892 51.012423513101204 1.461010452369344 6.127747952152353
50.094 -7.5429 5.5841 50.96554080180058 1.4610097273971334 6.133733138927834
50.0939 -7.3896 5.5816 50.94270569895164 1.461009688785072 6.136726591320974
50.0939 -7.2365 5.5792 50.920459759314824 1.4610089497854288 6.1397190732852165
50.0939 -6.9307 5.5744 50.87737566993801 1.4610105199971315 6.145703920152288
50.0939 -6.6254 5.5699 50.836193094880734 1.4610102788480546 6.15168888491768
50.0939 -6.4729 5.5678 50.816312818424755 1.4610087307461954 6.154682006307356
50.0939 -6.3206 5.5656 50.79689660727316 1.4610101690308275 6.157673514765839
50.0939 -6.0162 5.5615 50.759469677095716 1.4610101549660952 6.163659324818259
50.0939 -5.8642 5.5596 50.741470327632406 1.4610087251842416 6.166651548994202
50.0939 -5.7123 5.5576 50.723920454357625 1.4610102545783394 6.169643900252226
50.0939 -5.5605 5.5558 50.70685250634277 1.4610088645214945 6.1726363230645855
50.0939 -5.1057 5.5505 50.65841529252568 1.4610087230734063 6.1816134654302894
50.0939 -4.9543 5.5488 50.64319388762917 1.461009363411009 6.184605619065377
50.0939 -4.8029 5.5472 50.628431670949475 1.4610090167518943 6.187599544648764
50.0939 -4.6517 5.5456 50.61413645870095 1.4610096869643903 6.190591231664654
50.0939 -4.3495 5.5426 50.58692896608767 1.4610100643863126 6.196575580193531
50.0939 -4.0475 5.5399 50.56156213439217 1.4610084857346162 6.202562187476409
50.0939 -3.8967 5.5385 50.54956053567627 1.4610101777515743 6.205553722881884
50.0939 -3.5952 5.5361 50.52695007082854 1.4610086379651555 6.211538933797971
50.0939 -3.4445 5.5349 50.51631929851976 1.4610093392948886 6.214532502128547
50.0939 -3.1434 5.5327 50.49644096428975 1.4610097775888229 6.220517319227501
50.0939 -2.9929 5.5317 50.48718622096106 1.4610094984820015 6.223510446663158
50.0939 -2.8425 5.5307 50.47838414559246 1.4610102077700102 6.2265026551370015
50.0939 -2.6922 5.5298 50.47004503752696 1.4610099350704966 6.2294938895342336
50.0939 -2.2414 5.5274 50.447743675312175 1.4610090681549803 6.238471160025492
50.0939 -2.0912 5.5267 50.44121675316724 1.4610087663002183 6.241463930049236
50.0939 -1.941 5.526 50.435136306051554 1.4610094401837128 6.244457448061004
50.0939 -1.0407 5.523 50.408187853760424 1.4610103852671819 6.262413310654549
50.0939 -0.7409 5.5225 50.40283480390761 1.4610086585041469 6.26839616153606
50.0939 -0.441 5.5221 50.39927466362983 1.4610088566287847 6.274382067506136
50.0939 -0.2911 5.5219 50.39816401447576 1.4610104198556408 6.277374285810226
50.0939 0.0088 5.5219 50.39732407836749 1.4610085827455679 0.00017567008973718004
50.0939 0.1586 5.5219 50.3975728659625 1.4610091269007555 0.003166043571624947
50.0939 0.3085 5.522 50.39827847714641 1.4610086739909052 0.006158356606283363
50.0939 0.4584 5.5221 50.39942991919651 1.4610091961947407 0.009150559360843611
50.0939 0.6084 5.5223 50.401039325196464 1.4610087238632783 0.012144594221993312
50.0939 0.7583 5.5225 50.40309357916436 1.4610092244422384 0.015136415561025431
50.0939 0.9083 5.5228 50.4056062947367 1.4610087316473084 0.018129961527782196
50.0939 1.5082 5.5244 50.42015945839521 1.4610086228821932 0.030098366078770904
50.0939 1.6583 5.5249 50.42492732875279 1.4610090698497407 0.033091746522037946
50.0939 1.9585 5.5261 50.4358237830017 1.4610089479733357 0.03907667462143443
50.0939 2.1087 5.5267 50.44194530140565 1.46101035839677 0.042070108230503014
50.0939 2.2589 5.5275 50.44853518854635 1.4610088033938795 0.04506278763618602
50.0939 2.4091 5.5282 50.455560399821145 1.4610101938141602 0.04805465953904236
50.0939 2.5593 5.5291 50.46305361856335 1.4610086188288627 0.05104567072621915
50.0939 2.7097 5.5299 50.47099251362113 1.4610100110395137 0.05403974893206712
50.0939 2.86 5.5308 50.47938357240508 1.461010397163498 0.0570308678664791
50.0939 3.1609 5.5328 50.497544315144665 1.4610101937758004 0.06301595409695951
50.0939 3.4621 5.535 50.51753337822424 1.4610099969392214 0.06900248347270894
50.0939 3.7634 5.5374 50.53933908877321 1.4610097812080236 0.07498604829051052
50.0939 3.9143 5.5387 50.55094222059565 1.4610092102300036 0.07798080182130475
50.0939 4.0651 5.54 50.5629850307515 1.4610095980441962 0.08097217122962397
50.0939 4.2161 5.5414 50.57550227511339 1.4610090304875152 0.08396605346769881
50.0939 4.6693 5.5458 50.61577893641468 1.461009288644048 0.09294240074355138
50.0939 4.8205 5.5474 50.63012625127455 1.4610087320025433 0.09593389077618618
50.0939 4.9719 5.549 50.644940594495715 1.4610091921883077 0.09892761304849346
50.0939 5.1233 5.5507 50.6602140795911 1.4610086652449614 0.101919557322883
50.0939 5.4265 5.5542 50.69215774752541 1.461008664840797 0.10790579673269664
50.0939 5.5782 5.556 50.708818448569666 1.4610091701049173 0.11089800642275621
50.0939 5.73 5.5579 50.72594966700968 1.4610087141753685 0.11389019392516525
50.0939 6.1861 5.5638 50.78013903939216 1.4610094546992891 0.12286803438353494
50.0939 6.3383 5.5659 50.79913490316543 1.4610090845416572 0.125859576555912
50.0939 6.4907 5.568 50.81860513335643 1.4610097436108824 0.1288527823435524
50.0939 6.9485 5.5747 50.87983637503171 1.4610099190529098 0.13783002889859536
50.0939 7.2543 5.5795 50.92302530241109 1.4610085763644252 0.14381428544895242
50.0939 7.4074 5.5819 50.94532362818004 1.461009428837658 0.14680646309050122
50.0939 8.0213 5.5922 51.03932573751342 1.4610094186002176 0.15877741728197006
50.0939 8.1751 5.5949 51.06401847906214 1.4610095269039902 0.16176945509930335
50.0939 8.3291 5.5977 51.08920599608101 1.461008733412807 0.16476245892739128
50.0939 8.4832 5.6005 51.11486182804371 1.4610089506469959 0.16775442741270127
50.0939 8.6375 5.6033 51.141003063588805 1.461010213912238 0.17074724427991675
50.0939 9.1013 5.6123 51.222362208219174 1.4610085281659146 0.17972437924467083
50.0938 -4.3585 4.6846 50.500799972376676 1.477899885299975 6.1963970923068725
50.0938 -4.2075 4.6834 50.48788062743375 1.4778999164171303 6.199389559713814
50.0938 -4.0566 4.6823 50.47542704415685 1.4778988174838819 6.202381548904287
50.0938 -3.9058 4.6811 50.46342011090806 1.4779005328389307 6.2053730044677415
50.0938 -3.755 4.6801 50.45187964238796 1.477899129023673 6.208365856150314
50.0938 -3.4536 4.6781 50.43015735658575 1.4778988295317712 6.214351563409348
50.0938 -3.303 4.6771 50.41997492908937 1.4778999338163057 6.217344310001886
50.0938 -3.1525 4.6762 50.41025591216533 1.4778999026645097 6.22033624979803
50.0938 -2.7012 4.6738 50.38382365720173 1.4778988674768405 6.229314638763955
50.0938 -2.4006 4.6723 50.368463010995285 1.4779003646776792 6.23529984337514
50.0939 -1.9501 4.6705 50.34893521684445 1.4779001363748678 6.244276062817416
50.0939 -1.8 4.67 50.34329863258862 1.477899680238047 6.247268241188588
50.0939 -1.6499 4.6695 50.33810899775636 1.4779000512084555 6.250261063113348
50.0939 -1.4998 4.6691 50.33337572684749 1.4778992716007324 6.253254475169687
50.0939 -1.3498 4.6687 50.32909235164091 1.477899324664432 6.2562464290694235
50.0939 -1.0498 4.668 50.3218751762094 1.4778999335857934 6.262231730866965
50.0939 -0.7499 4.6675 50.3164657291229 1.477899897743756 6.268216538714273
50.0939 -0.45 4.6672 50.312861904785336 1.4778992130352377 6.274202419121506
50.0939 -0.1502 4.667 50.31105510968737 1.4778998597230877 6.280186947101977
50.0939 -0.0003 4.667 50.31083090448815 1.4778994445442564 6.283179318432749
50.0939 0.1496 4.667 50.311053322008675 1.4778998564127137 0.00298638267864764
50.0939 0.2995 4.6671 50.31173163259241 1.477899116257355 0.005978700629467368
50.0939 0.5994 4.6673 50.314429211310745 1.4779001190473506 0.011964957735694934
50.0939 0.7493 4.6675 50.316456790497476 1.4778998811932411 0.014956793640456803
50.0939 0.8993 4.6677 50.31893262967727 1.4779004733056869 0.017950357398992808
50.0939 1.0492 4.668 50.32186266276319 1.4778999104187358 0.020941604061361238
50.0939 1.3492 4.6687 50.32907626352782 1.477899294883405 0.026926909290074092
50.0939 1.7993 4.67 50.343273609291636 1.4778996339301642 0.03590311024560946
50.0939 1.9495 4.6705 50.348911981392405 1.477900093380582 0.038897284974306494
50.0939 2.0996 4.6711 50.35500285552569 1.477899395421452 0.041888769330832035
50.0939 2.2498 4.6717 50.36154483472484 1.4778995321479587 0.04488149594821125
50.0939 2.7006 4.6738 50.38389091773282 1.4778989918493097 0.05385861829581137
50.0939 3.1519 4.6762 50.41031776590979 1.4779000169779672 0.06283700198273211
50.0939 3.3024 4.6771 50.42003497995613 1.4779000447763935 0.06582894045418143
50.0939 3.453 4.6781 50.43021560354467 1.4778989371382145 0.06882168593902568
50.0939 3.6036 4.679 50.440834560601786 1.4779006306761275 0.0718131971803494
50.0939 4.056 4.6823 50.4754780710396 1.4778989116673114 0.08079169818795119
50.0939 4.2069 4.6834 50.487929848430106 1.4779000072438382 0.08378368735803482
50.0939 4.509 4.6858 50.51422195629662 1.477900781228133 0.08976904553950885
50.0939 4.8114 4.6885 50.5423626220619 1.477899000468853 0.09575389555614434
50.0939 4.9627 4.6898 50.557110603158485 1.4779003528623453 0.09874574618853806
50.0939 5.1142 4.6912 50.5723364725222 1.4779005988892937 0.10173977564851673
50.0939 5.2657 4.6927 50.58802078545868 1.4778997037317199 0.10473197587862978
50.0939 5.7208 4.6973 50.63784155293351 1.4779001306940645 0.1137089069761613
50.0939 5.8727 4.6989 50.65537566448402 1.47790065631103 0.11670114236195349
50.0939 6.1768 4.7023 50.69184649171896 1.4779003217028122 0.12268516752958786
50.0939 6.3291 4.7041 50.71079649177284 1.4778994868893471 0.12567881121191166
50.0939 6.9393 4.7115 50.791248596091826 1.477900732659022 0.1376498361811898
50.0939 7.0921 4.7135 50.812535676445044 1.4779002312713327 0.14064142772140584
50.0939 7.2451 4.7155 50.83430172108199 1.47790060810816 0.14363439800950045
50.0939 7.5514 4.7197 50.87924947618626 1.4779000050900128 0.1496183774899852
50.0939 7.8583 4.7241 50.92611134683267 1.477898960585851 0.1556032706470784
50.0939 8.1658 4.7286 50.97488366646852 1.477899439475371 0.1615886145613319
50.0939 8.3198 4.7309 50.999993177058364 1.4779000153277932 0.1645817965313561
50.0939 8.4739 4.7333 51.02558110702905 1.4778994958363854 0.16757394624300953
50.0939 8.6282 4.7357 51.0516552810974 1.4778998642253123 0.1705669475282944
50.0939 8.9372 4.7407 51.105250195454474 1.4778993064980601 0.17655139209942675
50.0939 9.2469 4.7458 51.160791573821456 1.4779003314374055 0.18253659846556647
50.0939 9.402 4.7485 51.18930233417916 1.4778992470003165 0.18552909797293066
50.0939 9.5573 4.7512 51.21830436416262 1.4778990573920776 0.188522092040677
50.0939 9.7128 4.7539 51.24779864794194 1.4778997628881398 0.19151551970907554
50.0939 9.8684 4.7567 51.27777618676535 1.4778993869666774 0.1945073983130987
50.0939 10.0242 4.7595 51.308247320484455 1.4778999077536448 0.1974995930756449
50.0939 10.3364 4.7653 51.370692678413434 1.4778997632798838 0.20348468732887134
50.0939 10.6493 4.7713 51.435121380142576 1.4778993063716956 0.20946840497218958
50.0939 10.8061 4.7743 51.46809259055556 1.4779004483822349 0.21246126884883423
50.0939 11.2777 4.7838 51.57005019330502 1.4778996270097309 0.22143932031324928
50.0939 11.4353 4.787 51.60504115200374 1.477900519751743 0.22443162121143143
50.0939 11.5932 4.7903 51.640566200807676 1.4779004299706715 0.22742552408263256
50.0939 11.9095 4.7971 51.713123826259036 1.4778990824402531 0.2334103032004294
50.0939 12.0679 4.8005 51.750148095150415 1.4778997521408037 0.23640106339921216
50.0939 12.2267 4.804 51.787734320976035 1.4778994925006421 0.23939505625446558
50.0939 12.3856 4.8075 51.82580400553377 1.477900102332164 0.24238656097278494
50.0939 12.5448 4.8111 51.864414654558665 1.4778997465461075 0.24537928230396772
50.0939 13.0238 4.8221 51.98337072622359 1.4779004174421873 0.2543565776447086
50.0939 13.3444 4.8297 52.06532272693602 1.4779004571938144 0.2603419498792959
50.0939 -13.3402 4.8296 52.06423714422405 1.4779004436681273 6.022921646034387
50.0939 -12.8598 4.8183 51.94217253966183 1.4778999990036081 6.031897737786336
50.0939 -12.7001 4.8146 51.90252142603478 1.4779004218606853 6.0348909332000735
50.0939 -12.5407 4.811 51.86341383576673 1.4778998852186545 6.03788304272396
50.0939 -12.3815 4.8074 51.82481504279586 1.477900262428237 6.040875878833945
50.0939 -11.9053 4.797 51.71214745395901 1.4778992655487713 6.049854362598245
50.0939 -11.7471 4.7936 51.67564006937892 1.4778995268965733 6.052845709830633
50.0939 -11.4312 4.787 51.60413277684259 1.477898879808944 6.058831479834998
50.0939 -11.1163 4.7805 51.53468854228189 1.477900011751762 6.064814620969577
50.0939 -10.4887 4.7682 51.401822692780065 1.4778995232218848 6.076786249792014
50.0939 -10.1762 4.7623 51.33841996925889 1.4778998862604964 6.082769948394107
50.0939 -9.5532 4.7511 51.217530188989 1.4778996100679103 6.094742188054657
50.0939 -9.398 4.7484 51.1885585240491 1.4778998552574076 6.097733343234103
50.0939 -9.2429 4.7458 51.160068757381474 1.477899015165187 6.100725928702726
50.0939 -9.088 4.7432 51.132069266263805 1.4778990674540964 6.103717957338515
50.0939 -8.9332 4.7406 51.10454155757588 1.4778999798761108 6.106711302986175
50.0939 -8.6242 4.7356 51.050970120165196 1.4779005811615507 6.112695910086026
50.0939 -8.3158 4.7309 50.99934079632794 1.4778988235731334 6.118681218239757
50.0939 -8.1618 4.7285 50.974233772563956 1.4779002219423512 6.121674476774705
50.0939 -8.008 4.7262 50.949620682101255 1.4779005536384149 6.124666764707962
50.0939 -7.8544 4.724 50.92550041550893 1.477899815075526 6.127658021367885
50.0939 -7.7009 4.7218 50.90184744446904 1.4778999311014127 6.130650136346763
50.0938 -7.0881 4.7135 50.811878948726154 1.4778990271524306 6.142621884400429
50.0938 -6.9353 4.7115 50.79060362685208 1.4778995496105152 6.145613547288968
50.0938 -6.7826 4.7096 50.76980198267471 1.4778989635175739 6.148605730108151
50.0938 -6.63 4.7077 50.749464408306814 1.4778992288857034 6.151598377476239
50.0938 -6.1729 4.7023 50.69127260327955 1.4778992669683526 6.160576585892876
50.0938 -6.0208 4.7006 50.67281787546455 1.477899030612154 6.1635685673959975
50.0938 -5.5651 4.6957 50.62024036825586 1.4778994812670738 6.172545395030723
50.0938 -4.5051 4.6858 50.513774815291725 1.4778999565559179 6.193493312178425
50.0938 -4.354 4.6846 50.50041179634083 1.4778991691817944 6.196486249543397
50.0938 -3.9012 4.6811 50.463064285574255 1.4778998759210258 6.20546427797508
50.0938 -3.7504 4.68 50.45152820876688 1.4779004707394114 6.208457171417697
50.0938 -3.5997 4.679 50.440456773605845 1.4778999329011568 6.211449420696347
50.0938 -3.4491 4.678 50.42984010732138 1.4779002349757215 6.2144409704790515
50.0938 -3.1479 4.6762 50.409968451587034 1.4778993713977029 6.220427715812863
50.0938 -2.9975 4.6753 50.400716609786414 1.4779002036990398 6.223418827208864
50.0938 -2.6967 4.6737 50.383573325241635 1.4779003979501981 6.229404210229243
50.0939 -2.2459 4.6717 50.36137076083215 1.477899210123655 6.238381508573517
50.0939 -1.9455 4.6705 50.348757260830176 1.4778998070885963 6.244367751742021
50.0939 -1.7954 4.67 50.34313437172938 1.4778993762575692 6.247359950628532
50.0939 -1.6454 4.6695 50.33796170505913 1.4778997786022747 6.250350797332667
50.0939 -1.4953 4.6691 50.33324183986166 1.4778990237802283 6.25334422625568
50.0939 -1.1953 4.6683 50.32514862561262 1.4779000065172232 6.259328645451806
50.0939 -0.8953 4.6677 50.31886130060973 1.4779003412418643 6.265314774210288
50.0939 -0.7454 4.6675 50.31639886378992 1.477899773937586 6.268306350005142
50.0939 -0.5954 4.6673 50.31438171795416 1.4779000311065307 6.271300188130817
50.0939 -0.2956 4.6671 50.31170856748953 1.4778990735462476 6.277284457593939
50.0939 -0.1457 4.667 50.311041876510565 1.4778998352182513 6.280276777615128
50.0939 0.1541 4.667 50.31106690401228 1.4778998815634865 0.003076213149958426
50.0939 0.4539 4.6672 50.312896937664 1.4778992779062305 0.009060735512041996
50.0939 0.6039 4.6673 50.314483021392554 1.4779002186842995 0.012054776076089412
50.0939 1.0537 4.668 50.32195668791109 1.4779000844940822 0.02103139579924416
50.0939 1.954 4.6705 50.349086421304605 1.4779004161587586 0.03898698011168572
50.0939 2.1041 4.6711 50.355190688051216 1.4778997429413958 0.04197844275835729
50.0939 2.2543 4.6717 50.361746063753586 1.4778999044045438 0.04497114605374501
50.0939 2.4046 4.6724 50.36876254316756 1.4778989247495669 0.047965035139482116
50.0939 2.5548 4.673 50.37621213678138 1.4779007400356212 0.050956072886126635
50.0939 2.7051 4.6738 50.38413232020573 1.4778994382275408 0.05394818883353199
50.0939 2.8555 4.6745 50.39249594642043 1.4779009496876139 0.056941327973604565
50.0939 3.0059 4.6754 50.40132554983053 1.4778993366268378 0.05993344609976724
50.0939 3.1564 4.6762 50.41059932801831 1.4779005373364065 0.06292647854429903
50.0939 3.4575 4.6781 50.43052392222393 1.477899506727338 0.06891109187679359
50.0939 3.7589 4.6801 50.452269348662604 1.477899848656752 0.07489672056149856
50.0939 4.5136 4.6859 50.51464204545054 1.477899567798081 0.08986013433527992
50.0939 4.6647 4.6872 50.52848787703824 1.4778992574001422 0.09285136337497536
50.0939 4.816 4.6885 50.542800728293635 1.4778998080295143 0.09584488292947868
50.0939 4.9673 4.6899 50.55757162394175 1.4778992158922393 0.09883668043845717
50.0939 5.2702 4.6927 50.588489387804415 1.4779005667191445 0.10482082460246983
50.0939 5.4218 4.6942 50.6046464871557 1.4779005422724685 0.10781306022148446
50.0939 5.7254 4.6974 50.638370719544284 1.477899120914649 0.11379955138972517
50.0939 5.8773 4.699 50.65591844493593 1.4778996719138642 0.11679172400103019
50.0939 6.0293 4.7007 50.6739366557405 1.47789910557415 0.11978376498227172
50.0939 6.4861 4.7059 50.73079740384533 1.477900582672847 0.1287624699364311
50.0939 6.7911 4.7097 50.77104618293777 1.4778992684849512 0.13474593453641592
50.0939 6.9439 4.7116 50.79188654677044 1.4778999254598466 0.13773993366510082
50.0939 7.2497 4.7156 50.834966810847824 1.4778998513316735 0.14372434290001093
50.0939 7.7095 4.7219 50.90315851762049 1.4779003576464484 0.15270288056139905
50.0939 7.863 4.7241 50.926836805558615 1.4779002877395202 0.15569483970840006
50.0939 8.0166 4.7264 50.95099164618879 1.477899118108037 0.15868593765634795
50.0939 8.3244 4.731 51.00075306865576 1.477899434196111 0.16467115778196817
50.0939 8.4786 4.7334 51.026371130328286 1.4778989700192473 0.16766515853485767
50.0939 8.9419 4.7407 51.106072333040814 1.4779008052355587 0.17664232015839543
50.0939 9.2516 4.7459 51.16165054589228 1.4778999325518167 0.1826273291393268
50.0939 9.4067 4.7486 51.190175073543166 1.477898873411391 0.18561972760139778
50.0939 10.1849 4.7625 51.34016372656012 1.4778991381200066 0.2005821440341712
50.0939 10.3411 4.7654 51.371647857354155 1.4778995405096829 0.2035746779104425
50.0939 10.6541 4.7714 51.43612467886748 1.4778991710475786 0.20956008006971028
50.0939 10.8109 4.7744 51.46910987553602 1.47790033843906 0.21255282648373372
50.0939 10.9679 4.7775 51.502603369829764 1.4779004737362709 0.21554552189916223
50.0939 11.125 4.7807 51.53658442989795 1.4778995414696536 0.21853620300758975
50.0939 11.4401 4.7871 51.60611428532475 1.477900510921437 0.22452269344715814
50.0939 11.9143 4.7972 51.71423875046407 1.4778991489462896 0.23350099509843472
50.0939 12.2314 4.8041 51.78885343372645 1.4778995664369672 0.23948360303585167
50.0939 12.3904 4.8076 51.82696062022159 1.4779002436146003 0.2424768588468574
50.0939 12.8687 4.8185 51.94439526214546 1.477900118606319 0.2514542439424759
50.0939 -13.3354 4.8295 52.062998190845676 1.4779001556929992 6.0230111228707255
50.0939 -13.175 4.8257 52.021791805934555 1.4778997230053526 6.026003584747088
50.0939 -12.855 4.8182 51.94097509144394 1.4778997847875015 6.0319876355996875
50.0939 -12.5359 4.8109 51.862244116794635 1.4778997204871418 6.037973213734974
50.0939 -12.3767 4.8073 51.82365920494229 1.477900122536901 6.0409661841833415
50.0939 -12.0591 4.8003 51.74807812962719 1.4778999070899572 6.046950284633534
50.0939 -11.9006 4.7969 51.71105633401816 1.4778992419295396 6.049943172221301
50.0939 -11.1115 4.7804 51.533644094125535 1.4779000724420293 6.064905945787617
50.0939 -10.9543 4.7773 51.49969029994258 1.4778991042685476 6.06789887084785
50.0939 -10.484 4.7681 51.40085457285706 1.4778997224052852 6.076876134770908
50.0939 -10.3277 4.7651 51.36892428803624 1.477900466321766 6.079867206979405
50.0939 -10.1714 4.7622 51.33745946197572 1.4779000995117304 6.082861972680362
50.0939 -9.8596 4.7565 51.27606480240074 1.4779001948448038 6.088847021834394
50.0939 -9.704 4.7538 51.24612226939713 1.4778986750734122 6.091839098248157
50.0939 -9.5486 4.751 51.21666311045654 1.4778999937670323 6.094830794645419
50.0939 -9.3933 4.7483 51.18768655633892 1.4779002302792874 6.09782397856897
50.0939 -9.0833 4.7431 51.131224840697875 1.477899493060802 6.103808793012376
50.0939 -8.9285 4.7405 51.10371091916907 1.4779004308616466 6.106802236505145
50.0939 -8.774 4.738 51.07671227878709 1.4779003432197173 6.109793067122366
50.0939 -8.6195 4.7356 51.05017634465135 1.477899132562846 6.112787034492904
50.0939 -8.4653 4.7332 51.02414431952779 1.4778988407496918 6.1157782673102
50.0939 -8.1572 4.7285 50.97349744033658 1.4778988761479899 6.121763930991992
50.0938 -7.3896 4.7175 50.85518452281931 1.477899366577138 6.136726303115045
50.0938 -7.2365 4.7154 50.832968906507915 1.4779001411451447 6.139718790803723
50.0938 -7.0835 4.7134 50.81122819072572 1.4778998105399979 6.1427119108567165
50.0938 -6.9307 4.7114 50.78996643915017 1.4779003582249166 6.145703649149588
50.0938 -6.6254 4.7076 50.74885438470508 1.4779000880192896 6.151688625432831
50.0938 -6.1683 4.7022 50.69070337024335 1.4779002020575638 6.160667041098562
50.0938 -6.0162 4.7005 50.67226224602569 1.4778999910504564 6.163659088479979
50.0938 -5.8642 4.6988 50.654282755952636 1.4779006289394117 6.1666513184635
50.0938 -5.5605 4.6956 50.61972558252366 1.4779005178794384 6.172636104174233
50.0938 -5.1056 4.6912 50.57136845330567 1.4778988155793233 6.181615239789732
50.0938 -4.8029 4.6884 50.54144577878635 1.4778992975498872 6.187599354995348
50.0938 -4.6516 4.6871 50.52717177331421 1.4778988183878499 6.1905930270669325
50.0938 -4.0475 4.6822 50.474687235583744 1.4778994417233748 6.202562027228631
50.0938 -3.5952 4.679 50.44013582931751 1.4778993401067793 6.211538791262487
50.0938 -3.4445 4.678 50.429525703599474 1.4778996541417002 6.2145323655102604
50.0938 -2.8425 4.6745 50.39166156161156 1.477899407086572 6.226502542226187
50.0938 -2.6921 4.6737 50.38332732700373 1.4778999430735589 6.2294957730643405
50.0939 -2.5418 4.673 50.37555452250625 1.4778995238544321 6.232488077092802
50.0939 -2.2414 4.6716 50.36116100458765 1.4779008163425227 6.238471160025492
50.0939 -1.941 4.6705 50.34858357948116 1.4778994857098262 6.244457448061004
50.0939 -1.6408 4.6695 50.337811554536216 1.4778995007052418 6.250442526192479
50.0939 -1.4907 4.669 50.33309611676992 1.4779007494178953 6.253435972307295
50.0939 -1.3407 4.6686 50.328839840195 1.4779008527699067 6.256427957001516
50.0939 -1.1907 4.6683 50.32503957862328 1.4778998046434628 6.259420420947548
50.0939 -0.5909 4.6673 50.314328667984825 1.4778999328766411 6.27139000683466
50.0939 -0.1411 4.667 50.311028765271736 1.4778998109392034 6.2803686044104445
50.0939 0.1586 4.667 50.31108088850805 1.4778999074595687 0.003166043571624947
50.0939 0.3086 4.6671 50.31178662679353 1.4778992180934307 0.0061603527815827725
50.0939 0.7583 4.6675 50.31659162095541 1.477900130841012 0.015136415561025431
50.0939 0.9082 4.6677 50.31909247730925 1.4779007692578512 0.018127965932764754
50.0939 1.0582 4.668 50.322051115291394 1.477900259313452 0.021121187197951946
50.0939 1.2082 4.6683 50.32545667294038 1.4779005767865643 0.02411402999063323
50.0939 1.3582 4.6687 50.32931833573747 1.4778997429860807 0.027106440779285253
50.0939 1.5082 4.6691 50.33362672468575 1.4778997361860893 0.030098366078770904
50.0939 1.6583 4.6695 50.338385019287216 1.4779005620588999 0.033091746522037946
50.0939 1.9585 4.6705 50.34926126280305 1.4779007396777635 0.03907667462143443
50.0939 2.2589 4.6717 50.361952179299 1.4779002856976717 0.04506278763618602
50.0939 2.4091 4.6724 50.36897757330399 1.4778993224825316 0.04805465953904236
50.0939 2.5593 4.6731 50.37644982836722 1.4778991859601 0.05104567072621915
50.0939 3.0105 4.6754 50.401600099798415 1.4778998441203874 0.06002494369356834
50.0939 3.3115 4.6772 50.42064110361945 1.4778991728343123 0.06600981106725697
50.0939 3.4621 4.6781 50.43083950550496 1.4779000897298706 0.06900248347270894
50.0939 3.7634 4.6801 50.45260481659991 1.4779004681241699 0.07498604829051052
50.0939 3.9142 4.6812 50.464179496847066 1.4778999445869332 0.07797881768458172
50.0939 4.216 4.6835 50.48869819533873 1.4778994358206536 0.08396407125744805
50.0939 4.367 4.6847 50.50164274852849 1.4778994513309438 0.08695644649755885
50.0939 4.5181 4.6859 50.51504432968459 1.4779003097309915 0.08994924149307866
50.0939 4.6693 4.6872 50.52891274844532 1.4779000407781444 0.09294240074355138
50.0939 4.8205 4.6885 50.54322971190108 1.4779005987608296 0.09593389077618618
50.0939 5.1233 4.6913 50.573266809550674 1.4779003268238482 0.101919557322883
50.0939 5.2748 4.6928 50.588978089006694 1.477899481428812 0.10491164602562131
50.0939 5.4264 4.6943 50.60514881570847 1.4778994824170852 0.10790382363483135
50.0939 5.73 4.6974 50.63889102231604 1.4779000781669347 0.11389019392516525
50.0939 6.1861 4.7024 50.69298981299091 1.4779004417098507 0.12286803438353494
50.0939 6.4907 4.706 50.73139501038779 1.4778997004244738 0.1288527823435524
50.0939 6.6432 4.7078 50.75129854782043 1.4779006169293556 0.1318456299683874
50.0939 6.7957 4.7097 50.77166168040987 1.4779003979132301 0.13483610378410593
50.0939 6.9485 4.7117 50.79252490623005 1.4778991190306872 0.13783002889859536
50.0939 7.1013 4.7136 50.81382984837887 1.4779006275710487 0.14082146941456908
50.0939 7.2543 4.7157 50.83563230835237 1.4778990953221895 0.14381428544895242
50.0939 7.4074 4.7177 50.85789108152244 1.4779003750883049 0.14680646309050122
50.0939 7.5607 4.7198 50.88063987156608 1.4779005770640594 0.14979989885850803
50.0939 8.0213 4.7264 50.95173135291871 1.4779004706635157 0.15877741728197006
50.0939 8.1751 4.7287 50.97638356052732 1.4779002105116628 0.16176945509930335
50.0939 8.3291 4.7311 51.00152969500032 1.4778988836514504 0.16476245892739128
50.0939 8.6375 4.7358 51.0532371657273 1.4779007837090692 0.17074724427991675
50.0939 8.7919 4.7383 51.079818027377506 1.477900109179017 0.1737389121128784
50.0938 -4.2075 3.8282 50.41574129108884 1.4947905351559625 6.199389559713814
50.0938 -3.9057 3.8264 50.39131500457197 1.4947894454683572 6.205374988660615
50.0938 -2.8516 3.821 50.3201794710631 1.494789413865346 6.226321467915918
50.0938 -2.7012 3.8203 50.31182735669616 1.494790725348671 6.229314638763955
50.0938 -2.5509 3.8197 50.30393620125567 1.4947907414033812 6.232306785026162
50.0939 -1.95 3.8177 50.27699424687199 1.4947898284505938 6.244278056047956
50.0939 -1.7999 3.8173 50.27136597020216 1.4947892823525328 6.247270234865644
50.0939 -1.3497 3.8162 50.25717749476188 1.494789733620426 6.256248423872229
50.0939 -1.1997 3.8159 50.25335003867901 1.4947899205780426 6.25924086057111
50.0939 -0.3 3.8149 50.239847523853015 1.4947894157395616 6.277196625652287
50.0939 -0.0003 3.8148 50.23894421999729 1.4947900427371 6.283179318432749
50.0939 0.1496 3.8148 50.23916695577266 1.494790380362003 0.00298638267864764
50.0939 0.5994 3.8151 50.24254258673619 1.4947895084833382 0.011964957735694934
50.0939 0.7493 3.8152 50.24456208128398 1.4947905733164153 0.014956793640456803
50.0939 0.8993 3.8154 50.24703807051715 1.494790333970317 0.017950357398992808
50.0939 1.1992 3.8159 50.253338104647334 1.4947899024934013 0.023934471072412204
50.0939 1.3492 3.8162 50.257164069314534 1.4947897132772157 0.026926909290074092
50.0939 1.4992 3.8165 50.26143740582834 1.4947902019242862 0.029918865226275373
50.0939 1.7994 3.8173 50.27134807084449 1.4947892552376203 0.035905103924380254
50.0939 1.9495 3.8177 50.27697485678707 1.4947897990809464 0.038897284974306494
50.0939 2.4 3.8192 50.29657151188339 1.4947895606030615 0.04787341828955186
50.0939 2.7007 3.8203 50.31190008129289 1.4947908354249182 0.05386060876160814
50.0939 2.851 3.821 50.320245023350196 1.49478951307082 0.05685178716669468
50.0939 3.0014 3.8216 50.329035811646534 1.4947908584602734 0.059843936611888256
50.0939 3.1519 3.8223 50.33828829141889 1.494790909506708 0.06283700198273211
50.0939 3.3024 3.8231 50.34799654981318 1.4947896579788922 0.06582894045418143
50.0939 3.6037 3.8247 50.36877803749064 1.494789220159914 0.07181518315385377
50.0939 4.056 3.8273 50.40335483378066 1.4947897285887752 0.08079169818795119
50.0939 4.9628 3.8335 50.4848880686092 1.4947895517641268 0.09874772303748502
50.0939 5.1142 3.8346 50.50007936637327 1.4947906148343975 0.10173977564851673
50.0939 5.7208 3.8396 50.56549117738302 1.4947899580621284 0.1137089069761613
50.0939 6.3291 3.8451 50.6383364461156 1.4947905794459966 0.12567881121191166
50.0939 6.634 3.8481 50.67757538418743 1.494790174036917 0.1316651446249097
50.0939 6.9393 3.8512 50.71867943016655 1.4947905923148008 0.1376498361811898
50.0939 7.5515 3.8579 50.80656809773712 1.4947900714483273 0.1496203293855147
50.0939 8.1659 3.8651 50.902060253294266 1.4947910765687484 0.16159055913997347
50.0939 8.4739 3.869 50.952673721994216 1.4947899583181314 0.16757394624300953
50.0939 8.6282 3.871 50.97871412118984 1.4947895123560329 0.1705669475282944
50.0939 8.9372 3.875 51.03222497647932 1.4947907558436053 0.17655139209942675
50.0939 9.092 3.8771 51.05972175423599 1.4947905181151242 0.17954465443948475
50.0939 9.2469 3.8792 51.08769097796454 1.494790984883746 0.18253659846556647
50.0939 9.402 3.8814 51.116158767751706 1.4947902318998951 0.18552909797293066
50.0939 9.5573 3.8836 51.14511853011976 1.494790212286673 0.188522092040677
50.0939 9.7128 3.8858 51.17457125067097 1.4947909262662618 0.19151551970907554
50.0939 10.0242 3.8904 51.2349354933721 1.494790605096009 0.1974995930756449
50.0939 10.1802 3.8928 51.26586760301634 1.4947896025967438 0.20049204306260143
50.0939 10.6494 3.9 51.361644615121115 1.4947910219491554 0.209470314906507
50.0939 10.8062 3.9025 51.394574440304496 1.4947910303860574 0.21246317633645595
50.0939 10.9632 3.9051 51.42801160321095 1.494789839956427 0.2154559882970394
50.0939 11.4354 3.9129 51.531330050562445 1.4947907218394543 0.22443351858830476
50.0939 11.9095 3.9211 51.63922959020593 1.4947905873690743 0.2334103032004294
50.0939 12.068 3.9239 51.676226956115904 1.494790767963501 0.2364029501507782
50.0939 12.7043 3.9356 51.82940288156907 1.494789433124521 0.24837315140056265
50.0939 12.8639 3.9386 51.86898216063238 1.494789537580412 0.25136435382323447
50.0939 13.184 3.9447 51.94975775978171 1.4947901859288701 0.25734975397397186
50.0939 13.3445 3.9478 51.99095712044547 1.494790733572122 0.2603438138569786
50.0939 -13.1798 3.9446 51.948684433871854 1.4947905430645037 6.02591396607611
50.0939 -13.0197 3.9415 51.908061296392106 1.4947908401867984 6.028905395339022
50.0939 -12.8598 3.9385 51.867957888276266 1.494789967279818 6.031897737786336
50.0939 -12.7001 3.9355 51.82836595407962 1.4947898445553964 6.0348909332000735
50.0939 -12.0639 3.9239 51.675269632871775 1.4947893571856088 6.04685971524934
50.0939 -11.4312 3.9129 51.53039818456675 1.4947893447155307 6.058831479834998
50.0939 -11.2736 3.9102 51.495461336024555 1.49479026223383 6.061823886333066
50.0939 -11.1162 3.9076 51.461034360086465 1.4947899866611831 6.064816523532204
50.0939 -10.8021 3.9025 51.393712532468406 1.49478975326483 6.070800339122698
50.0939 -10.4887 3.8975 51.328375691716566 1.4947905104071704 6.076786249792014
50.0939 -10.1761 3.8927 51.26504600319793 1.494790338417889 6.082771865531651
50.0939 -10.0201 3.8904 51.234133479351435 1.4947894130135742 6.085764410425666
50.0939 -9.8643 3.8881 51.20371620605285 1.494789223070809 6.088756698734291
50.0939 -9.7087 3.8858 51.173793239704246 1.4947897685024003 6.091748669518546
50.0939 -9.398 3.8813 51.11541558962423 1.4947910867193293 6.097733343234103
50.0939 -9.2429 3.8792 51.08696712724293 1.4947899058862568 6.100725928702726
50.0939 -9.088 3.8771 51.059009641981895 1.4947894560276362 6.103717957338515
50.0939 -8.7786 3.8729 51.00452910850172 1.4947906965778535 6.109703974191362
50.0939 -8.6242 3.8709 50.97802967612616 1.4947904572071327 6.112695910086026
50.0939 -8.3158 3.867 50.92646694843458 1.4947901559492645 6.118681218239757
50.0939 -7.8544 3.8614 50.8527366670664 1.4947901843029083 6.127658021367885
50.0939 -7.7009 3.8596 50.82911754280217 1.4947903131333784 6.130650136346763
50.0938 -7.0881 3.8528 50.73927500359066 1.4947898782792655 6.142621884400429
50.0938 -6.9353 3.8512 50.7180335380819 1.4947896225166561 6.145613547288968
50.0938 -6.7826 3.8496 50.6972571384291 1.4947900651271833 6.148605730108151
50.0938 -6.4775 3.8466 50.65711338252507 1.4947891100867492 6.154591433957893
50.0938 -6.3252 3.8451 50.6377502214504 1.4947896978419994 6.157582879142323
50.0938 -6.1729 3.8436 50.618837934211804 1.4947909643571538 6.160576585892876
50.0938 -5.8688 3.8409 50.582448781074255 1.4947897131054086 6.1665607330946495
50.0938 -5.565 3.8383 50.54790371845305 1.4947892542762595 6.172547366949192
50.0938 -5.4134 3.837 50.53133945384785 1.494790092030279 6.175537780208549
50.0938 -5.2617 3.8358 50.51522193329453 1.494789618470729 6.178532101945664
50.0938 -5.1102 3.8346 50.49957524217407 1.4947898546245686 6.181524356986215
50.0938 -4.8075 3.8323 50.46966790043303 1.4947904316159517 6.1875083645061855
50.0938 -4.6562 3.8312 50.45539703857259 1.4947907570878833 6.190501985127881
50.0938 -4.354 3.8292 50.42825484864611 1.4947895445039623 6.196486249543397
50.0938 -4.203 3.8282 50.41536593817405 1.4947899681847832 6.199478762560924
50.0938 -4.0521 3.8273 50.40294176077425 1.4947891044808859 6.2024707957687015
50.0938 -3.9012 3.8263 50.39095882765082 1.4947908974231783 6.20546427797508
50.0938 -3.7504 3.8255 50.37944768305822 1.4947894229762575 6.208457171417697
50.0938 -3.5997 3.8246 50.36838496209701 1.4947906169757463 6.211449420696347
50.0938 -3.2985 3.8231 50.34764139758684 1.494789120793052 6.21743375314492
50.0938 -3.1479 3.8223 50.3379384772559 1.494790380301719 6.220427715812863
50.0938 -2.6967 3.8203 50.311585956119494 1.4947903599614825 6.229404210229243
50.0939 -1.7954 3.8172 50.27119746146893 1.4947910220559266 6.247359950628532
50.0939 -1.6454 3.8168 50.26603346803883 1.494791179413133 6.250350797332667
50.0939 -1.0452 3.8156 50.2498762546735 1.4947906435487543 6.262323518279927
50.0939 -0.8953 3.8154 50.24696663939028 1.4947902257115908 6.265314774210288
50.0939 -0.1456 3.8148 50.23915520398407 1.4947903625486108 6.280278773849326
50.0939 0.0043 3.8148 50.23894440312216 1.4947900430146837 8.583879450705318e-05
50.0939 0.3041 3.8149 50.23987217370283 1.4947894531038122 0.006070524844358978
50.0939 0.4539 3.8149 50.241002223582285 1.4947911659943187 0.009060735512041996
50.0939 0.6039 3.8151 50.24259647380895 1.494789590160852 0.012054776076089412
50.0939 0.7538 3.8152 50.2446293915081 1.4947906753340554 0.015046604722113473
50.0939 0.9038 3.8154 50.24711881103234 1.4947904563376824 0.01804015960888952
50.0939 1.0537 3.8156 50.25005377370257 1.4947909125732723 0.02103139579924416
50.0939 1.2037 3.8159 50.2534456899226 1.4947900655261015 0.024024250725205788
50.0939 1.5038 3.8165 50.26157482510869 1.494790410132372 0.03001061034812048
50.0939 1.954 3.8177 50.277149546289905 1.4947900636776834 0.03898698011168572
50.0939 2.1042 3.8182 50.28324896116001 1.4947893286574612 0.04198043549352284
50.0939 2.2543 3.8187 50.28979176125111 1.494789265239098 0.04497114605374501
50.0939 2.4046 3.8192 50.29679121981839 1.4947898932589017 0.047965035139482116
50.0939 2.5549 3.8198 50.30424637403883 1.494789217293906 0.05095806395813936
50.0939 2.7052 3.8203 50.312141838128895 1.4947912013467604 0.053950179280091014
50.0939 2.8555 3.821 50.32050018094017 1.4947898992185653 0.056941327973604565
50.0939 3.1564 3.8224 50.33857784969695 1.4947893552500853 0.06292647854429903
50.0939 3.4575 3.8239 50.358468351112506 1.4947895616017677 0.06891109187679359
50.0939 3.6082 3.8247 50.3691001958542 1.4947897072360563 0.07190455137403597
50.0939 3.7589 3.8255 50.380180593860516 1.494790530828571 0.07489672056149856
50.0939 3.9097 3.8264 50.391724600969944 1.4947900644635157 0.07788953089561801
50.0939 4.3625 3.8292 50.4290887891106 1.4947908038459772 0.08686729205022659
50.0939 4.6647 3.8313 50.45628903308288 1.4947901156983314 0.09285136337497536
50.0939 4.816 3.8324 50.47058512609102 1.4947898284838583 0.09584488292947868
50.0939 4.9673 3.8335 50.4853306293026 1.4947902193349831 0.09883668043845717
50.0939 5.1188 3.8347 50.50055301419976 1.4947893431627732 0.10183065512267736
50.0939 5.5736 3.8383 50.54895034577869 1.4947908310571698 0.1108073026659248
50.0939 5.8773 3.841 50.58354231862375 1.494789376769996 0.11679172400103019
50.0939 6.0293 3.8423 50.60152710136325 1.4947906779714626 0.11978376498227172
50.0939 6.1814 3.8437 50.619981754836694 1.4947907038820796 0.12277561883292074
50.0939 6.3337 3.8452 50.63891918218634 1.494789475299871 0.12576919491677538
50.0939 6.7912 3.8497 50.698514817891855 1.4947899761003551 0.1347478947608976
50.0939 7.2497 3.8545 50.7623299066345 1.4947908786511852 0.14372434290001093
50.0939 7.7095 3.8597 50.830428795653496 1.494790304593594 0.15270288056139905
50.0939 8.0167 3.8633 50.8782014519971 1.4947908469525526 0.15868788405925463
50.0939 8.1705 3.8652 50.90280599829443 1.494790222006702 0.16168000842462224
50.0939 8.3245 3.8671 50.9278958908573 1.4947903234119824 0.16467310038838154
50.0939 8.4786 3.8691 50.953463179454246 1.494789169952923 0.16766515853485767
50.0939 8.7873 3.873 51.006034814519744 1.4947909783773965 0.17364982722873704
50.0939 8.9419 3.8751 51.03305588371129 1.4947900305476212 0.17664232015839543
50.0939 9.0967 3.8772 51.06056646708887 1.4947898138036873 0.1796354845707048
50.0939 9.4068 3.8815 51.117049461994576 1.4947895968732499 0.1856216558578564
50.0939 9.7175 3.8859 51.17547109963913 1.4947903055752754 0.19160594250305218
50.0939 9.8731 3.8882 51.205419830912426 1.494789798165611 0.19459771539654552
50.0939 10.0289 3.8905 51.235862856694425 1.4947900260371423 0.19758980288309586
50.0939 10.185 3.8928 51.26682098638456 1.4947910187837783 0.2005840610402602
50.0939 10.3411 3.8952 51.29824314204142 1.4947907441388566 0.2035746779104425
50.0939 10.4975 3.8977 51.330189837463095 1.4947892942159706 0.20656734356885562
50.0939 10.8109 3.9026 51.39557045874673 1.4947905548441074 0.21255282648373372
50.0939 10.9679 3.9052 51.42902132706785 1.4947893850409986 0.21554552189916223
50.0939 11.5979 3.9157 51.56784664992324 1.494790192749758 0.22751457634786723
50.0939 11.756 3.9184 51.603839118519076 1.494790834384255 0.23050799624939752
50.0939 11.9143 3.9212 51.64034441345255 1.4947902892875273 0.23350099509843472
50.0939 12.2315 3.9269 51.71488135024579 1.4947895097784931 0.2394854869683304
50.0939 12.3905 3.9298 51.75293842382285 1.4947893123641647 0.24247874000968228
50.0939 13.0287 3.9417 51.91033461450619 1.4947903111795835 0.25444819862132984
50.0939 13.1889 3.9448 51.951009109159756 1.4947900897664688 0.25744123156583665
50.0939 -13.0148 3.9415 51.90683248378772 1.4947890374035462 6.028997024332217
50.0939 -12.855 3.9384 51.86676042293369 1.494790142708056 6.0319876355996875
50.0939 -12.6953 3.9354 51.827182370451126 1.4947900405121084 6.034980968391632
50.0939 -12.3767 3.9295 51.74961343188952 1.4947902333014151 6.0409661841833415
50.0939 -12.2178 3.9266 51.71161998632416 1.4947905251073332 6.043957935102894
50.0939 -11.7423 3.9182 51.60070462445256 1.4947900956442135 6.05293653723132
50.0939 -11.5843 3.9155 51.564774448745524 1.4947895454524538 6.055928424038013
50.0939 -11.4265 3.9128 51.529348174608224 1.4947897391979168 6.058920661568131
50.0939 -11.1115 3.9075 51.460011715020045 1.494790422184072 6.064905945787617
50.0939 -10.484 3.8974 51.32740788282611 1.4947910284239825 6.076876134770908
50.0939 -10.3276 3.895 51.29550822411257 1.4947905942006758 6.079869121840527
50.0939 -10.1714 3.8926 51.264105667903735 1.4947908978830708 6.082861972680362
50.0939 -10.0154 3.8903 51.233206892210056 1.4947899932346331 6.085854626330279
50.0939 -9.704 3.8857 51.1728941696676 1.4947903903634814 6.091839098248157
50.0939 -9.5486 3.8835 51.1434859138483 1.4947897422604293 6.094830794645419
50.0939 -9.3933 3.8813 51.11455166378748 1.4947897996176147 6.09782397856897
50.0939 -9.2382 3.8791 51.08610939639072 1.4947905904297207 6.100816665001245
50.0939 -8.9286 3.8749 51.030711979943995 1.4947904633025615 6.106800301718726
50.0939 -8.7739 3.8729 51.0037203822427 1.4947894890896751 6.1097950039561
50.0939 -8.3112 3.8669 50.92570842177849 1.4947909910001909 6.118770584448487
50.0939 -8.1572 3.865 50.90065769761723 1.4947909485192077 6.121763930991992
50.0939 -7.5429 3.8578 50.805282977855754 1.4947901191572812 6.133732845006529
50.0938 -7.2365 3.8544 50.7603401293766 1.49478986927521 6.139718790803723
50.0938 -6.9307 3.8511 50.71739713490825 1.4947906443608097 6.145703649149588
50.0938 -6.778 3.8496 50.69664192626569 1.4947891409983163 6.148695905803803
50.0938 -6.6254 3.848 50.67634386575259 1.4947903024183522 6.151688625432831
50.0938 -6.4729 3.8465 50.65651779485045 1.4947901945120938 6.154681752596711
50.0938 -6.3206 3.845 50.63716824428475 1.4947908031574588 6.15767326683537
50.0938 -6.1683 3.8436 50.61827717623349 1.4947901207315368 6.160667041098562
50.0938 -6.0162 3.8422 50.599861281628044 1.4947901529395649 6.163659088479979
50.0938 -5.8642 3.8408 50.581907681699796 1.4947908811719268 6.1666513184635
50.0938 -5.7123 3.8395 50.56442356024639 1.4947903335676977 6.169643675537605
50.0938 -5.5605 3.8382 50.5474009018268 1.4947904808113752 6.172636104174233
50.0938 -5.4088 3.837 50.53084686486068 1.4947893496699078 6.175628548834885
50.0938 -5.1057 3.8346 50.499120072432945 1.4947891682240668 6.181613264058704
50.0938 -4.6517 3.8312 50.45498196184397 1.4947901306079392 6.190591047877969
50.0938 -4.5005 3.8302 50.4411908139568 1.4947891920809933 6.193584403912059
50.0938 -4.0475 3.8272 50.40256456302596 1.494790524338353 6.202562027228631
50.0938 -3.8967 3.8263 50.39061064345222 1.4947903712345327 6.205553568531339
50.0938 -3.7459 3.8254 50.379105295846614 1.4947908961172214 6.208546502778741
50.0938 -3.5952 3.8246 50.368063558568544 1.4947901310397966 6.211538791262487
50.0938 -3.4445 3.8238 50.35747040042818 1.4947900439957718 6.2145323655102604
50.0938 -2.993 3.8216 50.32843603769145 1.4947899509397957 6.223508338665175
