45.0293 -1.1745 1.1415 45.059076011276574 1.5454602072983188 6.257108202674094
45.0296 -1.0396 1.1414 45.056058840959444 1.545460730476694 6.260102371668548
45.0314 -0.9048 1.1414 45.05494915056502 1.545460106334714 6.263095363957531
45.0337 -0.77 1.1414 45.054742587767606 1.545459990150703 6.266088666749737
45.0361 -0.6353 1.1414 45.05504081964636 1.5454601578948748 6.269079781498955
45.0384 -0.5005 1.1414 45.055640809669995 1.54546049535988 6.272073025242809
45.0408 -0.3657 1.1414 45.056744168770116 1.545461115921871 6.275066180425848
45.0455 -0.0961 1.1415 45.06006355643542 1.5454607626885046 6.2810519119635675
45.0526 0.3085 1.1417 45.068119751105655 1.5454608533892757 0.006847444506792993
45.0547 0.7131 1.1419 45.07480936520974 1.545460175773692 0.015826106118215732
45.2471 0.8516 1.1468 45.2696413859222 1.5454609660799623 0.018818873833740184
45.2434 0.987 1.1468 45.26869296544799 1.5454604351674068 0.021811876885070892
45.2405 1.1224 1.1468 45.26894931683305 1.5454605786715319 0.02480454016495391
45.2434 1.258 1.1469 45.27541482051821 1.545461988075 0.02779799821416392
45.248 1.6648 1.1474 45.29315168764479 1.5454608684235958 0.03677619764957381
45.2519 1.8007 1.1476 45.302251156647834 1.5454615422168538 0.039771820678125715
44.8477 2.188 1.1378 44.915455336999536 1.5454615791757211 0.04874868750074672
45.2964 2.3459 1.1494 45.371667592562645 1.5454606264248485 0.05174375834993256
45.3054 2.4823 1.1498 45.38791824362514 1.5454608837913388 0.0547356500898656
50.0939 2.8951 1.2715 50.193596538502796 1.5454617001656916 0.057729247501679216
50.0939 3.0455 1.2718 50.20250355012188 1.5454602183232797 0.060721087973805626
50.0939 3.1961 1.272 50.21186967660137 1.5454609609320766 0.06371581678142234
50.0938 3.3467 1.2722 50.221585918507195 1.545461879919795 0.06670953439684858
50.0938 3.4973 1.2725 50.23185405676363 1.5454610855428104 0.06970192822238011
50.0938 3.648 1.2728 50.242578778163846 1.5454605217828772 0.0726950579921018
50.0938 3.7988 1.2731 50.253760690022 1.5454601888139736 0.07568886835127174
50.0938 3.9496 1.2734 50.265392529652054 1.5454600828296323 0.07868131995100595
50.0938 4.7049 1.275 50.33041334471634 1.5454610210723665 0.09364708430706269
50.0938 5.0076 1.2757 50.359629334318974 1.545461817935327 0.09963347084318876
50.0938 5.1591 1.2761 50.37492970178718 1.5454615714207567 0.10262696944722913
50.0938 5.4623 1.2769 50.40690422293359 1.5454617694734083 0.10861232657041275
50.0938 5.6141 1.2774 50.4235923750976 1.5454602367964194 0.11160604797807654
50.0938 5.9179 1.2782 50.458340580027006 1.5454618285102057 0.11759135436106236
50.0938 6.2222 1.2792 50.49495939121053 1.5454603946390848 0.12357803822003585
50.0938 6.5269 1.2801 50.533433270063895 1.5454618726956286 0.12956368360241508
50.0938 6.6795 1.2806 50.55338223155796 1.5454619783997803 0.13255793948527891
50.0938 6.8321 1.2812 50.573786315540985 1.5454603341129864 0.135549806347785
50.0938 6.985 1.2817 50.59468132452265 1.5454609141853766 0.1385451081016531
50.0938 7.4441 1.2834 50.660147441652796 1.5454600934280276 0.14752362483201026
50.0938 7.5974 1.2839 50.68291314052499 1.5454616079421082 0.1505164238975079
50.0938 7.9045 1.2851 50.729886661612014 1.5454614094480033 0.15650356798927348
50.0938 8.2121 1.2864 50.77875746618856 1.5454601881783654 0.16248914108623166
50.0938 8.3661 1.287 50.80390532872449 1.545460918308679 0.1654814400542042
50.0938 8.6746 1.2883 50.855650624979724 1.5454611316862397 0.1714667165745621
50.0938 8.8292 1.289 50.882266970723705 1.5454606256142909 0.17446151258587267
50.0938 8.9839 1.2897 50.909356544156005 1.5454603556345061 0.17745508442762734
50.0938 9.2937 1.2911 50.96497422092942 1.5454605318336672 0.1834402665983893
50.0938 9.6043 1.2925 51.0225629812929 1.5454616866138142 0.18942759026573827
50.0938 9.7598 1.2933 51.052082419525256 1.545460663493633 0.19241997945631925
50.0938 10.0714 1.2948 51.112605132589366 1.5454613136210182 0.19840576752003997
50.0938 10.2275 1.2956 51.143612837283996 1.5454610299475613 0.2013990444532089
50.0938 11.0109 1.2997 51.30611988194001 1.5454613560128854 0.21636491455828966
50.0938 11.1682 1.3006 51.34013098970434 1.5454606073960053 0.21935832313988501
50.0938 11.3257 1.3015 51.37464531439609 1.5454601079952552 0.22235154000490628
50.0938 11.6413 1.3032 51.445184365205655 1.5454617996901199 0.2283371552375681
50.0938 11.9578 1.3051 51.51777426568427 1.5454606120309953 0.23432316272081144
50.0938 12.1164 1.306 51.55484054286271 1.5454613687529817 0.23731639254398287
50.0938 12.2752 1.307 51.59241787782387 1.5454604365022044 0.24030906089487578
50.0938 12.4343 1.3079 51.63052602230584 1.545461703610586 0.24330298762254846
50.0938 12.5936 1.3089 51.669147260333226 1.545461284460968 0.24629622625173883
50.0938 12.9129 1.3109 51.74794917346967 1.5454612117050206 0.252282269379787
50.0938 13.0729 1.3119 51.788131791560126 1.5454615578867268 0.2552749474881762
50.0938 13.3937 1.314 51.870093446320304 1.545461100008941 0.2612611643100081
50.0939 -12.3325 1.3073 51.60618574114929 1.5454613821140093 6.041797935197235
50.0938 -12.0149 1.3054 51.531065286970346 1.5454613244805069 6.047784010433324
50.0939 -11.8565 1.3045 51.4944378521603 1.545460783338148 6.050776653417718
50.0939 -11.5403 1.3027 51.4225083848503 1.5454603519256955 6.0567623476513575
50.0938 -11.3825 1.3018 51.38720451561848 1.5454604616720244 6.05975529888928
50.0939 -11.0675 1.3 51.318401898929004 1.5454615729882415 6.065743262202378
50.0939 -10.7535 1.2983 51.25155765779222 1.5454617037337732 6.071727594102384
50.0939 -10.5967 1.2975 51.21886736691861 1.5454611547831827 6.074721742332012
50.0939 -10.1276 1.2951 51.123814245222356 1.545460999628131 6.083701852992556
50.0939 -9.8159 1.2936 51.062942639256505 1.5454601761235236 6.089686988067225
50.0939 -9.6603 1.2928 51.03323961047349 1.5454611075822102 6.092680044536968
50.0939 -9.5049 1.2921 51.00403379763212 1.5454603258928432 6.095672706366787
50.0938 -9.1945 1.2906 50.94696533700511 1.5454613914231503 6.101660110263851
50.0939 -9.0396 1.2899 50.91931880318117 1.5454613845822682 6.104653514590296
50.0939 -8.8849 1.2892 50.892065215119736 1.5454615733910038 6.107645930326866
50.0938 -8.5759 1.2879 50.838897958748085 1.5454606518471081 6.113632162788551
50.0938 -7.9598 1.2853 50.738537725973146 1.5454617870052458 6.125604812513736
50.0939 -7.8062 1.2847 50.71475159891843 1.5454617367843837 6.12859726521373
50.0938 -7.4993 1.2836 50.66829312193179 1.545460218966468 6.1345837308296565
50.0938 -7.3461 1.283 50.64582976563816 1.5454608298123997 6.137576286446415
50.0938 -7.1929 1.2824 50.6238200712866 1.5454616682858813 6.140571470922599
50.0938 -7.04 1.2819 50.60230890038517 1.5454607802969071 6.1435633611336
50.0938 -6.4294 1.2798 50.52092507902047 1.5454615389783626 6.155535956804376
50.0938 -6.2771 1.2793 50.50175631935983 1.5454618245153269 6.158528121758116
50.0938 -5.6688 1.2775 50.429714436332084 1.5454613296082151 6.1705009833109905
50.0938 -5.3653 1.2767 50.39648008958562 1.5454604978941344 6.176486992088004
50.0938 -5.0621 1.2759 50.365082901351414 1.5454605894812288 6.182474758038142
50.0938 -4.9107 1.2755 50.350081163589 1.545460986044277 6.185467433148923
50.0938 -4.6082 1.2748 50.321460836505935 1.5454604885188832 6.191452063541284
50.0938 -3.5516 1.2726 50.23566633140244 1.545461017333619 6.212404751903224
50.0938 -2.7989 1.2714 50.18803739547902 1.545460886488677 6.227370158471404
45.0153 -2.2449 1.1421 45.08570951543294 1.545461865061716 6.233356876426199
45.0168 -2.1099 1.142 45.080684602720936 1.54546125951187 6.236350412637063
45.0192 -1.975 1.1419 45.076966726367026 1.5454613886087574 6.239343247833956
45.028 -1.4355 1.1416 45.06533806386012 1.5454615089187305 6.251315937557361
45.0298 -1.3007 1.1416 45.063044272330295 1.5454602190540747 6.254308020812192
45.0297 -1.031 1.1414 45.05596117108146 1.5454606755438032 6.260293307069282
45.0316 -0.8961 1.1414 45.05497517178319 1.545460120970621 6.263288573607578
45.0362 -0.6266 1.1414 45.0550189430656 1.5454601455901995 6.269272952838363
45.0386 -0.4918 1.1414 45.05574492958695 1.5454605539213186 6.272266218783217
45.0434 -0.2221 1.1414 45.05840660664777 1.5454620508689916 6.278254547066687
45.0457 -0.0873 1.1415 45.06024558332987 1.5454608650568116 6.2812472777849315
45.0504 0.1823 1.1416 45.065230766190474 1.545461448585107 0.004046556855609224
45.0527 0.3172 1.1417 45.068280109407326 1.5454609435551967 0.007040527180067596
45.0534 0.452 1.1417 45.070130180087126 1.5454619837625418 0.010032202587116968
45.054 0.5869 1.1418 45.07228721564949 1.5454609770834895 0.013025853552564652
45.2433 1.2668 1.1469 45.275560258709106 1.5454620694736365 0.02799241224778284
45.2548 1.9452 1.1479 45.31112888121416 1.5454598840605822 0.04295684361612266
44.8477 2.1968 1.1378 44.91588487795827 1.5454618215096 0.04894443934492664
45.3058 2.4911 1.1498 45.38879964143136 1.545461375881525 0.05492882002179197
50.0938 2.9048 1.2716 50.194059688771944 1.545459941076009 0.05792235245806931
50.0939 3.0553 1.2718 50.203099013307934 1.5454605189013135 0.0609159978424332
50.0938 3.2058 1.272 50.21238827301486 1.5454612226531814 0.0639087929446752
50.0938 3.3564 1.2723 50.22223577948318 1.545460216021143 0.06690230821183481
50.0938 4.1103 1.2737 50.27828235152828 1.545460610955368 0.08186867091801175
50.0938 4.4123 1.2743 50.30388683014465 1.5454615781571692 0.08785403165188772
50.0938 4.7146 1.275 50.331321029752445 1.5454614780720808 0.09383902438939529
50.0938 4.866 1.2754 50.345738643901136 1.5454607872060142 0.09683396522180995
45.0155 -0.3742 0.3802 45.018660774505506 1.562350839674591 6.274872806348152
45.0239 -0.1047 0.3802 45.02562698441855 1.562352146362327 6.280859879767158
45.0281 0.03 0.3803 45.02971594069854 1.562350692325608 0.0006662505314870147
45.0364 0.2996 0.3804 45.039002978307586 1.562350213478936 0.0066522985980287715
45.0406 0.4345 0.3804 45.04430200114105 1.5623512071054197 0.009646552717076907
45.0472 0.7042 0.3805 45.05431062318011 1.5623508635745702 0.015631218932493186
45.2039 0.842 0.3818 45.21335323165049 1.5623518184710654 0.01862455765404008
45.2 0.9774 0.3818 45.212178469965366 1.56235159904964 0.021620524358343704
45.1944 1.2479 0.3818 45.2132371879077 1.5623517967969782 0.027604814016380153
45.0814 1.3799 0.3809 45.10412214842453 1.5623513220058594 0.030599522024174007
45.2054 2.0612 0.3822 45.25398116674377 1.5623505606110972 0.0455647632954837
45.2118 2.197 0.3823 45.26676287884964 1.5623507362444216 0.0485553144512616
45.2181 2.3331 0.3824 45.27986476326978 1.5623509714972377 0.05155088119960533
45.2243 2.4691 0.3825 45.29326739759453 1.562351262691368 0.05454260377735803
50.0938 2.8854 0.4238 50.1786203281836 1.5623503983136493 0.057536368212994946
50.0938 3.1864 0.4239 50.196828929823845 1.5623514698681316 0.06352308957043531
50.0938 3.9398 0.4244 50.2502829627854 1.562350502800186 0.07848689259832711
50.0938 4.0907 0.4245 50.26234002889241 1.5623505392233388 0.08148000915675732
50.0938 4.3928 0.4247 50.28783014179475 1.562350843115241 0.08746774558900712
50.0938 4.5439 0.4248 50.30125525958572 1.562351109127341 0.0904602744413562
50.0938 4.6952 0.4249 50.31514922456258 1.5623514536911989 0.09345513730413606
50.0938 5.1493 0.4253 50.359556878709725 1.5623509574925436 0.10243338583845801
50.0938 5.3009 0.4254 50.37528465835206 1.5623516091315213 0.1054271348542037
50.0938 6.2123 0.4263 50.47933439953424 1.562351186374022 0.12338340703866048
50.0938 6.3647 0.4265 50.498317860895135 1.562350400499843 0.1263784981594536
50.0938 6.6696 0.4268 50.53765448494815 1.56235103827038 0.13236375758355712
50.0938 6.8223 0.427 50.55803501650357 1.562350486754263 0.1353577408772757
50.0938 6.9751 0.4271 50.57888129308516 1.562351990641553 0.13835124285011322
50.0938 7.281 0.4275 50.62197660789235 1.5623512776254005 0.14433658112436504
50.0938 7.4342 0.4277 50.644240100627435 1.5623510409475192 0.14733025996838844
50.0938 7.8945 0.4283 50.71385776668937 1.5623508030178912 0.15630878621335584
50.0938 8.2021 0.4287 50.762653856353886 1.562351041462243 0.16229473382342707
50.0938 8.3562 0.4289 50.78778231120158 1.562351281970561 0.1652891673155861
50.0938 8.5104 0.4291 50.81338242441651 1.5623516006289624 0.16828255259069685
50.0938 8.8191 0.4296 50.86599924713954 1.5623505061334702 0.17426595880720183
50.0938 8.9738 0.4298 50.89305073308143 1.5623510655477244 0.1772597385939718
50.0938 9.1287 0.43 50.920593693809195 1.5623517058760112 0.18025417485849668
50.0938 9.7497 0.431 51.03558767693383 1.5623511389779106 0.19222572380577965
50.0938 10.3737 0.432 51.1584702090475 1.5623518769803073 0.20419917220630365
50.0938 10.5302 0.4323 51.19043654599949 1.562351289641068 0.20719297753590238
50.0938 11.0007 0.4331 51.28929493120373 1.5623519691991574 0.21617067256367828
50.0938 11.158 0.4334 51.32326565993244 1.56235171311848 0.21916433830302803
50.0938 11.4732 0.434 51.39271809001739 1.5623514502697367 0.22515104362993532
50.0938 11.7892 0.4346 51.46419058180164 1.5623515196251705 0.23113650857091034
50.0938 12.1061 0.4352 51.53771293615967 1.5623519246774846 0.23712213339026836
50.0938 12.424 0.4359 51.613317886471904 1.5623507317454437 0.24310929737442982
50.0938 13.0626 0.4372 51.77075874506767 1.56235130479068 0.2550824339357151
50.0938 13.2228 0.4376 51.811415074672496 1.5623502111609522 0.2580744790042191
50.0938 13.3833 0.4379 51.852611060003525 1.56235113577454 0.26106739520104116
50.0939 -13.1409 0.4374 51.79066893543662 1.5623506895999577 6.026640372275226
50.0939 -12.8209 0.4367 51.71039548204983 1.5623511159819656 6.032626403986616
50.0939 -12.5019 0.436 51.632222660079236 1.5623518872698188 6.0386120415008895
50.0938 -12.3427 0.4357 51.593806568424476 1.5623514143569064 6.041605498666812
50.0938 -12.1838 0.4354 51.55602151097386 1.5623510441113169 6.044598194161068
50.0939 -12.0251 0.4351 51.51884275903332 1.5623507727186483 6.0475919307683474
50.0939 -11.3926 0.4339 51.374881227891905 1.562350464766467 6.059564015933901
50.0938 -11.0776 0.4333 51.30584536960677 1.5623507949472073 6.065550611720278
50.0939 -10.9205 0.433 51.27225006238754 1.562351112345336 6.068542901781244
50.0939 -10.7636 0.4327 51.23905865118913 1.5623514967288392 6.071534862521022
50.0939 -10.6068 0.4324 51.206347196514606 1.5623519607622247 6.0745287645396795
50.0938 -10.4502 0.4322 51.17403907568759 1.5623505377564622 6.077522242100546
50.0938 -10.2938 0.4319 51.142327425431084 1.562351166871816 6.080516037847562
50.0939 -9.8259 0.4311 51.050298483260605 1.5623516137040239 6.0894947516717135
50.0938 -9.6703 0.4309 51.02047799991686 1.5623505979495047 6.092487212683952
50.0939 -8.1235 0.4286 50.750111008942625 1.5623509246767358 6.12241935976638
50.0939 -7.9697 0.4284 50.72571795312511 1.562350806256912 6.125412365894077
50.0938 -7.8161 0.4282 50.701711735305345 1.5623507521622244 6.128404023419719
50.0939 -7.5092 0.4278 50.655403608006125 1.5623509279820014 6.134390731949646
50.0938 -7.2029 0.4274 50.6108015902732 1.5623513888220029 6.140375883588697
50.0938 -6.897 0.4271 50.5681700464828 1.562350201936969 6.146363811641542
50.0938 -6.4393 0.4265 50.50777450234766 1.5623519818800593 6.155341535199721
50.0938 -5.5268 0.4256 50.399558054014726 1.5623517079362437 6.173300702867499
50.0938 -5.2235 0.4254 50.36719880884781 1.5623502534011782 6.179286409543849
50.0938 -5.072 0.4252 50.351710770141665 1.5623516275533187 6.182279130370066
50.0938 -4.6179 0.4249 50.30799478075031 1.5623502526930872 6.1912600550830375
50.0938 -4.4668 0.4247 50.294348298491755 1.5623519376774824 6.194251795251928
50.0938 -4.3157 0.4246 50.281153030633654 1.5623517104539857 6.197245132479039
50.0938 -4.1647 0.4245 50.268416772164215 1.5623515602243214 6.200238031808419
50.0938 -4.0138 0.4244 50.25613897067701 1.5623514869583168 6.203230437762971
50.0938 -3.8629 0.4243 50.24431137293057 1.5623514893271981 6.206224279371511
50.0938 -3.7121 0.4242 50.23294168660641 1.5623515686801117 6.209217518608388
50.0938 -3.5613 0.4241 50.2220222306908 1.5623517237756144 6.212212086279165
50.0938 -3.2601 0.424 50.20156199213327 1.5623502740371735 6.218197044008907
50.0938 -2.9591 0.4238 50.18291220814113 1.5623511206665661 6.224182688977845
50.0938 -2.8086 0.4237 50.17426186891044 1.5623516577533196 6.227177126434577
44.9634 -1.9813 0.3801 45.00863656299755 1.5623511805470438 6.239149065962778
44.9683 -1.8466 0.3801 45.00780390621164 1.5623510243057945 6.242143882884541
44.9731 -1.712 0.3801 45.00727878488101 1.5623509257680903 6.245136478913111
44.8414 -1.1696 0.3788 44.858250161592345 1.5623518488970556 6.257108180412841
44.9815 -1.0385 0.38 44.99509111558726 1.5623508606801981 6.260102138664999
44.9991 -0.9042 0.3801 45.00978842940722 1.5623513966758436 6.263094275653345
45.0075 -0.6348 0.3801 45.01358132053036 1.5623521082713423 6.2690819263859385
45.0116 -0.5002 0.3802 45.01598479029422 1.5623503376189838 6.272073073637356
45.02 -0.2307 0.3802 45.022196464966036 1.5623515029327275 6.278060962872897
45.0284 0.0387 0.3803 45.03002256650556 1.5623507498363736 0.000859457375182026
45.0409 0.4432 0.3804 45.04468673672845 1.5623512792385739 0.009839627907547057
45.0451 0.5781 0.3805 45.0504163562336 1.5623501335109438 0.012833099808562799
45.0473 0.713 0.3805 45.054549010505035 1.5623509082612732 0.015826486133791666
45.2032 0.8508 0.3818 45.21281811743214 1.5623517185241018 0.018819454253002445
45.1998 0.9861 0.3818 45.212167438533626 1.5623515969891404 0.02181300795963715
45.196 1.1213 0.3818 45.21151956006345 1.5623514759737722 0.024804629243453155
45.1943 1.2567 0.3818 45.21338096869111 1.562351823651639 0.027799440497478282
45.0807 1.3886 0.3809 45.10368950828746 1.562351240998409 0.03079280232160886
45.2001 1.9341 0.3821 45.24307442283294 1.5623507349044572 0.04276364155450452
45.2122 2.2059 0.3823 45.267595219317755 1.5623508915381563 0.04875126947201965
45.2247 2.4779 0.3825 45.29414735647421 1.562351426763025 0.054736125912144315
50.0938 2.8951 0.4238 50.17917903762476 1.5623504923552871 0.05772936248810805
50.0938 3.3467 0.424 50.207260185455254 1.5623512326313187 0.06670953439684858
50.0938 3.4973 0.4241 50.217524496334946 1.562350967416465 0.06970192822238011
50.0938 3.7987 0.4243 50.23941630453125 1.5623506664864304 0.0756868835102793
50.0938 3.9496 0.4244 50.25105226719138 1.5623506321022367 0.07868131995100595
50.0938 4.2515 0.4246 50.27568334543053 1.562350791709811 0.08466788243733114
50.0938 4.4026 0.4247 50.288687150193134 1.56235098704468 0.08766188237598219
50.0938 5.3107 0.4254 50.3763168372798 1.5623517821625676 0.10562059749051464
50.0938 5.6141 0.4257 50.40920687473669 1.5623513405228973 0.11160604797807654
50.0938 5.766 0.4259 50.42635169482322 1.5623502455414433 0.1145997320352801
50.0938 6.07 0.4262 50.46201883476324 1.562350270194138 0.12058479833080332
50.0938 6.2222 0.4263 50.48055371100837 1.5623513903634922 0.12357803822003585
50.0938 6.5269 0.4266 50.51901829618229 1.5623518818219921 0.12956368360241508
50.0938 6.9849 0.4272 50.58023454166658 1.5623502394434938 0.13854314991916322
50.0938 7.1378 0.4273 50.601576779483864 1.5623518255427615 0.14153595338406574
50.0938 7.4441 0.4277 50.64569429418458 1.5623512834433997 0.14752362483201026
50.0938 7.5974 0.4279 50.668455508432466 1.5623511298345871 0.1505164238975079
50.0938 7.7509 0.4281 50.69170069015243 1.5623510569956978 0.15351040774613905
50.0938 8.2121 0.4287 50.76427059005182 1.5623513104329547 0.16248914108623166
50.0938 8.3661 0.4289 50.78941211374671 1.562351552973555 0.1654814400542042
50.0938 8.5203 0.4291 50.81504144778395 1.562351876341245 0.16847463153320713
50.0938 9.1387 0.43 50.92238737657535 1.5623520033351808 0.18044737735541244
50.0938 9.4489 0.4305 50.9789744885085 1.5623515685168543 0.18643369122641085
50.0938 9.7598 0.431 51.0375181163818 1.5623514584156863 0.19241997945631925
50.0938 9.9155 0.4313 51.0675235191604 1.5623505456438553 0.19541272552846023
50.0938 10.0714 0.4315 51.09802431258962 1.5623516729284934 0.19840576752003997
50.0938 10.5402 0.4323 51.19249454529443 1.5623516291496975 0.20738414757400725
50.0938 10.8538 0.4329 51.25798645372251 1.5623507132166707 0.21337137514990664
50.0938 11.0109 0.4332 51.29148447344842 1.562350379971439 0.21636491455828966
50.0938 11.1681 0.4334 51.325462410094275 1.5623520745598882 0.21935642140917558
50.0938 11.3256 0.4337 51.35996601916711 1.5623519062071134 0.2223496408285072
50.0938 11.6413 0.4343 51.43050923936104 1.562351822392808 0.2283371552375681
50.0938 11.7995 0.4346 51.46655103900008 1.5623519069462422 0.23133132337822968
50.0938 12.5935 0.4362 51.65438327121911 1.5623516381381586 0.24629434866338693
50.0938 12.753 0.4365 51.693503844196904 1.5623522254114621 0.2492868415813003
50.0938 13.0729 0.4372 51.77335856103987 1.5623517288702766 0.2552749474881762
50.0938 13.2331 0.4376 51.81404469649132 1.5623506398211386 0.2582666904456485
50.0938 13.3937 0.4379 51.85529630172795 1.5623515731053437 0.2612611643100081
50.0938 -13.2909 0.4377 51.82883755729044 1.5623511209292809 6.02384035569514
50.0939 -12.8106 0.4367 51.707842697795854 1.5623506990372114 6.032819386860734
50.0938 -12.651 0.4363 51.66843288827329 1.5623519989754306 6.035811638065251
50.0938 -12.4916 0.436 51.62963262507298 1.5623514636387994 6.038805140317938
50.0939 -12.1736 0.4354 51.55370915200962 1.5623506653026964 6.044790906783388
50.0938 -12.0149 0.4351 51.51636567596748 1.5623503666178655 6.047784010433324
50.0939 -11.6982 0.4344 51.44351663533511 1.5623520136716822 6.053771194818084
50.0938 -11.3824 0.4338 51.37252194159832 1.5623520235158306 6.059757197137433
50.0939 -10.9104 0.433 51.27009980846536 1.5623507581469374 6.06873538401837
50.0939 -10.7534 0.4327 51.23691694530419 1.562351143726096 6.0717295024156215
50.0938 -10.5966 0.4324 51.20413752578985 1.5623515963441743 6.0747232488910825
50.0939 -10.4401 0.4321 51.17207456836199 1.5623521677735732 6.077715861872636
50.0938 -10.2837 0.4319 51.14029547959222 1.5623508313142014 6.080709498482357
50.0938 -10.1276 0.4316 51.10913185292821 1.5623515515802668 6.083701465253391
50.0938 -9.8158 0.4311 51.04825731883509 1.5623512760341673 6.089688533805751
50.0939 -9.6603 0.4309 51.01868175590192 1.5623503005888104 6.092680044536968
50.0938 -9.5048 0.4306 50.98936592898563 1.5623513283044779 6.095674267640712
50.0939 -9.3496 0.4304 50.96076021342303 1.562350512503541 6.0986668416595755
50.0938 -9.0396 0.4299 50.90469507432493 1.5623510329038914 6.1046531657202605
50.0939 -8.4216 0.429 50.798683100745826 1.562351125594043 6.11662652988561
50.0938 -7.8061 0.4282 50.70017111302486 1.562350495521082 6.12859891043841
50.0938 -7.4993 0.4278 50.65383807541143 1.5623506669581186 6.1345837308296565
50.0938 -7.3461 0.4276 50.63138182402294 1.5623508712733636 6.137576286446415
50.0938 -7.193 0.4274 50.609393576686934 1.562351153868188 6.140569514994853
50.0938 -7.04 0.4272 50.58787303573852 1.5623515147871303 6.1435633611336
50.0938 -6.4295 0.4265 50.50652602327743 1.5623517731379555 6.155533992901248
50.0938 -6.2771 0.4264 50.48735088920789 1.562350546578605 6.158528121758116
50.0938 -6.1248 0.4262 50.468639965031755 1.5623513782836482 6.161522532147544
50.0938 -5.8207 0.4259 50.432635641417754 1.5623512979549192 6.167508035762555
50.0938 -5.6688 0.4258 50.415328993471825 1.562350382458567 6.1705009833109905
50.0938 -4.6082 0.4248 50.30710447561061 1.5623520910776487 6.191452063541284
50.0938 -4.3059 0.4246 50.28031283126628 1.5623515693385157 6.197439327382418
50.0938 -4.1549 0.4245 50.26760579836681 1.5623514239805694 6.200432325017004
50.0938 -3.4009 0.424 50.210902155308865 1.562351845197677 6.215398688291062
50.0938 -3.2504 0.4239 50.20093216076769 1.5623521601346348 6.218389866494576
50.0938 -3.0998 0.4239 50.19140613381936 1.5623505574444965 6.22138419487959
50.0938 -2.7989 0.4237 50.17371982761494 1.5623515665209338 6.227370158471404
44.95 -2.3765 0.3801 45.0143835708099 1.5623522587685201 6.230364630319502
44.9588 -2.1072 0.3801 45.00975966709887 1.5623513912792037 6.236350004008816
44.9637 -1.9726 0.3801 45.008554125410434 1.5623511650785615 6.239342475485374
44.9686 -1.838 0.3801 45.00775162091526 1.5623510144946926 6.242335080482657
44.9734 -1.7034 0.3801 45.00725225038738 1.562350920788898 6.24532768130809
44.8735 -1.2962 0.3791 44.893817542062514 1.562351856568512 6.25430769183039
44.8499 -1.1611 0.3789 44.86652703775945 1.5623511778398471 6.257302513518224
44.9877 -1.03 0.38 45.001093889926715 1.5623519872624212 6.260294159478016
44.9994 -0.8955 0.3801 45.00991442582401 1.5623514203163291 6.263287668190104
45.0036 -0.7608 0.3801 45.01163522479493 1.562351743173558 6.26628160311658
45.0077 -0.6261 0.3801 45.01365944366221 1.5623521229269932 6.26927525138494
45.0119 -0.4914 0.3802 45.016187839598324 1.5623503757162347 6.272268627831187
45.0161 -0.3567 0.3802 45.0191186735147 1.562350925577475 6.275261641315729
45.0328 0.1822 0.3803 45.0347743501619 1.562351640981254 0.004045917771654215
45.037 0.3171 0.3804 45.039722751922 1.5623503484583208 0.007040761156148262
45.0412 0.4519 0.3804 45.04507315134476 1.5623513516852847 0.010032699792420548
45.0475 0.7217 0.3805 45.05488749725161 1.5623509717112198 0.016019496391587323
45.2026 0.8595 0.3818 45.2123827977469 1.5623516372147044 0.019012101941236436
45.1959 1.13 0.3818 45.21163620186733 1.5623514977612174 0.02499706010706924
45.0583 1.6666 0.3808 45.09071925673841 1.5623510295596632 0.03697078243764621
45.2004 1.9429 0.3821 45.24375118157202 1.56235086123713 0.04295768918672734
45.2251 2.4867 0.3825 45.295029011471 1.562351591144536 0.054929640519932994
50.0938 2.9048 0.4238 50.17973961590475 1.562350586709382 0.05792235245806931
50.0938 3.2058 0.4239 50.19806413886894 1.5623516776731894 0.0639087929446752
50.0938 3.8085 0.4243 50.24015825194025 1.5623507912150338 0.07588139508508554
50.0938 3.9593 0.4244 50.25181559197638 1.56235076039534 0.07887375748133772
50.0938 4.1102 0.4245 50.263930832456786 1.5623508065304952 0.08186668801265612
50.0938 4.7147 0.4249 50.31697262892513 1.5623517597267906 0.0938410031170411
50.0938 4.866 0.4251 50.33137654038483 1.5623502026574345 0.09683396522180995
50.0938 5.0174 0.4252 50.34624014005416 1.562350709929202 0.0998271644851601
50.0938 -0.4164 -0.4231 50.09731730352435 1.5792419892118434 6.274873092696755
50.0938 -0.2664 -0.4231 50.09629508267054 1.5792421615506864 6.277867333924299
50.0938 0.0335 -0.4231 50.095597953313224 1.5792422790855518 0.0006687453339486972
50.0938 0.1834 -0.4231 50.09592246490727 1.5792422243730226 0.0036611153592837472
50.0938 0.4832 -0.4231 50.097917065383065 1.579241888099723 0.009645605137465669
50.0938 0.6332 -0.4231 50.09958836447661 1.579241606353006 0.012639613678044462
50.0938 0.7832 -0.4231 50.10170869631095 1.579241248935639 0.015633395619192858
50.0938 0.9332 -0.4231 50.104278003879074 1.579240815876447 0.018626897328753254
44.9676 1.107 -0.3799 44.982828087726986 1.579241872181673 0.02461275352329152
44.9712 1.2418 -0.3799 44.98994577336141 1.579240536012781 0.027606212957151658
44.9747 1.5113 -0.38 45.00168961028019 1.5792405545408026 0.033590697429870295
44.9684 1.7807 -0.3801 45.00524821684689 1.5792421088743531 0.039578239787534455
50.0938 2.1338 -0.4234 50.14101283819465 1.5792406123786766 0.04257035524940066
50.0938 2.2841 -0.4235 50.1476346750273 1.5792414914940218 0.04556490148404362
50.0938 2.5846 -0.4236 50.1622207698184 1.579241029366651 0.05154949710643505
50.0938 2.735 -0.4237 50.17019578524684 1.5792416802577047 0.05454342188835105
50.0938 2.8854 -0.4238 50.1786203281836 1.5792422552761438 0.057536368212994946
50.0938 3.0358 -0.4238 50.18749332772061 1.5792407620256137 0.060528282967187604
50.0938 3.1864 -0.4239 50.196828929823845 1.5792411837216616 0.06352308957043531
50.0938 4.6951 -0.4249 50.31513989307791 1.5792412014648243 0.09345315843306208
50.0938 4.8464 -0.425 50.32948456322596 1.579240781467369 0.09644634203812365
50.0938 4.9978 -0.4252 50.344290622870034 1.5792422707138976 0.09943976970014771
50.0938 5.1493 -0.4253 50.359556878709725 1.5792416960972495 0.10243338583845801
50.0938 5.3008 -0.4254 50.375274135631265 1.5792410462223023 0.10542516070481803
50.0938 5.4525 -0.4256 50.391464456294585 1.5792423020136745 0.10841898825541275
50.0938 5.6043 -0.4257 50.40811638436811 1.5792414957635683 0.11141283749065253
50.0938 5.9081 -0.426 50.442798495424505 1.579241636664692 0.11739840968688035
50.0938 6.2124 -0.4263 50.47934670625206 1.5792414651568216 0.12338537305718876
50.0938 6.5171 -0.4266 50.51775310136032 1.579240983260224 0.12937131149734477
50.0938 6.975 -0.4271 50.57886750264384 1.5792406652506619 0.1383492845618294
50.0938 7.5875 -0.4279 50.666972014321125 1.5792417710306466 0.1503232326113277
50.0938 7.7409 -0.4281 50.69017262606234 1.5792418511842785 0.15331544379196196
50.0938 7.8945 -0.4283 50.71385776668937 1.579241850571902 0.15630878621335584
50.0938 8.0482 -0.4285 50.738012711674074 1.5792417717576268 0.15930125320711985
50.0938 8.3561 -0.4289 50.787765858127685 1.5792413743551321 0.16528722510376598
50.0938 8.5104 -0.4291 50.81338242441651 1.5792410529608307 0.16828255259069685
50.0938 9.1286 -0.43 50.920575766579866 1.5792409506868874 0.18025224276479887
50.0938 9.4388 -0.4305 50.977103430167546 1.5792413950358435 0.18623898937679856
50.0938 9.5942 -0.4307 51.006107228154555 1.5792405140091095 0.18923310989339504
50.0938 9.7497 -0.431 51.03558767693383 1.5792415146118826 0.19222572380577965
50.0938 9.9054 -0.4312 51.065562574400374 1.5792404739394217 0.1952186979744579
50.0938 10.0613 -0.4315 51.09603456609916 1.5792413095149962 0.19821197142559108
50.0938 10.2174 -0.4318 51.12700374987762 1.5792420619600036 0.20120548316921
50.0938 10.3736 -0.432 51.158449931560675 1.579240779956661 0.20419725803844097
50.0938 10.8436 -0.4329 51.255827588772775 1.579242296105798 0.21317687929991377
50.0938 11.3155 -0.4337 51.35773977094397 1.5792411134389606 0.22215781561319978
50.0938 11.4732 -0.434 51.39271809001739 1.5792412033200565 0.22515104362993532
50.0938 11.7892 -0.4346 51.46419058180164 1.5792411339646226 0.23113650857091034
50.0938 12.9025 -0.4369 51.7305923637068 1.579242106635797 0.2520875847751747
50.0938 13.2228 -0.4375 51.81141423016747 1.579240512421049 0.2580744790042191
50.0938 13.3833 -0.4379 51.852611060003525 1.579241517815253 0.26106739520104116
50.0938 -12.9808 -0.437 51.75017812607025 1.579240842535739 6.0296324527046385
50.0938 -12.6613 -0.4364 51.67095664964991 1.5792421775509613 6.035618360971256
50.0938 -12.5019 -0.436 51.632125639469855 1.5792407821880823 6.038611572508102
50.0938 -11.7084 -0.4345 51.445740535538995 1.5792422187428896 6.053577673378209
50.0938 -11.3926 -0.4339 51.37478372129658 1.5792422048535022 6.059563584262784
50.0938 -11.235 -0.4336 51.340062645072805 1.5792420733041612 6.0625569888355315
50.0938 -11.0777 -0.4333 51.30586696100165 1.5792418550883112 6.065548708534972
50.0938 -10.7635 -0.4327 51.23893987954864 1.5792411764364989 6.071536360676731
50.0938 -10.6067 -0.4324 51.20622865521342 1.579240712376556 6.074530270590477
50.0938 -10.4502 -0.4322 51.17403907568759 1.579242115833331 6.077522242100546
50.0938 -10.2938 -0.4319 51.142327425431084 1.5792414867179771 6.080516037847562
50.0938 -9.9817 -0.4314 51.08041933353719 1.5792419334319225 6.086501206230508
50.0938 -9.8259 -0.4311 51.05020035670771 1.5792410561182284 6.089494374614221
50.0938 -9.6703 -0.4309 51.02047799991686 1.5792420556402884 6.092487212683952
50.0938 -9.5148 -0.4306 50.99123095042912 1.5792410163993087 6.095481586217765
50.0938 -9.3596 -0.4304 50.96249753259744 1.579241853160332 6.098473582964739
50.0938 -9.2045 -0.4301 50.93423803984899 1.57924064888722 6.101466997613949
50.0938 -8.8948 -0.4297 50.87917950959902 1.579241925023231 6.107453991817443
50.0938 -8.4316 -0.429 50.80024328681902 1.5792412686190684 6.116432071318259
50.0938 -8.2775 -0.4288 50.77489216266245 1.5792415460539524 6.11942504871309
50.0938 -8.1235 -0.4286 50.75001230196895 1.5792417453394554 6.122419044337821
50.0938 -7.9697 -0.4284 50.725619198684996 1.5792418637753118 6.1254120561397425
50.0938 -7.6625 -0.428 50.67825854042343 1.579241863408984 6.131398786809249
50.0938 -7.0498 -0.4272 50.58923777168421 1.57924091098321 6.143371522323854
50.0938 -6.5917 -0.4267 50.52743195750206 1.5792413447867653 6.152349855430071
50.0938 -5.8305 -0.4259 50.433767651247315 1.5792411660776908 6.1673150132563315
50.0938 -5.375 -0.4255 50.383136798833796 1.5792417131915486 6.176295555388559
50.0938 -4.9205 -0.4251 50.33667478787211 1.5792415619042266 6.185273665958172
50.0938 -4.7691 -0.425 50.32209989905032 1.5792420207031055 6.188267985881488
50.0938 -4.6179 -0.4248 50.30799393625232 1.5792404132119389 6.1912600550830375
50.0938 -4.3156 -0.4246 50.281144447595864 1.5792409445773454 6.197247114026898
50.0938 -4.1646 -0.4245 50.268408487339244 1.5792410947573017 6.200240014360507
50.0938 -4.0137 -0.4244 50.25613098408989 1.5792411679735425 6.203232421283863
50.0938 -3.712 -0.4242 50.232934296933124 1.5792410861520034 6.209219503961633
50.0938 -3.5613 -0.4241 50.2220222306908 1.5792409298141787 6.212212086279165
50.0938 -3.4106 -0.424 50.21156009127779 1.5792406977391065 6.215205942481991
50.0938 -3.1095 -0.4239 50.19200613543954 1.5792419951810959 6.221191299077712
50.0938 -2.6582 -0.4237 50.16606768892695 1.5792423752306843 6.230170579039847
50.0938 -2.5079 -0.4236 50.15832730275204 1.5792416848899669 6.233162991675663
50.0938 -2.3575 -0.4235 50.15103146436771 1.5792409194793189 6.236158293021763
50.0938 -2.0571 -0.4234 50.1378073554279 1.5792411522637813 6.242143404762372
44.8279 -1.4378 -0.3788 44.85255150702131 1.5792418776151256 6.251122523299463
44.8311 -1.3036 -0.3788 44.85164868329814 1.5792420476205804 6.254115470067439
46.9761 -0.8032 -0.3968 46.98464165756721 1.5792417400831709 6.266088916810459
50.0938 -0.7066 -0.4231 50.10056981322668 1.5792414409096558 6.269080704565669
50.0938 -0.4067 -0.4231 50.097237617856734 1.5792420026460023 6.275066716364829
50.0938 -0.2568 -0.4231 50.09624495199216 1.5792421700025274 6.278058969179996
50.0938 0.343 -0.4231 50.096760983620484 1.5792420830023746 0.006847047734461025
50.0938 0.6429 -0.4231 50.099711899970046 1.579241585528204 0.012833219005586607
50.0938 0.7929 -0.4231 50.101861267421995 1.5792412232183952 0.015826984446763337
44.9678 1.1157 -0.3799 44.983242961574035 1.5792417942877957 0.024805997771427543
50.0938 2.2938 -0.4235 50.148077422070735 1.57924141693163 0.045758134773820396
50.0938 2.444 -0.4236 50.15517292762533 1.5792422160507502 0.0487498173714018
50.0938 2.5943 -0.4236 50.16272149604725 1.579240945069299 0.051742617812141345
50.0938 2.8951 -0.4238 50.17917903762476 1.579242161234506 0.05772936248810805
50.0938 3.0456 -0.4238 50.18808707492248 1.5792406621218467 0.0607231977943546
50.0938 3.648 -0.4242 50.228245520623155 1.5792418744839192 0.0726950579921018
50.0938 3.7988 -0.4243 50.23942386582474 1.5792419858322169 0.07568886835127174
50.0938 3.9496 -0.4244 50.25105226719138 1.5792420214875564 0.07868131995100595
50.0938 4.1005 -0.4245 50.26313857032806 1.5792419801831963 0.081674343128652
50.0938 4.2515 -0.4246 50.27568334543053 1.5792418618799822 0.08466788243733114
50.0938 4.5537 -0.4248 50.302141476978896 1.579241395672033 0.09065430750149041
50.0938 4.7049 -0.4249 50.31605531497874 1.5792410478198902 0.09364708430706269
50.0938 4.8562 -0.425 50.33042918434136 1.5792406229747846 0.09664015727139867
50.0938 5.1591 -0.4253 50.36055987913558 1.579241527892003 0.10262696944722913
50.0938 5.6141 -0.4257 50.40920687473669 1.5792413130668959 0.11160604797807654
50.0938 5.766 -0.4258 50.42635085032428 1.579240425028926 0.1145997320352801
50.0938 6.07 -0.4262 50.46201883476324 1.579242383395655 0.12058479833080332
50.0938 6.2222 -0.4263 50.48055371100837 1.5792412632263009 0.12357803822003585
50.0938 6.3745 -0.4265 50.49955396773322 1.5792420463492036 0.1265710184823396
50.0938 6.5269 -0.4266 50.51901829618229 1.579240771767801 0.12956368360241508
50.0938 6.8321 -0.427 50.55935836074268 1.5792419457682565 0.135549806347785
50.0938 7.2909 -0.4275 50.62340148093567 1.5792411382599196 0.1445301162176052
50.0938 7.5974 -0.4279 50.668455508432466 1.579241523755206 0.1505164238975079
50.0938 7.7508 -0.4281 50.691685399974624 1.57924159914151 0.15350845816479589
50.0938 7.9044 -0.4283 50.715399817905414 1.5792415937714055 0.15650162023075628
50.0938 8.2121 -0.4287 50.76427059005182 1.5792413431568384 0.16248914108623166
50.0938 8.6746 -0.4294 50.84114345645661 1.5792423426802713 0.1714667165745621
50.0938 8.8292 -0.4296 50.86775134837396 1.5792418565394992 0.17446151258587267
50.0938 8.9838 -0.4298 50.89481495123054 1.579241295288526 0.17745315037752377
50.0938 9.4489 -0.4305 50.9789744885085 1.5792410850729388 0.18643369122641085
50.0938 9.6042 -0.4308 51.00799000862512 1.5792421628613231 0.189425664788557
50.0938 10.5402 -0.4323 51.19249454529443 1.5792410244400956 0.20738414757400725
50.0938 10.8538 -0.4329 51.25798645372251 1.5792419403731224 0.21337137514990664
50.0938 11.0109 -0.4332 51.29148447344842 1.579242273618354 0.21636491455828966
50.0938 11.3257 -0.4337 51.35998807067619 1.5792407437569653 0.22235154000490628
50.0938 11.4833 -0.434 51.394973813885734 1.579240832665867 0.22534260771443754
50.0938 11.6413 -0.4343 51.43050923936104 1.5792408311969852 0.2283371552375681
50.0938 12.4343 -0.4359 51.61579819919479 1.5792415159954503 0.24330298762254846
50.0938 12.5936 -0.4362 51.654407651622535 1.5792410114657247 0.24629622625173883
50.0938 12.753 -0.4366 51.69350468869373 1.579242362588379 0.2492868415813003
50.0938 -13.2909 -0.4377 51.82883755729044 1.5792415326605123 6.02384035569514
50.0938 -12.6509 -0.4363 51.66840840339482 1.5792406586160972 6.035813514634403
50.0938 -12.3325 -0.4357 51.59136739009735 1.5792416385077686 6.041797471827991
50.0938 -12.0149 -0.4351 51.51636567596748 1.5792422869719276 6.047784010433324
50.0938 -11.8564 -0.4347 51.479626877921326 1.5792405442929616 6.050778096355236
50.0938 -11.2248 -0.4336 51.3378314933539 1.5792424403666059 6.062750863570799
50.0938 -11.0675 -0.4333 51.303665595939634 1.579242217482163 6.065742841686023
50.0938 -10.7534 -0.4327 51.23681917615495 1.5792415259790222 6.071729092766879
50.0938 -10.4401 -0.4321 51.17197667532495 1.5792405019704527 6.077715463150444
50.0938 -10.1276 -0.4316 51.10913185292821 1.5792411020095263 6.083701465253391
50.0938 -9.9716 -0.4314 51.07844663808797 1.5792422596165863 6.086695135873463
50.0938 -9.8158 -0.4311 51.04825731883509 1.5792413775556258 6.089688533805751
50.0938 -9.3496 -0.4304 50.96066191446104 1.5792421573779265 6.098666481617669
50.0938 -9.1945 -0.4301 50.93243185535127 1.5792409483499719 6.101660110263851
50.0938 -8.8848 -0.4297 50.8774322423017 1.5792422150745922 6.107647522431832
50.0938 -8.7303 -0.4294 50.850676700413736 1.5792407592235853 6.1106392508198715
50.0938 -8.2675 -0.4288 50.77326288638539 1.5792418170612061 6.119619374695876
50.0938 -7.8061 -0.4282 50.70017111302486 1.579242158068711 6.12859891043841
50.0938 -7.4993 -0.4278 50.65383807541143 1.5792419866316745 6.1345837308296565
50.0938 -7.346 -0.4276 50.631367315133815 1.579241784736611 6.137578240675705
50.0938 -7.1929 -0.4274 50.60937936400722 1.5792415020933275 6.140571470922599
50.0938 -6.8871 -0.427 50.566819890616024 1.57924069952148 6.146557769450865
50.0938 -6.7344 -0.4269 50.546247985483554 1.579242157936333 6.149550723652771
50.0938 -6.5818 -0.4267 50.526141378201444 1.5792415605013286 6.152544125899821
50.0938 -6.1248 -0.4262 50.468639965031755 1.5792412753061449 6.161522532147544
50.0938 -5.9727 -0.4261 50.450406390236346 1.5792423453013953 6.164515200192513
50.0938 -5.8207 -0.4259 50.432635641417754 1.579241355634874 6.167508035762555
50.0938 -5.517 -0.4256 50.398484330384385 1.579241125567737 6.173493987276255
50.0938 -5.3652 -0.4255 50.382092252406515 1.5792418882896346 6.1764889657031325
50.0938 -5.0621 -0.4252 50.35071449234857 1.5792411931337325 6.182474758038142
50.0938 -4.9107 -0.4251 50.33571776522115 1.5792417224755626 6.185467433148923
50.0938 -4.6081 -0.4248 50.307095315571544 1.579240564049728 6.191454043045276
50.0938 -4.457 -0.4247 50.29347887678879 1.5792408618936555 6.194445888381582
50.0938 -4.1548 -0.4245 50.267597532903835 1.5792412309978456 6.200434307633066
50.0938 -4.0039 -0.4244 50.2553492576661 1.5792412993369203 6.203426809387117
50.0938 -3.8531 -0.4243 50.24355887613854 1.5792412907437663 6.206418758829865
50.0938 -3.5516 -0.4241 50.221335324839785 1.579241045318577 6.212404751903224
50.0938 -3.4009 -0.424 50.210902155308865 1.5792408083921161 6.215398688291062
50.0938 -2.3479 -0.4235 50.15058110431025 1.5792409953148838 6.2363495117144
50.0938 -2.0474 -0.4234 50.13741031166249 1.5792412191408893 6.242336717046081
44.8244 -1.5633 -0.3788 44.853252186324234 1.5792417456790213 6.248323343017564
44.8281 -1.4291 -0.3788 44.85247335275949 1.579241892331627 6.251316542708036
44.8292 -1.0264 -0.3787 44.84254768955484 1.5792415316533188 6.260293515575123
50.0938 -0.397 -0.4231 50.097159810212794 1.5792420157635876 6.2752603406416485
50.0938 -0.0971 -0.4231 50.09568085633731 1.5792422651080666 6.281246945977369
50.0938 0.0528 -0.4231 50.09561457742584 1.5792422762827156 0.00105402226316723
50.0938 0.2028 -0.4231 50.09599724419108 1.5792422117653648 0.004048383074857076
50.0938 0.3527 -0.4231 50.09682833613322 1.5792420716472362 0.007040675134875395
50.0938 0.5026 -0.4231 50.0981079364281 1.5792418559218324 0.010032841116734442
50.0938 0.6526 -0.4231 50.099837313208916 1.579241564386969 0.01302682337101598
50.0938 0.9525 -0.4231 50.10464118522355 1.579240754665475 0.019012038105483946
44.9681 1.1244 -0.3799 44.983759480283545 1.5792416973117818 0.024999182877481686
44.9716 1.2592 -0.3799 44.9908292345229 1.5792403701943614 0.027992579456400674
44.9744 1.5287 -0.38 45.00197750154987 1.579240500519238 0.03397736667188981
44.9715 1.6634 -0.3801 45.00385747710967 1.5792423698778473 0.03697101619512313
50.0938 2.1532 -0.4234 50.141842170387 1.5792404727092104 0.042956920932991825
50.0938 2.4537 -0.4236 50.155646532469305 1.5792421362968352 0.048942992463916826
50.0938 2.7544 -0.4237 50.17125710494008 1.5792415016009687 0.05492953621365591
50.0938 3.2058 -0.4239 50.19806413886894 1.5792409759166037 0.0639087929446752
50.0938 3.3564 -0.424 50.20790769789158 1.5792413120426931 0.06690230821183481
50.0938 3.507 -0.4241 50.218200965884876 1.579241572406523 0.0698946231308937
50.0938 3.8085 -0.4243 50.24015825194025 1.5792418623747593 0.07588139508508554
50.0938 4.1103 -0.4245 50.26393900979111 1.5792418456852813 0.08186867091801175
50.0938 4.2613 -0.4246 50.27651301840652 1.5792417225067759 0.08486211314899274
50.0938 4.5634 -0.4248 50.30302051606842 1.579241248091986 0.09084635389232146
50.0938 4.7146 -0.4249 50.31696325902429 1.5792408954355663 0.09383902438939529
50.0938 4.866 -0.4251 50.33137654038483 1.5792424509323586 0.09683396522180995
50.0938 5.0174 -0.4252 50.34624014005416 1.5792419436605911 0.0998271644851601
27.6952 -0.2302 -0.7018 27.70504680234271 1.5961301614643448 6.274873588943956
27.6959 -0.1473 -0.7018 27.705181777783018 1.596130038015337 6.2778668805831614
27.6964 -0.0645 -0.7018 27.705365120315598 1.596129870331545 6.280856488871196
27.6959 0.2671 -0.7019 27.706080250190574 1.5961328267746724 0.009643727761741478
27.694 0.4329 -0.7019 27.70627549888292 1.5961326481877927 0.0156302717612956
27.6912 0.5987 -0.7019 27.706563531769866 1.5961323847391806 0.021617219143997193
27.6767 1.0959 -0.7019 27.70728033044745 1.5961317291447168 0.03957580893234453
27.6623 1.4272 -0.7019 27.70798449436552 1.5961310851392265 0.05154797902501351
27.6438 1.7583 -0.7019 27.70855393087124 1.596130564375005 0.06352001432289892
27.6387 1.8411 -0.7019 27.708844265143938 1.596130298865142 0.06651485242026893
27.6273 2.0065 -0.7019 27.708959041255955 1.5961301939042505 0.07250014291644943
27.6087 2.2545 -0.702 27.70949097222827 1.5961333175036725 0.0814782587563714
27.602 2.3371 -0.702 27.70965976712814 1.59613316312898 0.08446992321122582
27.595 2.4198 -0.702 27.709786376657615 1.5961330473369815 0.08746606661302377
27.5726 2.6675 -0.702 27.710226108965625 1.596132645183669 0.09644445045458326
27.5648 2.7501 -0.702 27.710540468384952 1.5961323576968545 0.09943948426449938
27.5393 2.9974 -0.702 27.710832814081932 1.5961320903478036 0.10841406156164683
27.5303 3.0799 -0.702 27.710936579264153 1.5961319954562878 0.111409854251452
27.5211 3.1623 -0.702 27.711078840420488 1.5961318653620058 0.11440283554728628
27.5116 3.2447 -0.702 27.711171333056278 1.5961317807805122 0.11739702769467311
27.4921 3.4094 -0.702 27.711592786593844 1.596131395382172 0.12338385677135519
27.4819 3.4917 -0.702 27.711723160063503 1.5961312761644801 0.12637740624873597
27.4714 3.5739 -0.702 27.711791410336502 1.596131213754684 0.12936871822828086
27.4607 3.6561 -0.702 27.711909275616502 1.5961311059763799 0.1323609414745816
27.4499 3.7384 -0.702 27.712189530421444 1.5961308497096187 0.13535717621604565
27.4387 3.8205 -0.702 27.712294779393496 1.5961307534706342 0.13834816434454209
27.4273 3.9026 -0.702 27.712449838475123 1.5961306116869372 0.1413401199568533
27.4155 3.9847 -0.702 27.712457096764265 1.5961306050501054 0.1443340920045567
27.4037 4.0668 -0.702 27.712712605048246 1.5961303714207504 0.14732803564568495
27.3916 4.1489 -0.702 27.712919834799074 1.5961301819390492 0.15032351888353349
27.3536 4.3946 -0.7021 27.71326192511448 1.5961334786921282 0.15929767467232
27.3405 4.4766 -0.7021 27.71345940549465 1.5961332981061789 0.1622950111668397
27.3271 4.5583 -0.7021 27.71356053829966 1.5961332056262743 0.1652833788069336
27.3134 4.6401 -0.7021 27.713630075830917 1.5961331420387503 0.1682770699848174
27.2996 4.722 -0.7021 27.713866359099015 1.5961329259755421 0.17127489112788954
27.2563 4.9669 -0.7021 27.714056536530336 1.5961327520753175 0.18025155874164686
27.2265 5.13 -0.7021 27.714475399328776 1.5961323690712297 0.18623594880444524
27.2113 5.2116 -0.7021 27.71477163283147 1.596132098205174 0.18923183160007945
27.1955 5.293 -0.7021 27.714689492397344 1.596132173311073 0.19222467499229776
27.097 5.7807 -0.7021 27.71564262109035 1.596131301836049 0.210182821982178
27.0797 5.8619 -0.7021 27.715789148245445 1.5961311678670596 0.21317928147300358
27.0621 5.9429 -0.7021 27.715848556917756 1.5961311135504337 0.21617095443877204
27.0443 6.0238 -0.7021 27.71593897633634 1.5961310308815073 0.2191606343026975
27.0265 6.1048 -0.7021 27.716298989944523 1.5961307017325796 0.22215378837787791
26.9896 6.2665 -0.7021 27.716429691069518 1.5961305822388376 0.2281397936168959
26.9132 6.5893 -0.7021 27.7170011570516 1.596130059788261 0.2401118442378429
26.8934 6.6698 -0.7021 27.71703699910941 1.596130027021143 0.24310372112583922
26.8735 6.7505 -0.7022 27.71727507061255 1.5961334183927514 0.2461034432765454
26.8533 6.8309 -0.7022 27.717395269757944 1.5961333084925031 0.24909526383855182
26.8393 -6.7838 -0.7015 27.692238428483893 1.5961310446853314 6.035614242224021
26.8595 -6.7034 -0.7015 27.69224465549877 1.5961310389872225 6.038608776824231
26.8796 -6.623 -0.7015 27.692401979784997 1.59613089502649 6.041602419031445
26.8996 -6.5425 -0.7015 27.69268655547887 1.5961306346275879 6.044598656585916
26.9192 -6.4621 -0.7015 27.692854083680146 1.596130481334639 6.047587920608761
26.9386 -6.3814 -0.7015 27.693005220993985 1.5961303430413984 6.050586001092565
26.9577 -6.3009 -0.7015 27.693158583845218 1.5961302027132966 6.053574520885091
26.9766 -6.2202 -0.7015 27.693319372187943 1.5961300555924864 6.056568397219256
27.0137 -6.0587 -0.7016 27.69368296092089 1.5961333350072529 6.062553902509024
27.032 -5.9779 -0.7016 27.69398048258863 1.5961330627487222 6.065546356576952
27.0499 -5.8969 -0.7016 27.694092550217277 1.5961329601984888 6.06854270032039
27.0675 -5.816 -0.7016 27.694180883535804 1.5961328793675031 6.0715331851362855
27.1359 -5.4916 -0.7016 27.694890899405976 1.5961322296734965 6.083508122825332
27.1686 -5.3291 -0.7016 27.695204915833358 1.596131942346053 6.089495136751262
27.2002 -5.1665 -0.7016 27.69541198195109 1.59613175288253 6.095477934826919
27.2608 -4.8406 -0.7016 27.696116470725638 1.5961311083032432 6.107450666343229
27.2753 -4.7591 -0.7016 27.69626807820866 1.5961309695926984 6.110440474207163
