ply
format ascii 1.0
element vertex 1591
property float32 x
property float32 y
property float32 z
property float32 I
end_header
50.0941 9.4029 13.6571 1.0000
50.0941 9.7136 13.6727 1.0000
50.0941 9.8692 13.6807 1.0000
50.0941 10.0250 13.6888 1.0000
50.0941 10.9638 13.7404 1.0000
50.0941 11.2783 13.7586 1.0000
50.0941 11.4359 13.7680 1.0000
50.0941 11.5938 13.7775 1.0000
50.0941 11.9100 13.7968 1.0000
50.0941 12.2271 13.8167 1.0000
50.0941 12.3861 13.8269 1.0000
50.0941 12.8643 13.8582 1.0000
50.0941 13.0242 13.8689 1.0000
50.0941 13.1843 13.8798 1.0000
50.0941 13.3447 13.8908 1.0000
50.0941 -13.1797 13.8795 1.0000
50.0941 -13.0196 13.8686 1.0000
50.0941 -12.8597 13.8579 1.0000
50.0941 -12.5406 13.8369 1.0000
50.0941 -12.3815 13.8266 1.0000
50.0941 -12.2226 13.8164 1.0000
50.0941 -12.0639 13.8064 1.0000
50.0941 -11.7472 13.7868 1.0000
50.0941 -11.2738 13.7584 1.0000
50.0941 -10.3326 13.7052 1.0000
50.0941 2.1012 12.5308 1.0000
50.0941 2.4016 12.5342 1.0000
50.0941 2.8525 12.5401 1.0000
50.0941 3.1534 12.5446 1.0000
50.0941 3.3039 12.5470 1.0000
50.0941 3.9065 12.5578 1.0000
50.0941 4.2082 12.5639 1.0000
50.0941 4.3592 12.5671 1.0000
50.0941 4.5103 12.5704 1.0000
50.0941 4.9640 12.5811 1.0000
50.0941 5.1154 12.5849 1.0000
50.0941 5.2669 12.5888 1.0000
50.0941 5.4184 12.5928 1.0000
50.0941 5.5701 12.5970 1.0000
50.0941 5.7219 12.6012 1.0000
50.0941 5.8738 12.6056 1.0000
50.0941 6.0258 12.6101 1.0000
50.0941 6.1779 12.6146 1.0000
50.0941 6.3301 12.6194 1.0000
50.0941 6.9402 12.6394 1.0000
50.0941 7.0930 12.6447 1.0000
50.0941 8.0128 12.6790 1.0000
50.0941 8.1666 12.6851 1.0000
50.0941 8.4746 12.6977 1.0000
50.0941 8.7833 12.7108 1.0000
50.0941 9.0926 12.7244 1.0000
50.0941 9.2475 12.7314 1.0000
50.0941 10.1806 12.7757 1.0000
50.0941 10.3368 12.7836 1.0000
50.0941 10.4931 12.7915 1.0000
50.0941 10.6497 12.7996 1.0000
50.0941 10.9634 12.8161 1.0000
50.0941 11.1206 12.8246 1.0000
50.0941 11.2780 12.8332 1.0000
50.0941 11.5934 12.8507 1.0000
50.0941 11.7514 12.8597 1.0000
50.0941 11.9096 12.8688 1.0000
50.0941 12.0681 12.8780 1.0000
50.0941 12.2268 12.8873 1.0000
50.0941 12.8639 12.9260 1.0000
50.0941 13.0238 12.9360 1.0000
50.0941 -13.3404 12.9562 1.0000
50.0941 -13.1800 12.9459 1.0000
50.0941 -13.0199 12.9358 1.0000
50.0941 -12.5410 12.9062 1.0000
50.0941 -12.0643 12.8778 1.0000
50.0941 -11.7475 12.8595 1.0000
50.0941 -11.4317 12.8417 1.0000
50.0941 -11.2741 12.8330 1.0000
50.0941 -10.9596 12.8159 1.0000
50.0941 -10.3330 12.7834 1.0000
50.0941 -9.8650 12.7603 1.0000
50.0941 -9.7095 12.7528 1.0000
50.0941 -9.2437 12.7312 1.0000
50.0941 -9.0888 12.7242 1.0000
50.0941 -8.0090 12.6788 1.0000
50.0941 -7.5486 12.6612 1.0000
50.0940 -7.3953 12.6555 1.0000
50.0940 -7.2422 12.6500 1.0000
50.0940 -6.9364 12.6393 1.0000
50.0940 -6.4787 12.6241 1.0000
50.0940 -6.1742 12.6145 1.0000
50.0940 -6.0221 12.6099 1.0000
50.0940 -5.7182 12.6011 1.0000
50.0940 -5.5664 12.5969 1.0000
50.0940 -5.4147 12.5927 1.0000
50.0940 -5.1116 12.5848 1.0000
50.0940 -4.5066 12.5704 1.0000
50.0940 -4.3555 12.5670 1.0000
50.0940 -4.2046 12.5638 1.0000
50.0940 -4.0536 12.5607 1.0000
50.0940 -3.9028 12.5577 1.0000
50.0940 -3.4507 12.5495 1.0000
50.0940 -3.3002 12.5469 1.0000
50.0940 -2.9992 12.5422 1.0000
50.0940 -2.6985 12.5380 1.0000
50.0940 -2.5482 12.5360 1.0000
50.0940 -2.2477 12.5324 1.0000
50.0941 -2.0976 12.5308 1.0000
50.0941 -1.9475 12.5293 1.0000
50.0941 -1.7973 12.5279 1.0000
50.0941 -1.6473 12.5266 1.0000
50.0941 -1.1973 12.5234 1.0000
50.0941 -1.0473 12.5225 1.0000
50.0941 -0.5976 12.5207 1.0000
50.0941 -0.2977 12.5200 1.0000
50.0941 -0.1479 12.5199 1.0000
50.0941 0.0020 12.5198 1.0000
50.0941 0.1519 12.5199 1.0000
50.0941 0.3018 12.5200 1.0000
50.0941 0.6016 12.5207 1.0000
50.0941 0.7514 12.5212 1.0000
50.0941 0.9014 12.5218 1.0000
50.0941 1.2013 12.5234 1.0000
50.0941 1.3512 12.5244 1.0000
50.0941 1.5012 12.5254 1.0000
50.0941 1.6513 12.5266 1.0000
50.0941 1.8014 12.5279 1.0000
50.0941 2.1016 12.5308 1.0000
50.0941 2.8529 12.5401 1.0000
50.0941 3.0033 12.5423 1.0000
50.0941 3.1537 12.5446 1.0000
50.0941 3.4548 12.5495 1.0000
50.0941 3.6054 12.5522 1.0000
50.0941 3.7561 12.5549 1.0000
50.0941 3.9069 12.5578 1.0000
50.0941 4.3596 12.5671 1.0000
50.0941 4.5106 12.5705 1.0000
50.0941 4.6618 12.5739 1.0000
50.0941 4.9643 12.5811 1.0000
50.0941 5.1157 12.5849 1.0000
50.0941 5.2672 12.5888 1.0000
50.0941 5.4187 12.5928 1.0000
50.0941 5.5705 12.5970 1.0000
50.0941 5.7223 12.6012 1.0000
50.0941 6.1782 12.6147 1.0000
50.0941 6.3305 12.6194 1.0000
50.0941 6.4828 12.6242 1.0000
50.0941 6.6352 12.6291 1.0000
50.0941 6.7878 12.6342 1.0000
50.0941 7.0934 12.6447 1.0000
50.0941 7.5526 12.6613 1.0000
50.0941 7.7060 12.6671 1.0000
50.0941 7.8595 12.6730 1.0000
50.0941 8.0131 12.6790 1.0000
50.0941 8.1669 12.6851 1.0000
50.0941 8.3209 12.6913 1.0000
50.0941 8.6292 12.7042 1.0000
50.0941 8.9382 12.7175 1.0000
50.0941 9.0929 12.7244 1.0000
50.0941 9.2478 12.7314 1.0000
50.0941 9.4029 12.7385 1.0000
50.0941 9.5582 12.7457 1.0000
50.0941 10.0250 12.7681 1.0000
50.0941 10.3371 12.7836 1.0000
50.0941 10.4935 12.7915 1.0000
50.0941 10.8068 12.8078 1.0000
50.0941 10.9638 12.8162 1.0000
50.0941 11.4359 12.8419 1.0000
50.0941 11.7517 12.8597 1.0000
50.0941 11.9100 12.8688 1.0000
50.0941 13.1843 12.9462 1.0000
50.0941 13.3447 12.9564 1.0000
50.0941 -13.1797 12.9459 1.0000
50.0941 -12.8596 12.9258 1.0000
50.0941 -12.7000 12.9159 1.0000
50.0941 -12.5407 12.9062 1.0000
50.0941 -12.2225 12.8871 1.0000
50.0941 -12.0639 12.8777 1.0000
50.0941 -11.9054 12.8685 1.0000
50.0941 -11.7471 12.8595 1.0000
50.0941 -11.5892 12.8505 1.0000
50.0941 -11.2738 12.8330 1.0000
50.0941 -11.1164 12.8244 1.0000
50.0941 -10.8023 12.8076 1.0000
50.0941 -10.6456 12.7994 1.0000
50.0941 -10.4889 12.7913 1.0000
50.0941 -10.3326 12.7834 1.0000
50.0941 -10.1764 12.7755 1.0000
50.0941 -9.8647 12.7603 1.0000
50.0941 -9.7091 12.7528 1.0000
50.0941 -9.5536 12.7455 1.0000
50.0941 -9.3984 12.7383 1.0000
50.0941 2.1012 11.6348 1.0000
50.0941 2.5518 11.6396 1.0000
50.0940 2.7021 11.6414 1.0000
50.0940 3.1533 11.6476 1.0000
50.0940 3.3039 11.6498 1.0000
50.0940 3.6050 11.6546 1.0000
50.0940 4.2082 11.6655 1.0000
50.0940 4.6614 11.6748 1.0000
50.0941 4.9640 11.6815 1.0000
50.0941 6.3302 11.7170 1.0000
50.0941 6.4825 11.7215 1.0000
50.0941 6.6349 11.7261 1.0000
50.0941 6.7875 11.7308 1.0000
50.0941 7.3991 11.7507 1.0000
50.0941 8.0128 11.7723 1.0000
50.0941 8.1666 11.7780 1.0000
50.0941 8.4746 11.7897 1.0000
50.0941 8.7833 11.8019 1.0000
50.0941 9.2475 11.8210 1.0000
50.0941 9.4026 11.8275 1.0000
50.0941 9.5578 11.8342 1.0000
50.0941 9.7132 11.8410 1.0000
50.0941 9.8689 11.8480 1.0000
50.0941 10.4932 11.8768 1.0000
50.0941 10.6497 11.8843 1.0000
50.0941 10.8065 11.8920 1.0000
50.0941 10.9634 11.8997 1.0000
50.0941 11.1206 11.9075 1.0000
50.0941 11.2780 11.9155 1.0000
50.0941 11.5934 11.9318 1.0000
50.0941 11.9096 11.9486 1.0000
50.0941 12.0681 11.9571 1.0000
50.0941 12.2268 11.9658 1.0000
50.0941 12.5449 11.9835 1.0000
50.0941 12.8639 12.0017 1.0000
50.0941 13.0238 12.0110 1.0000
50.0941 13.3444 12.0299 1.0000
50.0941 -13.3404 12.0297 1.0000
50.0941 -13.1801 12.0202 1.0000
50.0941 -13.0199 12.0108 1.0000
50.0941 -12.8600 12.0015 1.0000
50.0941 -12.7004 11.9923 1.0000
50.0941 -12.5410 11.9833 1.0000
50.0941 -12.2229 11.9656 1.0000
50.0941 -12.0642 11.9569 1.0000
50.0941 -11.9057 11.9484 1.0000
50.0941 -11.4317 11.9234 1.0000
50.0941 -11.2741 11.9153 1.0000
50.0941 -11.1168 11.9073 1.0000
50.0941 -10.9596 11.8995 1.0000
50.0941 -10.8027 11.8918 1.0000
50.0941 -10.6459 11.8842 1.0000
50.0941 -10.4894 11.8767 1.0000
50.0941 -10.1768 11.8620 1.0000
50.0941 -10.0209 11.8549 1.0000
50.0941 -9.8651 11.8478 1.0000
50.0941 -9.7095 11.8409 1.0000
50.0941 -9.3988 11.8274 1.0000
50.0941 -8.7795 11.8017 1.0000
50.0941 -8.6251 11.7956 1.0000
50.0941 -7.8554 11.7666 1.0000
50.0941 -7.7020 11.7611 1.0000
50.0941 -7.5486 11.7558 1.0000
50.0941 -7.0893 11.7404 1.0000
50.0940 -6.7838 11.7306 1.0000
50.0940 -6.4787 11.7214 1.0000
50.0940 -6.1742 11.7125 1.0000
50.0940 -6.0221 11.7082 1.0000
50.0941 -5.8701 11.7041 1.0000
50.0941 -5.4148 11.6923 1.0000
50.0941 -5.2632 11.6885 1.0000
50.0941 -4.9603 11.6814 1.0000
50.0941 -4.8090 11.6780 1.0000
50.0940 -4.5066 11.6715 1.0000
50.0940 -4.3555 11.6684 1.0000
50.0940 -4.0537 11.6625 1.0000
50.0940 -3.9028 11.6598 1.0000
50.0940 -3.7521 11.6571 1.0000
50.0940 -3.1497 11.6475 1.0000
50.0940 -2.6985 11.6414 1.0000
50.0941 -2.5482 11.6396 1.0000
50.0941 -2.0976 11.6347 1.0000
50.0941 -1.7974 11.6320 1.0000
50.0941 -1.6473 11.6308 1.0000
50.0940 -1.4973 11.6297 1.0000
50.0940 -1.0474 11.6271 1.0000
50.0940 -0.7475 11.6258 1.0000
50.0940 -0.4477 11.6250 1.0000
50.0940 -0.2978 11.6247 1.0000
50.0940 0.0020 11.6245 1.0000
50.0941 0.3018 11.6248 1.0000
50.0940 0.4516 11.6250 1.0000
50.0940 0.6015 11.6254 1.0000
50.0940 0.7514 11.6258 1.0000
50.0941 0.9014 11.6264 1.0000
50.0940 1.0513 11.6271 1.0000
50.0941 1.2012 11.6279 1.0000
50.0941 1.5012 11.6298 1.0000
50.0940 1.6513 11.6309 1.0000
50.0941 1.9514 11.6334 1.0000
50.0941 2.2517 11.6363 1.0000
50.0940 2.4020 11.6379 1.0000
50.0941 2.5522 11.6396 1.0000
50.0940 3.0032 11.6454 1.0000
50.0940 3.1537 11.6476 1.0000
50.0940 3.3042 11.6498 1.0000
50.0940 3.4548 11.6521 1.0000
50.0940 3.7561 11.6572 1.0000
50.0940 4.2086 11.6655 1.0000
50.0940 4.6618 11.6748 1.0000
50.0941 4.9643 11.6815 1.0000
50.0941 5.1157 11.6850 1.0000
50.0941 5.2672 11.6886 1.0000
50.0941 5.5705 11.6962 1.0000
50.0941 6.0262 11.7084 1.0000
50.0941 6.1783 11.7126 1.0000
50.0941 6.3305 11.7170 1.0000
50.0941 6.7879 11.7308 1.0000
50.0941 7.0934 11.7405 1.0000
50.0941 7.3994 11.7507 1.0000
50.0941 7.8595 11.7668 1.0000
50.0941 8.0131 11.7723 1.0000
50.0941 8.1670 11.7780 1.0000
50.0941 8.3209 11.7838 1.0000
50.0941 8.4750 11.7897 1.0000
50.0941 8.6292 11.7958 1.0000
50.0941 9.2479 11.8210 1.0000
50.0941 9.4029 11.8276 1.0000
50.0941 9.5582 11.8343 1.0000
50.0941 9.7136 11.8411 1.0000
50.0941 9.8692 11.8480 1.0000
50.0941 10.1810 11.8622 1.0000
50.0941 10.3371 11.8695 1.0000
50.0941 10.4935 11.8768 1.0000
50.0941 11.4359 11.9236 1.0000
50.0941 11.7517 11.9401 1.0000
50.0941 12.0684 11.9571 1.0000
50.0941 12.2272 11.9658 1.0000
50.0941 12.3861 11.9746 1.0000
50.0941 12.8643 12.0017 1.0000
50.0941 13.1843 12.0204 1.0000
50.0941 13.3447 12.0300 1.0000
50.0941 -13.0195 12.0107 1.0000
50.0941 -12.8597 12.0015 1.0000
50.0941 -12.3815 11.9744 1.0000
50.0941 -11.9054 11.9483 1.0000
50.0941 -11.7472 11.9399 1.0000
50.0941 -11.5892 11.9316 1.0000
50.0941 -11.4314 11.9234 1.0000
50.0941 -11.2738 11.9153 1.0000
50.0941 -10.8023 11.8917 1.0000
50.0941 -10.6455 11.8841 1.0000
50.0941 -10.1765 11.8620 1.0000
50.0941 -10.0205 11.8548 1.0000
50.0941 -9.3984 11.8274 1.0000
50.0941 2.2514 10.7471 1.0000
50.0940 2.5519 10.7502 1.0000
50.0940 2.7022 10.7519 1.0000
50.0941 3.0029 10.7556 1.0000
50.0941 3.1533 10.7575 1.0000
50.0941 3.3038 10.7596 1.0000
50.0941 3.4544 10.7618 1.0000
50.0940 3.6050 10.7640 1.0000
50.0941 3.7557 10.7664 1.0000
50.0940 3.9065 10.7689 1.0000
50.0940 4.0573 10.7714 1.0000
50.0941 4.5102 10.7797 1.0000
50.0941 4.6614 10.7827 1.0000
50.0940 4.8126 10.7857 1.0000
50.0940 4.9639 10.7888 1.0000
50.0941 5.4184 10.7989 1.0000
50.0941 5.8737 10.8098 1.0000
50.0940 6.1779 10.8176 1.0000
50.0941 6.3301 10.8217 1.0000
50.0940 6.4824 10.8258 1.0000
50.0940 6.6349 10.8300 1.0000
50.0941 6.7875 10.8344 1.0000
50.0941 6.9402 10.8388 1.0000
50.0940 7.5523 10.8576 1.0000
50.0940 7.7057 10.8625 1.0000
50.0940 7.8591 10.8676 1.0000
50.0940 8.0128 10.8728 1.0000
50.0941 8.1665 10.8780 1.0000
50.0941 8.3205 10.8834 1.0000
50.0941 8.6289 10.8944 1.0000
50.0940 8.7833 10.9000 1.0000
50.0941 9.0925 10.9117 1.0000
50.0941 9.4025 10.9238 1.0000
50.0941 9.7132 10.9362 1.0000
50.0941 9.8689 10.9426 1.0000
50.0940 10.0246 10.9491 1.0000
50.0941 10.1806 10.9557 1.0000
50.0941 11.5934 11.0200 1.0000
50.0940 11.7514 11.0277 1.0000
50.0941 11.9096 11.0355 1.0000
50.0941 12.3857 11.0596 1.0000
50.0941 12.7043 11.0762 1.0000
50.0940 12.8639 11.0846 1.0000
50.0940 13.0238 11.0932 1.0000
50.0941 13.1839 11.1019 1.0000
50.0940 13.3443 11.1107 1.0000
50.0941 -12.8600 11.0844 1.0000
50.0941 -12.7004 11.0760 1.0000
50.0941 -12.5410 11.0676 1.0000
50.0941 -12.3818 11.0594 1.0000
50.0941 -12.2229 11.0513 1.0000
50.0941 -11.9057 11.0353 1.0000
50.0941 -11.7475 11.0275 1.0000
50.0941 -11.4317 11.0123 1.0000
50.0941 -11.2741 11.0048 1.0000
50.0941 -10.9596 10.9902 1.0000
50.0941 -10.4893 10.9691 1.0000
50.0941 -10.0209 10.9490 1.0000
50.0941 -9.7095 10.9361 1.0000
50.0941 -9.5540 10.9298 1.0000
50.0941 -9.3987 10.9236 1.0000
50.0941 -9.2437 10.9175 1.0000
50.0941 -9.0887 10.9116 1.0000
50.0941 -8.9341 10.9057 1.0000
50.0941 -8.4708 10.8887 1.0000
50.0941 -8.1628 10.8779 1.0000
50.0941 -7.8554 10.8675 1.0000
50.0941 -7.7019 10.8624 1.0000
50.0939 -7.0893 10.8432 1.0000
50.0940 -6.9365 10.8387 1.0000
50.0939 -6.7838 10.8343 1.0000
50.0940 -6.6312 10.8299 1.0000
50.0939 -6.4787 10.8257 1.0000
50.0939 -6.3264 10.8216 1.0000
50.0940 -6.0221 10.8136 1.0000
50.0939 -5.7182 10.8060 1.0000
50.0939 -5.5664 10.8024 1.0000
50.0939 -5.2632 10.7954 1.0000
50.0939 -5.1116 10.7920 1.0000
50.0939 -4.9603 10.7888 1.0000
50.0939 -4.6577 10.7826 1.0000
50.0940 -4.5066 10.7796 1.0000
50.0940 -4.3556 10.7768 1.0000
50.0939 -4.2046 10.7740 1.0000
50.0940 -4.0537 10.7714 1.0000
50.0940 -3.9029 10.7688 1.0000
50.0940 -3.7521 10.7663 1.0000
50.0939 -3.6014 10.7640 1.0000
50.0940 -3.3002 10.7595 1.0000
50.0940 -3.1497 10.7575 1.0000
50.0940 -2.9993 10.7555 1.0000
50.0939 -2.8489 10.7536 1.0000
50.0940 -2.3980 10.7486 1.0000
50.0940 -2.2477 10.7471 1.0000
50.0939 -2.0976 10.7457 1.0000
50.0941 -1.9475 10.7444 1.0000
50.0940 -1.7974 10.7432 1.0000
50.0941 -1.6473 10.7421 1.0000
50.0941 -0.8974 10.7380 1.0000
50.0941 -0.5976 10.7370 1.0000
50.0941 -0.4477 10.7367 1.0000
50.0941 -0.1479 10.7363 1.0000
50.0940 0.3018 10.7365 1.0000
50.0941 0.4516 10.7367 1.0000
50.0941 0.6015 10.7370 1.0000
50.0940 0.9014 10.7380 1.0000
50.0941 1.0513 10.7386 1.0000
50.0940 1.2012 10.7394 1.0000
50.0941 1.3512 10.7402 1.0000
50.0941 1.8013 10.7432 1.0000
50.0940 1.9515 10.7444 1.0000
50.0941 2.1016 10.7457 1.0000
50.0941 2.2517 10.7471 1.0000
50.0940 2.4020 10.7486 1.0000
50.0941 2.8528 10.7537 1.0000
50.0941 3.1537 10.7575 1.0000
50.0941 3.3041 10.7596 1.0000
50.0940 3.4548 10.7618 1.0000
50.0941 3.6054 10.7640 1.0000
50.0941 3.9068 10.7689 1.0000
50.0941 4.2086 10.7741 1.0000
50.0941 4.6617 10.7827 1.0000
50.0941 4.8130 10.7857 1.0000
50.0940 5.1157 10.7921 1.0000
50.0940 5.2672 10.7955 1.0000
50.0940 5.4187 10.7989 1.0000
50.0940 6.0262 10.8137 1.0000
50.0941 6.1782 10.8176 1.0000
50.0940 6.3305 10.8217 1.0000
50.0941 6.6352 10.8301 1.0000
50.0941 6.7878 10.8344 1.0000
50.0941 6.9405 10.8388 1.0000
50.0940 7.0934 10.8434 1.0000
50.0941 7.2462 10.8480 1.0000
50.0940 7.3994 10.8528 1.0000
50.0940 7.7060 10.8626 1.0000
50.0940 8.0132 10.8728 1.0000
50.0941 8.1669 10.8780 1.0000
50.0941 8.9382 10.9058 1.0000
50.0941 9.4029 10.9238 1.0000
50.0941 9.5582 10.9300 1.0000
50.0941 9.7136 10.9363 1.0000
50.0941 10.0250 10.9492 1.0000
50.0940 10.1810 10.9558 1.0000
50.0940 10.8068 10.9833 1.0000
50.0940 10.9638 10.9904 1.0000
50.0941 11.1209 10.9977 1.0000
50.0940 11.2783 11.0050 1.0000
50.0941 11.4359 11.0125 1.0000
50.0940 11.5937 11.0201 1.0000
50.0941 11.7518 11.0278 1.0000
50.0940 12.2271 11.0515 1.0000
50.0941 12.5452 11.0678 1.0000
50.0941 12.7046 11.0762 1.0000
50.0940 12.8643 11.0846 1.0000
50.0940 13.0242 11.0932 1.0000
50.0941 13.1843 11.1019 1.0000
50.0941 13.3447 11.1107 1.0000
50.0941 -13.3401 11.1104 1.0000
50.0941 -13.1797 11.1017 1.0000
50.0941 -13.0195 11.0930 1.0000
50.0941 -12.8596 11.0844 1.0000
50.0941 -12.7000 11.0759 1.0000
50.0941 -12.2225 11.0512 1.0000
50.0941 -11.7471 11.0275 1.0000
50.0941 -11.5891 11.0198 1.0000
50.0941 -11.2737 11.0048 1.0000
50.0941 -11.1164 10.9975 1.0000
50.0941 -10.0205 10.9490 1.0000
50.0941 -9.8647 10.9425 1.0000
50.0941 -9.7091 10.9361 1.0000
50.0941 -9.5537 10.9298 1.0000
50.0940 2.1013 9.8631 1.0000
50.0940 2.2514 9.8643 1.0000
50.0940 2.5519 9.8672 1.0000
50.0940 2.8526 9.8704 1.0000
50.0940 3.3039 9.8758 1.0000
50.0940 3.6050 9.8799 1.0000
50.0940 3.7558 9.8821 1.0000
50.0940 3.9065 9.8843 1.0000
50.0940 4.2082 9.8891 1.0000
50.0940 4.3592 9.8916 1.0000
50.0940 4.5103 9.8943 1.0000
50.0940 4.9640 9.9027 1.0000
50.0940 5.2668 9.9087 1.0000
50.0940 5.4184 9.9119 1.0000
50.0940 5.7219 9.9185 1.0000
50.0940 6.1779 9.9291 1.0000
50.0940 6.4824 9.9366 1.0000
50.0940 6.7875 9.9444 1.0000
50.0940 6.9402 9.9485 1.0000
50.0940 7.0930 9.9527 1.0000
50.0940 7.5523 9.9658 1.0000
50.0940 7.7056 9.9703 1.0000
50.0940 7.8591 9.9750 1.0000
50.0940 8.0128 9.9797 1.0000
50.0940 8.1666 9.9845 1.0000
50.0940 8.4746 9.9944 1.0000
50.0940 8.9379 10.0100 1.0000
50.0940 9.0926 10.0154 1.0000
50.0940 9.2475 10.0209 1.0000
50.0941 9.7132 10.0380 1.0000
50.0941 9.8688 10.0438 1.0000
50.0941 10.0246 10.0498 1.0000
50.0941 10.4931 10.0683 1.0000
50.0941 10.6497 10.0746 1.0000
50.0941 10.9634 10.0877 1.0000
50.0941 11.1206 10.0943 1.0000
50.0941 11.5934 10.1149 1.0000
50.0941 12.0681 10.1363 1.0000
50.0941 12.3857 10.1512 1.0000
50.0941 12.7043 10.1664 1.0000
50.0941 13.0237 10.1820 1.0000
50.0941 13.1839 10.1900 1.0000
50.0941 -13.1800 10.1898 1.0000
50.0941 -12.2229 10.1435 1.0000
50.0941 -12.0642 10.1362 1.0000
50.0941 -11.9057 10.1289 1.0000
50.0940 -11.1167 10.0942 1.0000
50.0940 -10.6459 10.0745 1.0000
50.0941 -9.8650 10.0437 1.0000
50.0940 -9.7094 10.0378 1.0000
50.0941 -9.2437 10.0208 1.0000
50.0941 -9.0888 10.0153 1.0000
50.0941 -8.6251 9.9994 1.0000
50.0941 -8.4709 9.9943 1.0000
50.0941 -8.3168 9.9893 1.0000
50.0941 -8.1629 9.9844 1.0000
50.0940 -7.8554 9.9748 1.0000
50.0941 -7.5486 9.9657 1.0000
50.0939 -7.2422 9.9569 1.0000
50.0939 -6.9365 9.9484 1.0000
50.0939 -6.7838 9.9443 1.0000
50.0939 -6.6312 9.9404 1.0000
50.0939 -6.4787 9.9365 1.0000
50.0939 -6.3264 9.9327 1.0000
50.0939 -6.1742 9.9290 1.0000
50.0939 -5.8701 9.9218 1.0000
50.0939 -5.5664 9.9151 1.0000
50.0939 -5.2631 9.9086 1.0000
50.0939 -4.6577 9.8969 1.0000
50.0939 -4.5066 9.8942 1.0000
50.0939 -4.3555 9.8916 1.0000
50.0939 -3.9028 9.8843 1.0000
50.0939 -3.6014 9.8798 1.0000
50.0939 -2.9993 9.8721 1.0000
50.0939 -2.8489 9.8703 1.0000
50.0940 -2.5482 9.8671 1.0000
50.0939 -2.3980 9.8657 1.0000
50.0940 -2.0975 9.8630 1.0000
50.0940 -1.9474 9.8619 1.0000
50.0940 -1.7973 9.8607 1.0000
50.0940 -1.6473 9.8597 1.0000
50.0940 -1.4973 9.8588 1.0000
50.0940 -1.0473 9.8566 1.0000
50.0940 -0.8973 9.8560 1.0000
50.0940 -0.7474 9.8555 1.0000
50.0940 -0.1478 9.8544 1.0000
50.0940 0.1520 9.8544 1.0000
50.0940 0.4516 9.8548 1.0000
50.0940 0.6016 9.8551 1.0000
50.0940 0.7515 9.8555 1.0000
50.0940 0.9014 9.8560 1.0000
50.0940 1.0514 9.8566 1.0000
50.0940 1.2013 9.8572 1.0000
50.0940 1.5013 9.8588 1.0000
50.0940 1.9515 9.8619 1.0000
50.0940 2.1016 9.8631 1.0000
50.0940 2.4020 9.8657 1.0000
50.0940 2.8529 9.8704 1.0000
50.0940 3.4548 9.8778 1.0000
50.0940 3.7561 9.8821 1.0000
50.0940 4.2086 9.8891 1.0000
50.0940 4.6618 9.8970 1.0000
50.0940 4.8130 9.8998 1.0000
50.0940 4.9643 9.9027 1.0000
50.0940 5.2672 9.9087 1.0000
50.0940 5.4187 9.9119 1.0000
50.0940 5.5705 9.9152 1.0000
50.0940 5.7223 9.9185 1.0000
50.0940 5.8741 9.9219 1.0000
50.0940 6.3305 9.9328 1.0000
50.0940 6.4828 9.9366 1.0000
50.0940 6.9405 9.9485 1.0000
50.0940 7.2463 9.9570 1.0000
50.0940 7.3994 9.9613 1.0000
50.0940 7.5526 9.9658 1.0000
50.0940 7.7060 9.9703 1.0000
50.0940 7.8595 9.9750 1.0000
50.0940 8.1669 9.9845 1.0000
50.0940 8.3209 9.9894 1.0000
50.0940 8.4750 9.9944 1.0000
50.0940 9.0929 10.0154 1.0000
50.0940 9.4029 10.0265 1.0000
50.0941 9.5581 10.0322 1.0000
50.0941 9.7136 10.0380 1.0000
50.0941 10.1810 10.0559 1.0000
50.0941 10.3371 10.0620 1.0000
50.0941 10.4935 10.0683 1.0000
50.0941 10.6501 10.0747 1.0000
50.0941 10.8068 10.0811 1.0000
50.0941 11.1209 10.0943 1.0000
50.0941 11.2783 10.1011 1.0000
50.0941 11.4359 10.1079 1.0000
50.0941 11.9100 10.1291 1.0000
50.0941 12.0684 10.1364 1.0000
50.0941 12.2271 10.1437 1.0000
50.0941 12.3861 10.1512 1.0000
50.0941 12.5452 10.1587 1.0000
50.0941 12.8643 10.1742 1.0000
50.0941 13.1843 10.1900 1.0000
50.0941 13.3447 10.1981 1.0000
50.0941 -13.0195 10.1818 1.0000
50.0940 -12.7000 10.1662 1.0000
50.0940 -12.5406 10.1585 1.0000
50.0940 -12.3814 10.1510 1.0000
50.0941 -11.9054 10.1289 1.0000
50.0941 -11.7471 10.1217 1.0000
50.0940 -11.5891 10.1147 1.0000
50.0940 -10.9592 10.0875 1.0000
50.0940 -10.8022 10.0809 1.0000
50.0940 -10.3326 10.0619 1.0000
50.0941 -10.1764 10.0557 1.0000
50.0940 -10.0204 10.0496 1.0000
50.0941 -9.5536 10.0320 1.0000
50.0941 -9.3984 10.0264 1.0000
50.0940 2.1012 8.9863 1.0000
50.0940 2.7021 8.9914 1.0000
50.0940 2.8525 8.9929 1.0000
50.0940 3.3039 8.9979 1.0000
50.0940 3.7557 9.0036 1.0000
50.0940 4.2082 9.0100 1.0000
50.0940 4.3592 9.0123 1.0000
50.0940 4.5103 9.0147 1.0000
50.0940 4.6614 9.0172 1.0000
50.0940 5.1154 9.0251 1.0000
50.0940 5.5701 9.0337 1.0000
50.0940 5.7219 9.0368 1.0000
50.0940 5.8738 9.0399 1.0000
50.0940 6.0258 9.0431 1.0000
50.0940 6.7875 9.0604 1.0000
50.0940 6.9402 9.0641 1.0000
50.0940 7.0930 9.0680 1.0000
50.0940 7.2459 9.0718 1.0000
50.0940 7.7056 9.0840 1.0000
50.0940 7.8591 9.0882 1.0000
50.0940 8.0127 9.0925 1.0000
50.0940 8.1665 9.0969 1.0000
50.0940 8.6288 9.1106 1.0000
50.0940 8.9378 9.1202 1.0000
50.0940 9.2475 9.1301 1.0000
50.0940 9.4025 9.1352 1.0000
50.0940 9.8688 9.1510 1.0000
50.0940 10.3368 9.1676 1.0000
50.0940 10.4931 9.1733 1.0000
50.0940 10.6497 9.1790 1.0000
50.0940 11.1206 9.1970 1.0000
50.0940 11.7514 9.2221 1.0000
50.0940 11.9096 9.2286 1.0000
50.0940 12.2268 9.2420 1.0000
50.0940 12.7043 9.2626 1.0000
50.0940 13.3443 9.2915 1.0000
50.0941 -12.8600 9.2695 1.0000
50.0941 -12.7004 9.2625 1.0000
50.0941 -12.5410 9.2555 1.0000
50.0941 -12.0642 9.2351 1.0000
50.0941 -11.9057 9.2285 1.0000
50.0941 -11.5895 9.2155 1.0000
50.0940 -11.1168 9.1968 1.0000
50.0940 -10.9596 9.1908 1.0000
50.0940 -10.8026 9.1848 1.0000
50.0940 -10.4893 9.1731 1.0000
50.0940 -10.1768 9.1618 1.0000
50.0940 -9.8650 9.1508 1.0000
50.0940 -9.3987 9.1351 1.0000
50.0940 -9.2437 9.1300 1.0000
50.0941 -9.0888 9.1250 1.0000
50.0940 -8.9341 9.1201 1.0000
50.0940 -8.6251 9.1105 1.0000
50.0940 -8.4708 9.1059 1.0000
50.0940 -8.3167 9.1013 1.0000
50.0940 -8.1628 9.0968 1.0000
50.0940 -7.8554 9.0881 1.0000
50.0940 -7.5485 9.0798 1.0000
50.0939 -7.3953 9.0757 1.0000
50.0939 -7.2423 9.0717 1.0000
50.0939 -6.7838 9.0603 1.0000
50.0939 -6.4787 9.0532 1.0000
50.0939 -6.1742 9.0463 1.0000
50.0939 -6.0221 9.0430 1.0000
50.0939 -5.8701 9.0398 1.0000
50.0939 -5.5664 9.0336 1.0000
50.0939 -5.1117 9.0250 1.0000
50.0939 -4.8090 9.0197 1.0000
50.0939 -4.5066 9.0146 1.0000
50.0939 -4.3556 9.0123 1.0000
50.0939 -4.2046 9.0100 1.0000
50.0939 -4.0537 9.0077 1.0000
50.0939 -3.9029 9.0056 1.0000
50.0939 -3.7521 9.0035 1.0000
50.0939 -3.6014 9.0016 1.0000
50.0939 -3.4507 8.9997 1.0000
50.0939 -3.3002 8.9979 1.0000
50.0940 -2.6985 8.9914 1.0000
50.0940 -1.9475 8.9852 1.0000
50.0940 -1.7974 8.9842 1.0000
50.0940 -1.6473 8.9832 1.0000
50.0940 -1.4973 8.9824 1.0000
50.0940 -1.3472 8.9816 1.0000
50.0940 -1.1973 8.9809 1.0000
50.0940 -1.0473 8.9804 1.0000
50.0940 -0.7475 8.9794 1.0000
50.0940 -0.5975 8.9790 1.0000
50.0940 -0.4477 8.9787 1.0000
50.0940 -0.2978 8.9785 1.0000
50.0940 0.0020 8.9784 1.0000
50.0940 0.3018 8.9786 1.0000
50.0940 0.4516 8.9788 1.0000
50.0940 0.6016 8.9790 1.0000
50.0940 0.7514 8.9794 1.0000
50.0940 0.9014 8.9798 1.0000
50.0940 1.2013 8.9810 1.0000
50.0940 1.3513 8.9817 1.0000
50.0940 1.5013 8.9824 1.0000
50.0940 1.8014 8.9842 1.0000
50.0940 2.2518 8.9875 1.0000
50.0940 2.7025 8.9914 1.0000
50.0940 2.8529 8.9929 1.0000
50.0940 3.0032 8.9945 1.0000
50.0940 3.3042 8.9979 1.0000
50.0940 3.6054 9.0016 1.0000
50.0940 3.9068 9.0057 1.0000
50.0940 4.0577 9.0078 1.0000
50.0940 4.3596 9.0123 1.0000
50.0940 4.5106 9.0147 1.0000
50.0940 4.8130 9.0197 1.0000
50.0940 5.1157 9.0251 1.0000
50.0940 5.2672 9.0279 1.0000
50.0940 5.7222 9.0368 1.0000
50.0940 6.1782 9.0464 1.0000
50.0940 6.3304 9.0498 1.0000
50.0940 6.6352 9.0568 1.0000
50.0940 6.9405 9.0642 1.0000
50.0940 7.2463 9.0718 1.0000
50.0940 7.3994 9.0758 1.0000
50.0940 8.3208 9.1014 1.0000
50.0940 8.4749 9.1060 1.0000
50.0940 8.6292 9.1106 1.0000
50.0940 9.7136 9.1456 1.0000
50.0940 10.0250 9.1564 1.0000
50.0940 10.3371 9.1676 1.0000
50.0940 10.4935 9.1733 1.0000
50.0940 10.9638 9.1909 1.0000
50.0940 11.7517 9.2221 1.0000
50.0940 12.3861 9.2488 1.0000
50.0940 12.5452 9.2557 1.0000
50.0940 12.8643 9.2697 1.0000
50.0940 13.3447 9.2915 1.0000
50.0941 -12.5406 9.2555 1.0000
50.0941 -12.3814 9.2486 1.0000
50.0941 -12.2225 9.2418 1.0000
50.0941 -11.9054 9.2285 1.0000
50.0941 -11.7472 9.2220 1.0000
50.0941 -11.5891 9.2155 1.0000
50.0941 -11.4313 9.2092 1.0000
50.0940 -11.2737 9.2030 1.0000
50.0940 -10.4890 9.1731 1.0000
50.0940 -10.1765 9.1618 1.0000
50.0940 -10.0205 9.1563 1.0000
50.0940 -9.8647 9.1508 1.0000
50.0940 -9.7091 9.1455 1.0000
50.0940 -9.5537 9.1402 1.0000
50.0940 -9.3984 9.1350 1.0000
50.0939 2.2514 8.1158 1.0000
50.0939 2.7022 8.1194 1.0000
50.0940 2.8525 8.1208 1.0000
50.0940 3.0029 8.1222 1.0000
50.0940 3.3038 8.1253 1.0000
50.0939 3.4544 8.1269 1.0000
50.0940 4.0573 8.1342 1.0000
50.0939 4.2082 8.1362 1.0000
50.0939 4.6614 8.1427 1.0000
50.0940 4.8126 8.1450 1.0000
50.0940 5.2668 8.1523 1.0000
50.0940 5.5701 8.1576 1.0000
50.0940 5.7219 8.1604 1.0000
50.0940 6.1779 8.1691 1.0000
50.0940 6.3301 8.1721 1.0000
50.0940 6.4824 8.1753 1.0000
50.0940 6.7875 8.1817 1.0000
50.0939 6.9402 8.1851 1.0000
50.0939 7.0930 8.1885 1.0000
50.0940 7.7056 8.2030 1.0000
50.0940 7.8591 8.2068 1.0000
50.0939 8.0127 8.2107 1.0000
50.0940 8.1665 8.2147 1.0000
50.0939 8.9378 8.2357 1.0000
50.0939 9.5578 8.2539 1.0000
50.0940 10.0246 8.2684 1.0000
50.0940 10.1806 8.2734 1.0000
50.0940 10.3368 8.2785 1.0000
50.0939 10.8064 8.2942 1.0000
50.0939 10.9634 8.2996 1.0000
50.0939 11.1205 8.3050 1.0000
50.0939 11.2779 8.3106 1.0000
50.0939 11.5934 8.3220 1.0000
50.0939 12.3857 8.3518 1.0000
50.0939 12.5448 8.3580 1.0000
50.0939 12.7043 8.3643 1.0000
50.0939 12.8639 8.3707 1.0000
50.0939 13.0238 8.3772 1.0000
50.0940 13.3443 8.3904 1.0000
50.0940 -13.1800 8.3836 1.0000
50.0940 -13.0199 8.3770 1.0000
50.0940 -12.7004 8.3642 1.0000
50.0940 -12.3818 8.3517 1.0000
50.0940 -12.0642 8.3395 1.0000
50.0940 -11.9057 8.3335 1.0000
50.0940 -11.5895 8.3218 1.0000
50.0940 -11.2741 8.3105 1.0000
50.0940 -10.9596 8.2994 1.0000
50.0940 -10.8026 8.2940 1.0000
50.0940 -9.7094 8.2586 1.0000
50.0940 -9.3988 8.2491 1.0000
50.0940 -8.9340 8.2356 1.0000
50.0940 -8.7795 8.2312 1.0000
50.0940 -8.6251 8.2270 1.0000
50.0940 -8.0090 8.2106 1.0000
50.0940 -7.7019 8.2029 1.0000
50.0939 -7.3953 8.1955 1.0000
50.0939 -7.2422 8.1919 1.0000
50.0939 -7.0893 8.1884 1.0000
50.0939 -6.9364 8.1850 1.0000
50.0939 -6.7838 8.1817 1.0000
50.0939 -6.6312 8.1784 1.0000
50.0939 -6.4787 8.1752 1.0000
50.0939 -6.3264 8.1721 1.0000
50.0939 -6.1741 8.1690 1.0000
50.0939 -6.0221 8.1660 1.0000
50.0939 -5.7182 8.1603 1.0000
50.0939 -5.5664 8.1576 1.0000
50.0939 -5.4147 8.1549 1.0000
50.0939 -5.1116 8.1498 1.0000
50.0939 -4.8089 8.1449 1.0000
50.0939 -4.2046 8.1362 1.0000
50.0939 -4.0536 8.1342 1.0000
50.0939 -3.4507 8.1269 1.0000
50.0939 -2.9992 8.1222 1.0000
50.0939 -2.8488 8.1208 1.0000
50.0939 -2.6985 8.1194 1.0000
50.0939 -2.3979 8.1169 1.0000
50.0939 -2.2477 8.1158 1.0000
50.0939 -2.0976 8.1148 1.0000
50.0939 -1.9474 8.1138 1.0000
50.0939 -1.7973 8.1129 1.0000
50.0939 -1.6473 8.1120 1.0000
50.0939 -1.3473 8.1106 1.0000
50.0939 -1.1973 8.1100 1.0000
50.0939 -1.0473 8.1094 1.0000
50.0940 -0.8974 8.1090 1.0000
50.0939 -0.7475 8.1086 1.0000
50.0939 -0.5976 8.1082 1.0000
50.0939 -0.4477 8.1080 1.0000
50.0939 0.0020 8.1077 1.0000
50.0939 0.1519 8.1077 1.0000
50.0939 0.3018 8.1078 1.0000
50.0939 0.7515 8.1086 1.0000
50.0939 1.0513 8.1094 1.0000
50.0939 1.3512 8.1106 1.0000
50.0939 1.5012 8.1113 1.0000
50.0939 1.6513 8.1121 1.0000
50.0939 1.9515 8.1138 1.0000
50.0939 2.1016 8.1148 1.0000
50.0939 2.2517 8.1158 1.0000
50.0939 2.4020 8.1170 1.0000
50.0939 2.5523 8.1182 1.0000
50.0940 3.3042 8.1253 1.0000
50.0940 4.0577 8.1342 1.0000
50.0940 4.2086 8.1362 1.0000
50.0939 4.3595 8.1383 1.0000
50.0939 4.6618 8.1427 1.0000
50.0939 4.8130 8.1450 1.0000
50.0940 5.1157 8.1498 1.0000
50.0940 5.2672 8.1524 1.0000
50.0940 5.7222 8.1604 1.0000
50.0940 6.1782 8.1691 1.0000
50.0940 6.3305 8.1721 1.0000
50.0940 6.6352 8.1785 1.0000
50.0940 6.7878 8.1817 1.0000
50.0940 6.9405 8.1851 1.0000
50.0939 7.2463 8.1920 1.0000
50.0940 7.3994 8.1956 1.0000
50.0940 7.7059 8.2030 1.0000
50.0939 8.1669 8.2147 1.0000
50.0939 8.6292 8.2271 1.0000
50.0940 8.7836 8.2314 1.0000
50.0940 9.0929 8.2401 1.0000
50.0939 9.2478 8.2447 1.0000
50.0940 9.4029 8.2493 1.0000
50.0940 9.5581 8.2539 1.0000
50.0940 10.0249 8.2684 1.0000
50.0940 10.4934 8.2836 1.0000
50.0939 10.6500 8.2889 1.0000
50.0939 10.9637 8.2996 1.0000
50.0939 11.2783 8.3106 1.0000
50.0939 11.9100 8.3337 1.0000
50.0939 12.0684 8.3396 1.0000
50.0939 12.2271 8.3457 1.0000
50.0939 12.3861 8.3518 1.0000
50.0939 12.5452 8.3580 1.0000
50.0939 12.7046 8.3643 1.0000
50.0940 13.3447 8.3904 1.0000
50.0940 -13.1796 8.3836 1.0000
50.0940 -13.0195 8.3770 1.0000
50.0940 -12.8596 8.3706 1.0000
50.0940 -12.5406 8.3579 1.0000
50.0940 -12.3814 8.3516 1.0000
50.0940 -12.0639 8.3395 1.0000
50.0940 -11.9054 8.3335 1.0000
50.0940 -11.7471 8.3276 1.0000
50.0940 -11.5892 8.3218 1.0000
50.0940 -11.4314 8.3161 1.0000
50.0940 -11.1164 8.3049 1.0000
50.0940 -10.8023 8.2940 1.0000
50.0940 -10.0205 8.2683 1.0000
50.0940 -9.8646 8.2634 1.0000
50.0940 -9.7091 8.2585 1.0000
50.0940 -9.5536 8.2538 1.0000
50.0940 2.1012 7.2480 1.0000
50.0940 2.5518 7.2511 1.0000
50.0940 3.4544 7.2589 1.0000
50.0940 3.9064 7.2637 1.0000
50.0940 4.0573 7.2654 1.0000
50.0940 4.2082 7.2672 1.0000
50.0940 4.6614 7.2730 1.0000
50.0940 4.8126 7.2750 1.0000
50.0940 5.1153 7.2793 1.0000
50.0940 5.2668 7.2816 1.0000
50.0939 5.4184 7.2839 1.0000
50.0939 5.7219 7.2888 1.0000
50.0940 6.3301 7.2993 1.0000
50.0939 6.4824 7.3021 1.0000
50.0940 6.6349 7.3049 1.0000
50.0940 6.7875 7.3079 1.0000
50.0940 6.9401 7.3108 1.0000
50.0940 7.0930 7.3139 1.0000
50.0939 7.2460 7.3170 1.0000
50.0940 7.8591 7.3303 1.0000
50.0940 8.1665 7.3373 1.0000
50.0940 8.4746 7.3446 1.0000
50.0940 8.6288 7.3483 1.0000
50.0940 8.9378 7.3560 1.0000
50.0940 9.2475 7.3640 1.0000
50.0940 9.5578 7.3723 1.0000
50.0939 9.7132 7.3766 1.0000
50.0940 9.8688 7.3809 1.0000
50.0940 10.0246 7.3853 1.0000
50.0939 10.1806 7.3897 1.0000
50.0939 10.4931 7.3988 1.0000
50.0940 10.6496 7.4035 1.0000
50.0940 10.8064 7.4083 1.0000
50.0940 10.9634 7.4131 1.0000
50.0940 11.1205 7.4180 1.0000
50.0940 12.2268 7.4543 1.0000
50.0940 12.3857 7.4597 1.0000
50.0940 12.5448 7.4653 1.0000
50.0940 13.0237 7.4824 1.0000
50.0940 13.3443 7.4942 1.0000
50.0940 -13.3404 7.4941 1.0000
50.0940 -13.1800 7.4881 1.0000
50.0940 -12.8600 7.4765 1.0000
50.0940 -12.7004 7.4708 1.0000
50.0940 -12.3818 7.4596 1.0000
50.0940 -12.2229 7.4541 1.0000
50.0940 -12.0642 7.4487 1.0000
50.0940 -11.7475 7.4381 1.0000
50.0940 -11.5895 7.4330 1.0000
50.0940 -11.4317 7.4279 1.0000
50.0940 -11.2741 7.4228 1.0000
50.0940 -10.8027 7.4082 1.0000
50.0940 -10.6459 7.4034 1.0000
50.0940 -10.3330 7.3941 1.0000
50.0940 -10.1768 7.3896 1.0000
50.0940 -10.0209 7.3852 1.0000
50.0940 -9.8651 7.3808 1.0000
50.0940 -9.5540 7.3722 1.0000
50.0940 -9.3988 7.3680 1.0000
50.0940 -9.2437 7.3639 1.0000
50.0940 -9.0888 7.3599 1.0000
50.0940 -8.1628 7.3372 1.0000
50.0940 -7.8554 7.3302 1.0000
50.0939 -6.7838 7.3078 1.0000
50.0939 -6.6312 7.3049 1.0000
50.0939 -6.4787 7.3020 1.0000
50.0939 -6.3264 7.2992 1.0000
50.0939 -6.0221 7.2938 1.0000
50.0939 -5.5664 7.2862 1.0000
50.0939 -4.9603 7.2771 1.0000
50.0939 -4.6577 7.2729 1.0000
50.0939 -4.5066 7.2709 1.0000
50.0939 -4.3555 7.2690 1.0000
50.0939 -3.9028 7.2636 1.0000
50.0939 -3.7521 7.2620 1.0000
50.0939 -2.9993 7.2546 1.0000
50.0940 -2.6985 7.2522 1.0000
50.0939 -2.5482 7.2510 1.0000
50.0939 -2.3980 7.2500 1.0000
50.0940 -2.0976 7.2480 1.0000
50.0940 -1.6473 7.2456 1.0000
50.0940 -1.4973 7.2449 1.0000
50.0940 -1.3473 7.2443 1.0000
50.0940 -0.8975 7.2428 1.0000
50.0940 -0.5976 7.2422 1.0000
50.0940 -0.4477 7.2420 1.0000
50.0940 0.1518 7.2417 1.0000
50.0940 0.7514 7.2425 1.0000
50.0940 1.5012 7.2449 1.0000
50.0940 1.6513 7.2456 1.0000
50.0940 1.9514 7.2472 1.0000
50.0940 2.4019 7.2500 1.0000
50.0940 2.5521 7.2511 1.0000
50.0940 2.7025 7.2522 1.0000
50.0940 2.8529 7.2534 1.0000
50.0940 3.4547 7.2589 1.0000
50.0939 4.2086 7.2672 1.0000
50.0940 4.3595 7.2691 1.0000
50.0940 4.6617 7.2730 1.0000
50.0940 4.9643 7.2771 1.0000
50.0940 5.1157 7.2793 1.0000
50.0939 5.4187 7.2839 1.0000
50.0940 5.5704 7.2863 1.0000
50.0940 5.7222 7.2888 1.0000
50.0940 5.8741 7.2913 1.0000
50.0940 6.3304 7.2993 1.0000
50.0940 6.6352 7.3049 1.0000
50.0940 6.9405 7.3109 1.0000
50.0940 7.0933 7.3139 1.0000
50.0940 7.5525 7.3235 1.0000
50.0940 7.8594 7.3303 1.0000
50.0940 8.1668 7.3373 1.0000
50.0940 8.4749 7.3446 1.0000
50.0940 8.7836 7.3522 1.0000
50.0940 8.9382 7.3561 1.0000
50.0940 9.0929 7.3600 1.0000
50.0940 9.2478 7.3640 1.0000
50.0940 9.4029 7.3681 1.0000
50.0940 9.8692 7.3809 1.0000
50.0940 10.0250 7.3853 1.0000
50.0940 10.1809 7.3897 1.0000
50.0940 10.3371 7.3942 1.0000
50.0940 10.4935 7.3989 1.0000
50.0940 10.6500 7.4035 1.0000
50.0939 11.1209 7.4180 1.0000
50.0940 11.2783 7.4230 1.0000
50.0940 11.4359 7.4280 1.0000
50.0939 11.7517 7.4383 1.0000
50.0940 11.9100 7.4435 1.0000
50.0940 12.3860 7.4598 1.0000
50.0940 13.1843 7.4883 1.0000
50.0940 13.3446 7.4942 1.0000
50.0940 -13.3401 7.4941 1.0000
50.0940 -13.1797 7.4881 1.0000
50.0940 -12.7000 7.4708 1.0000
50.0940 -12.5407 7.4652 1.0000
50.0940 -12.2226 7.4541 1.0000
50.0940 -12.0639 7.4487 1.0000
50.0940 -11.5891 7.4329 1.0000
50.0940 -11.4314 7.4278 1.0000
50.0940 -10.9592 7.4130 1.0000
50.0940 -10.8023 7.4081 1.0000
50.0940 -10.0205 7.3851 1.0000
50.0940 -9.3984 7.3680 1.0000
50.0939 2.2514 6.3864 1.0000
50.0939 2.7022 6.3892 1.0000
50.0939 3.0029 6.3914 1.0000
50.0939 3.3039 6.3938 1.0000
50.0939 3.6051 6.3964 1.0000
50.0939 3.7557 6.3978 1.0000
50.0939 3.9065 6.3993 1.0000
50.0939 4.2082 6.4024 1.0000
50.0939 4.6614 6.4075 1.0000
50.0939 4.8126 6.4093 1.0000
50.0939 4.9639 6.4112 1.0000
50.0939 5.1154 6.4131 1.0000
50.0939 5.2668 6.4151 1.0000
50.0939 5.4184 6.4171 1.0000
50.0939 5.5701 6.4192 1.0000
50.0939 6.0258 6.4259 1.0000
50.0939 6.1779 6.4282 1.0000
50.0939 6.4825 6.4331 1.0000
50.0939 6.6349 6.4356 1.0000
50.0939 6.7875 6.4382 1.0000
50.0939 6.9402 6.4409 1.0000
50.0939 7.2460 6.4463 1.0000
50.0939 7.3991 6.4491 1.0000
50.0939 7.7056 6.4550 1.0000
50.0939 8.6289 6.4739 1.0000
50.0939 9.7132 6.4987 1.0000
50.0939 10.0246 6.5064 1.0000
50.0939 10.6497 6.5225 1.0000
50.0939 10.9634 6.5309 1.0000
50.0939 11.1206 6.5352 1.0000
50.0939 11.2779 6.5396 1.0000
50.0939 11.9096 6.5577 1.0000
50.0939 12.2268 6.5672 1.0000
50.0939 12.3857 6.5720 1.0000
50.0939 12.5449 6.5769 1.0000
50.0939 12.7043 6.5819 1.0000
50.0939 12.8639 6.5869 1.0000
50.0939 13.1839 6.5972 1.0000
50.0940 -13.3404 6.6023 1.0000
50.0940 -13.1800 6.5970 1.0000
50.0940 -13.0199 6.5919 1.0000
50.0940 -12.8600 6.5868 1.0000
50.0940 -12.5410 6.5768 1.0000
50.0940 -12.3818 6.5719 1.0000
50.0940 -12.2229 6.5671 1.0000
50.0940 -11.9057 6.5576 1.0000
50.0940 -11.7475 6.5530 1.0000
50.0940 -11.5895 6.5484 1.0000
50.0940 -11.4318 6.5439 1.0000
50.0940 -11.1168 6.5351 1.0000
50.0940 -10.8026 6.5266 1.0000
50.0940 -10.6459 6.5224 1.0000
50.0940 -10.4893 6.5183 1.0000
50.0940 -9.5540 6.4949 1.0000
50.0940 -9.3988 6.4912 1.0000
50.0940 -9.0888 6.4841 1.0000
50.0940 -8.6251 6.4738 1.0000
50.0940 -8.3168 6.4672 1.0000
50.0940 -7.8554 6.4579 1.0000
50.0940 -7.7019 6.4549 1.0000
50.0939 -7.2422 6.4462 1.0000
50.0939 -7.0893 6.4435 1.0000
50.0939 -6.7838 6.4381 1.0000
50.0939 -6.6312 6.4356 1.0000
50.0939 -6.4787 6.4330 1.0000
50.0939 -6.3264 6.4306 1.0000
50.0939 -6.1742 6.4282 1.0000
50.0939 -6.0221 6.4259 1.0000
50.0939 -5.8701 6.4236 1.0000
50.0939 -5.7182 6.4213 1.0000
50.0939 -5.4147 6.4171 1.0000
50.0939 -5.1117 6.4130 1.0000
50.0939 -4.8089 6.4092 1.0000
50.0939 -4.6577 6.4074 1.0000
50.0939 -4.5066 6.4057 1.0000
50.0939 -4.3555 6.4040 1.0000
50.0939 -4.2046 6.4023 1.0000
50.0939 -3.9028 6.3992 1.0000
50.0939 -3.7521 6.3978 1.0000
50.0939 -3.4507 6.3950 1.0000
50.0939 -3.3002 6.3937 1.0000
50.0939 -2.9993 6.3913 1.0000
50.0939 -2.8489 6.3902 1.0000
50.0939 -2.5482 6.3882 1.0000
50.0939 -2.2478 6.3863 1.0000
50.0939 -2.0975 6.3855 1.0000
50.0939 -1.7973 6.3840 1.0000
50.0939 -1.0473 6.3813 1.0000
50.0939 -0.8974 6.3809 1.0000
50.0939 -0.4477 6.3802 1.0000
50.0939 -0.1479 6.3799 1.0000
50.0939 0.9014 6.3809 1.0000
50.0939 1.3513 6.3822 1.0000
50.0939 1.5013 6.3828 1.0000
50.0939 1.8014 6.3840 1.0000
50.0939 2.2518 6.3864 1.0000
50.0939 2.4020 6.3872 1.0000
50.0939 2.5522 6.3882 1.0000
50.0939 3.1537 6.3926 1.0000
50.0939 3.3042 6.3938 1.0000
50.0939 3.4548 6.3951 1.0000
50.0939 3.9068 6.3993 1.0000
50.0939 4.0577 6.4008 1.0000
50.0939 4.2086 6.4024 1.0000
50.0939 4.3596 6.4040 1.0000
50.0939 4.8130 6.4093 1.0000
50.0939 4.9643 6.4112 1.0000
50.0939 5.1157 6.4131 1.0000
50.0939 5.2672 6.4151 1.0000
50.0939 5.8741 6.4236 1.0000
50.0939 6.0261 6.4259 1.0000
50.0939 6.1782 6.4283 1.0000
50.0939 6.3305 6.4307 1.0000
50.0939 6.4828 6.4331 1.0000
50.0939 6.6352 6.4356 1.0000
50.0939 6.7879 6.4382 1.0000
50.0939 6.9405 6.4409 1.0000
50.0939 7.0934 6.4436 1.0000
50.0939 7.3994 6.4491 1.0000
50.0939 7.5526 6.4520 1.0000
50.0939 7.7060 6.4550 1.0000
50.0939 8.0131 6.4610 1.0000
50.0939 8.1669 6.4641 1.0000
50.0939 8.6292 6.4739 1.0000
50.0939 8.7836 6.4772 1.0000
50.0939 9.4029 6.4913 1.0000
50.0939 9.7136 6.4988 1.0000
50.0939 9.8692 6.5026 1.0000
50.0939 10.0250 6.5064 1.0000
50.0939 10.1810 6.5103 1.0000
50.0939 10.3371 6.5143 1.0000
50.0939 10.6500 6.5225 1.0000
50.0939 10.8068 6.5267 1.0000
50.0939 11.2783 6.5396 1.0000
50.0939 11.4359 6.5441 1.0000
50.0939 11.9100 6.5577 1.0000
50.0939 12.0684 6.5625 1.0000
50.0939 12.8643 6.5869 1.0000
50.0939 13.0242 6.5920 1.0000
50.0939 13.1843 6.5972 1.0000
50.0939 13.3446 6.6024 1.0000
50.0940 -13.3401 6.6023 1.0000
50.0940 -13.1796 6.5970 1.0000
50.0940 -12.7000 6.5818 1.0000
50.0940 -12.5407 6.5768 1.0000
50.0940 -12.3814 6.5719 1.0000
50.0940 -12.2225 6.5671 1.0000
50.0940 -12.0639 6.5623 1.0000
50.0940 -11.5892 6.5484 1.0000
50.0940 -11.2738 6.5395 1.0000
50.0940 -10.9593 6.5308 1.0000
50.0940 -10.8023 6.5266 1.0000
50.0940 -10.3327 6.5142 1.0000
50.0940 -10.1765 6.5102 1.0000
50.0940 -9.7091 6.4986 1.0000
50.0939 2.5519 5.5290 1.0000
50.0939 2.7021 5.5299 1.0000
50.0939 2.8525 5.5308 1.0000
50.0939 3.1534 5.5328 1.0000
50.0939 3.4544 5.5350 1.0000
50.0939 3.7557 5.5374 1.0000
50.0939 3.9065 5.5386 1.0000
50.0939 4.0573 5.5399 1.0000
50.0939 4.3592 5.5427 1.0000
50.0939 4.5103 5.5442 1.0000
50.0939 4.6614 5.5457 1.0000
50.0939 4.8127 5.5473 1.0000
50.0939 5.7219 5.5578 1.0000
50.0939 6.0258 5.5617 1.0000
50.0939 6.6349 5.5701 1.0000
50.0939 6.9402 5.5746 1.0000
50.0939 7.2459 5.5793 1.0000
50.0939 7.3990 5.5818 1.0000
50.0939 7.5523 5.5843 1.0000
50.0939 7.7056 5.5868 1.0000
50.0939 7.8591 5.5894 1.0000
50.0939 8.0127 5.5921 1.0000
50.0939 8.1666 5.5948 1.0000
50.0939 8.7832 5.6061 1.0000
50.0939 9.2475 5.6152 1.0000
50.0939 9.7132 5.6247 1.0000
50.0939 10.0246 5.6313 1.0000
50.0939 10.1806 5.6347 1.0000
50.0939 10.3368 5.6382 1.0000
50.0939 10.4931 5.6417 1.0000
50.0939 10.6497 5.6453 1.0000
50.0939 10.9634 5.6526 1.0000
50.0939 11.2780 5.6601 1.0000
50.0939 11.7513 5.6718 1.0000
50.0939 12.0680 5.6798 1.0000
50.0939 12.5448 5.6924 1.0000
50.0939 12.7042 5.6967 1.0000
50.0939 12.8639 5.7010 1.0000
50.0939 13.0237 5.7054 1.0000
50.0939 13.1839 5.7099 1.0000
50.0939 13.3443 5.7144 1.0000
50.0940 -13.0199 5.7053 1.0000
50.0939 -12.8600 5.7009 1.0000
50.0940 -12.7004 5.6966 1.0000
50.0939 -11.9057 5.6757 1.0000
50.0939 -11.5895 5.6677 1.0000
50.0940 -11.4317 5.6638 1.0000
50.0940 -11.1168 5.6562 1.0000
50.0939 -10.9596 5.6525 1.0000
50.0940 -10.6459 5.6452 1.0000
50.0939 -10.1768 5.6347 1.0000
50.0939 -10.0208 5.6313 1.0000
50.0939 -9.8650 5.6279 1.0000
50.0940 -9.5540 5.6214 1.0000
50.0940 -9.3988 5.6182 1.0000
50.0939 -9.2437 5.6151 1.0000
50.0940 -9.0888 5.6120 1.0000
50.0939 -8.9341 5.6090 1.0000
50.0940 -8.3168 5.5974 1.0000
50.0939 -8.1628 5.5947 1.0000
50.0939 -8.0090 5.5920 1.0000
50.0940 -7.8554 5.5893 1.0000
50.0940 -7.7019 5.5867 1.0000
50.0939 -7.5485 5.5842 1.0000
50.0939 -7.2422 5.5793 1.0000
50.0939 -7.0893 5.5769 1.0000
50.0939 -6.7837 5.5723 1.0000
50.0939 -6.0221 5.5616 1.0000
50.0939 -5.1117 5.5505 1.0000
50.0939 -4.8089 5.5472 1.0000
50.0939 -4.6577 5.5457 1.0000
50.0939 -4.2046 5.5413 1.0000
50.0939 -4.0536 5.5399 1.0000
50.0939 -3.6014 5.5361 1.0000
50.0939 -3.4507 5.5349 1.0000
50.0939 -2.9993 5.5317 1.0000
50.0939 -2.6985 5.5299 1.0000
50.0939 -2.5482 5.5290 1.0000
50.0939 -2.2477 5.5274 1.0000
50.0939 -2.0975 5.5267 1.0000
50.0939 -1.9474 5.5260 1.0000
50.0939 -1.7973 5.5254 1.0000
50.0939 -1.6473 5.5248 1.0000
50.0939 -1.1973 5.5234 1.0000
50.0939 -0.7475 5.5225 1.0000
50.0939 -0.4477 5.5221 1.0000
50.0939 0.1519 5.5219 1.0000
50.0939 0.4516 5.5221 1.0000
50.0939 0.6016 5.5222 1.0000
50.0939 0.7515 5.5225 1.0000
50.0939 0.9014 5.5227 1.0000
50.0939 1.5012 5.5243 1.0000
50.0939 2.1016 5.5267 1.0000
50.0939 2.2518 5.5274 1.0000
50.0939 3.4548 5.5350 1.0000
50.0939 3.7561 5.5374 1.0000
50.0939 4.0577 5.5399 1.0000
50.0939 4.8130 5.5473 1.0000
50.0939 4.9643 5.5489 1.0000
50.0939 5.1157 5.5506 1.0000
50.0939 5.2672 5.5523 1.0000
50.0939 5.4187 5.5541 1.0000
50.0939 5.5705 5.5559 1.0000
50.0939 5.7222 5.5578 1.0000
50.0939 5.8741 5.5597 1.0000
50.0939 6.0261 5.5617 1.0000
50.0939 6.1782 5.5637 1.0000
50.0939 6.3305 5.5658 1.0000
50.0939 6.6352 5.5701 1.0000
50.0939 6.9405 5.5746 1.0000
50.0939 7.0934 5.5769 1.0000
50.0939 7.2462 5.5793 1.0000
50.0939 7.3994 5.5818 1.0000
50.0939 7.8595 5.5894 1.0000
50.0939 8.0131 5.5921 1.0000
50.0939 8.1669 5.5948 1.0000
50.0939 8.3209 5.5975 1.0000
50.0939 8.7836 5.6061 1.0000
50.0939 8.9382 5.6091 1.0000
50.0939 9.5581 5.6215 1.0000
50.0939 9.8692 5.6280 1.0000
50.0939 10.1809 5.6347 1.0000
50.0939 10.3371 5.6382 1.0000
50.0939 10.6500 5.6453 1.0000
50.0939 11.1209 5.6563 1.0000
50.0939 11.2783 5.6601 1.0000
50.0939 11.4359 5.6639 1.0000
50.0939 11.5937 5.6678 1.0000
50.0939 11.7517 5.6718 1.0000
50.0939 11.9099 5.6758 1.0000
50.0939 12.2271 5.6840 1.0000
50.0939 12.3860 5.6881 1.0000
50.0939 12.7046 5.6967 1.0000
50.0939 13.1843 5.7099 1.0000
50.0940 -13.3400 5.7143 1.0000
50.0940 -12.7000 5.6965 1.0000
50.0940 -12.5406 5.6923 1.0000
50.0940 -12.2225 5.6838 1.0000
50.0940 -11.7471 5.6716 1.0000
50.0940 -11.5891 5.6677 1.0000
50.0940 -11.4313 5.6638 1.0000
50.0939 -11.2737 5.6600 1.0000
50.0940 -10.9592 5.6525 1.0000
50.0939 -10.8023 5.6488 1.0000
50.0939 -10.6455 5.6452 1.0000
50.0940 -10.4889 5.6416 1.0000
50.0939 -10.1764 5.6346 1.0000
50.0939 -10.0205 5.6312 1.0000
50.0940 -9.5536 5.6214 1.0000
50.0939 2.1012 4.6711 1.0000
50.0939 2.5519 4.6730 1.0000
50.0939 3.6050 4.6791 1.0000
50.0939 3.7557 4.6801 1.0000
50.0939 3.9064 4.6811 1.0000
50.0939 4.0573 4.6823 1.0000
50.0939 4.2082 4.6834 1.0000
50.0939 4.3592 4.6846 1.0000
50.0939 4.5102 4.6859 1.0000
50.0939 4.8126 4.6885 1.0000
50.0939 4.9639 4.6898 1.0000
50.0939 5.4184 4.6942 1.0000
50.0939 5.8738 4.6990 1.0000
50.0939 6.0257 4.7006 1.0000
50.0939 6.1779 4.7023 1.0000
50.0939 6.3301 4.7041 1.0000
50.0939 6.6349 4.7077 1.0000
50.0939 6.9401 4.7116 1.0000
50.0939 7.0930 4.7135 1.0000
50.0939 7.2459 4.7156 1.0000
50.0939 7.7056 4.7219 1.0000
50.0939 7.8591 4.7241 1.0000
50.0939 8.0127 4.7263 1.0000
50.0939 8.1665 4.7286 1.0000
50.0939 8.3205 4.7309 1.0000
50.0939 8.9378 4.7407 1.0000
50.0939 9.0925 4.7432 1.0000
50.0939 9.5578 4.7512 1.0000
50.0939 9.7132 4.7539 1.0000
50.0939 10.0246 4.7595 1.0000
50.0939 10.1806 4.7624 1.0000
50.0939 10.4931 4.7683 1.0000
50.0939 10.9634 4.7774 1.0000
50.0939 11.1205 4.7806 1.0000
50.0939 11.2779 4.7838 1.0000
50.0939 11.4355 4.7870 1.0000
50.0939 11.7513 4.7937 1.0000
50.0939 11.9096 4.7971 1.0000
50.0939 12.2268 4.8040 1.0000
50.0939 12.5448 4.8111 1.0000
50.0939 12.7043 4.8147 1.0000
50.0939 -13.3404 4.8296 1.0000
50.0939 -13.0199 4.8220 1.0000
50.0939 -12.5409 4.8110 1.0000
50.0939 -12.3818 4.8074 1.0000
50.0939 -12.2229 4.8039 1.0000
50.0939 -12.0642 4.8004 1.0000
50.0939 -11.7475 4.7936 1.0000
50.0939 -11.5895 4.7903 1.0000
50.0939 -11.4317 4.7870 1.0000
50.0939 -10.9595 4.7774 1.0000
50.0939 -9.8650 4.7566 1.0000
50.0939 -9.5540 4.7511 1.0000
50.0939 -9.3987 4.7484 1.0000
50.0939 -9.2437 4.7458 1.0000
50.0939 -9.0888 4.7432 1.0000
50.0939 -8.9340 4.7406 1.0000
50.0939 -8.7795 4.7381 1.0000
50.0939 -8.3167 4.7309 1.0000
50.0939 -8.1628 4.7285 1.0000
50.0939 -7.7019 4.7218 1.0000
50.0938 -7.0893 4.7135 1.0000
50.0938 -6.4787 4.7058 1.0000
50.0938 -6.1742 4.7023 1.0000
50.0938 -5.7182 4.6973 1.0000
50.0938 -5.2631 4.6927 1.0000
50.0938 -4.5066 4.6858 1.0000
50.0938 -4.3555 4.6846 1.0000
50.0938 -4.2046 4.6834 1.0000
50.0938 -4.0536 4.6822 1.0000
50.0938 -3.9028 4.6811 1.0000
50.0938 -3.7521 4.6801 1.0000
50.0938 -3.6014 4.6790 1.0000
50.0938 -3.4507 4.6780 1.0000
50.0938 -3.1497 4.6762 1.0000
50.0939 -2.6985 4.6738 1.0000
50.0938 -2.3979 4.6723 1.0000
50.0939 -2.2478 4.6717 1.0000
50.0939 -2.0976 4.6711 1.0000
50.0939 -1.9475 4.6705 1.0000
50.0939 -1.7974 4.6700 1.0000
50.0939 -1.3473 4.6687 1.0000
50.0939 -1.1973 4.6683 1.0000
50.0939 -0.8974 4.6677 1.0000
50.0939 -0.7475 4.6675 1.0000
50.0939 -0.4477 4.6672 1.0000
50.0939 -0.2978 4.6671 1.0000
50.0939 -0.1479 4.6670 1.0000
50.0939 0.1519 4.6670 1.0000
50.0939 0.3018 4.6671 1.0000
50.0939 0.4517 4.6672 1.0000
50.0939 0.6016 4.6673 1.0000
50.0939 0.9014 4.6677 1.0000
50.0939 1.0514 4.6680 1.0000
50.0939 1.2013 4.6683 1.0000
50.0939 1.3512 4.6687 1.0000
50.0939 1.5013 4.6691 1.0000
50.0939 1.9514 4.6705 1.0000
50.0939 2.1016 4.6711 1.0000
50.0939 2.2518 4.6717 1.0000
50.0939 2.4020 4.6723 1.0000
50.0939 2.5521 4.6730 1.0000
50.0939 3.0032 4.6754 1.0000
50.0939 3.1537 4.6762 1.0000
50.0939 3.4547 4.6781 1.0000
50.0939 3.6054 4.6791 1.0000
50.0939 3.7561 4.6801 1.0000
50.0939 3.9068 4.6811 1.0000
50.0939 4.0577 4.6823 1.0000
50.0939 4.6618 4.6872 1.0000
50.0939 4.9643 4.6898 1.0000
50.0939 5.1157 4.6913 1.0000
50.0939 5.7222 4.6973 1.0000
50.0939 6.1782 4.7023 1.0000
50.0939 6.3304 4.7041 1.0000
50.0939 7.0933 4.7135 1.0000
50.0939 7.2463 4.7156 1.0000
50.0939 7.7059 4.7219 1.0000
50.0939 8.0131 4.7263 1.0000
50.0939 8.6291 4.7357 1.0000
50.0939 8.9382 4.7407 1.0000
50.0939 9.2478 4.7458 1.0000
50.0939 9.4029 4.7485 1.0000
50.0939 9.5581 4.7512 1.0000
50.0939 9.7136 4.7539 1.0000
50.0939 10.1809 4.7624 1.0000
50.0939 10.4935 4.7683 1.0000
50.0939 10.6500 4.7713 1.0000
50.0939 10.8068 4.7743 1.0000
50.0939 10.9637 4.7775 1.0000
50.0939 11.1209 4.7806 1.0000
50.0939 11.4359 4.7870 1.0000
50.0939 11.5936 4.7903 1.0000
50.0939 11.7517 4.7937 1.0000
50.0939 12.8643 4.8184 1.0000
50.0939 13.1843 4.8259 1.0000
50.0939 13.3446 4.8297 1.0000
50.0939 -12.8596 4.8183 1.0000
50.0939 -12.7000 4.8146 1.0000
50.0939 -12.5406 4.8110 1.0000
50.0939 -11.9054 4.7970 1.0000
50.0939 -11.7471 4.7936 1.0000
50.0939 -11.1164 4.7805 1.0000
50.0939 -10.9592 4.7774 1.0000
50.0939 -10.6455 4.7712 1.0000
50.0939 -10.0204 4.7594 1.0000
50.0939 -9.3984 4.7484 1.0000
50.0939 2.2514 3.8186 1.0000
50.0939 2.4016 3.8192 1.0000
50.0939 2.5519 3.8197 1.0000
50.0939 2.7022 3.8203 1.0000
50.0939 3.1534 3.8223 1.0000
50.0939 3.3039 3.8231 1.0000
50.0939 3.4544 3.8239 1.0000
50.0939 3.6050 3.8247 1.0000
50.0939 3.7557 3.8255 1.0000
50.0939 4.2082 3.8282 1.0000
50.0939 4.3593 3.8292 1.0000
50.0939 4.5103 3.8302 1.0000
50.0939 4.8126 3.8324 1.0000
50.0939 5.2668 3.8358 1.0000
50.0939 5.4184 3.8370 1.0000
50.0939 5.5701 3.8383 1.0000
50.0939 5.7219 3.8396 1.0000
50.0939 6.0258 3.8423 1.0000
50.0939 6.1779 3.8437 1.0000
50.0939 6.4825 3.8466 1.0000
50.0939 6.6349 3.8481 1.0000
50.0939 6.7875 3.8497 1.0000
50.0939 7.7056 3.8597 1.0000
50.0939 8.1665 3.8652 1.0000
50.0939 8.3205 3.8671 1.0000
