ply
format ascii 1.0
element vertex 1590
property float32 x
property float32 y
property float32 z
property float32 I
end_header
50.0941 4.0499 13.4665 1.0000
50.0941 4.5030 13.4768 1.0000
50.0941 4.8055 13.4843 1.0000
50.0941 5.1083 13.4923 1.0000
50.0941 5.2599 13.4965 1.0000
50.0941 5.7152 13.5097 1.0000
50.0941 5.8671 13.5144 1.0000
50.0941 6.0192 13.5192 1.0000
50.0941 6.4760 13.5344 1.0000
50.0941 6.6286 13.5397 1.0000
50.0941 6.7812 13.5451 1.0000
50.0941 6.9339 13.5506 1.0000
50.0941 7.0868 13.5563 1.0000
50.0941 7.6996 13.5803 1.0000
50.0941 8.0070 13.5930 1.0000
50.0941 8.1608 13.5996 1.0000
50.0941 8.4689 13.6131 1.0000
50.0941 8.6233 13.6201 1.0000
50.0941 9.2421 13.6492 1.0000
50.0941 9.3973 13.6568 1.0000
50.0941 10.0196 13.6885 1.0000
50.0941 2.5199 12.5356 1.0000
50.0941 2.6703 12.5376 1.0000
50.0941 3.1216 12.5441 1.0000
50.0941 3.2722 12.5465 1.0000
50.0941 3.5735 12.5516 1.0000
50.0941 3.7242 12.5544 1.0000
50.0941 4.1769 12.5632 1.0000
50.0941 5.0843 12.5841 1.0000
50.0941 5.5392 12.5961 1.0000
50.0941 5.9950 12.6091 1.0000
50.0941 6.2995 12.6184 1.0000
50.0941 6.4518 12.6232 1.0000
50.0941 6.6043 12.6281 1.0000
50.0941 6.7569 12.6332 1.0000
50.0941 7.2155 12.6490 1.0000
50.0941 7.3687 12.6545 1.0000
50.0941 7.5219 12.6602 1.0000
50.0941 7.6753 12.6659 1.0000
50.0941 7.8289 12.6718 1.0000
50.0941 7.9825 12.6778 1.0000
50.0941 8.1364 12.6839 1.0000
50.0941 8.4445 12.6964 1.0000
50.0941 8.5988 12.7029 1.0000
50.0941 8.7532 12.7095 1.0000
50.0941 8.9078 12.7162 1.0000
50.0941 9.6834 12.7516 1.0000
50.0941 9.9949 12.7666 1.0000
50.0941 10.1509 12.7743 1.0000
50.0941 10.3071 12.7821 1.0000
50.0941 10.4634 12.7900 1.0000
50.0941 10.7769 12.8063 1.0000
50.0941 11.0910 12.8230 1.0000
50.0941 11.2484 12.8316 1.0000
50.0941 11.8802 12.8671 1.0000
50.0941 12.0387 12.8763 1.0000
50.0941 12.5156 12.9047 1.0000
50.0941 12.9946 12.9342 1.0000
50.0941 -13.3696 12.9580 1.0000
50.0941 -13.2090 12.9477 1.0000
50.0941 -12.0924 12.8794 1.0000
50.0941 -11.7755 12.8611 1.0000
50.0941 -11.6174 12.8521 1.0000
50.0941 -11.4595 12.8432 1.0000
50.0941 -11.1443 12.8259 1.0000
50.0941 -10.5164 12.7927 1.0000
50.0941 -10.3600 12.7848 1.0000
50.0941 -10.2037 12.7769 1.0000
50.0941 -10.0477 12.7692 1.0000
50.0941 -9.8918 12.7616 1.0000
50.0941 -9.7361 12.7541 1.0000
50.0941 -9.5805 12.7467 1.0000
50.0941 -9.4252 12.7395 1.0000
50.0941 -9.2700 12.7324 1.0000
50.0941 -8.9602 12.7185 1.0000
50.0941 -8.8055 12.7118 1.0000
50.0941 -8.3425 12.6922 1.0000
50.0941 -8.1885 12.6860 1.0000
50.0941 -8.0346 12.6798 1.0000
50.0941 -7.8808 12.6738 1.0000
50.0940 -7.4205 12.6564 1.0000
50.0940 -7.2673 12.6509 1.0000
50.0940 -6.9614 12.6401 1.0000
50.0940 -6.8086 12.6349 1.0000
50.0940 -6.6559 12.6298 1.0000
50.0940 -5.8944 12.6062 1.0000
50.0940 -5.7425 12.6018 1.0000
50.0940 -5.4388 12.5934 1.0000
50.0940 -5.1356 12.5854 1.0000
50.0940 -4.8327 12.5779 1.0000
50.0940 -4.6814 12.5744 1.0000
50.0940 -4.3790 12.5675 1.0000
50.0940 -4.2279 12.5643 1.0000
50.0940 -4.0770 12.5612 1.0000
50.0940 -3.7753 12.5553 1.0000
50.0940 -3.6245 12.5525 1.0000
50.0940 -3.1726 12.5449 1.0000
50.0940 -3.0221 12.5426 1.0000
50.0940 -2.7211 12.5383 1.0000
50.0940 -2.2702 12.5327 1.0000
50.0941 -1.9698 12.5295 1.0000
50.0941 -1.8196 12.5281 1.0000
50.0941 -1.6695 12.5268 1.0000
50.0941 -1.2192 12.5235 1.0000
50.0941 -1.0692 12.5227 1.0000
50.0941 -0.9192 12.5219 1.0000
50.0941 -0.7692 12.5213 1.0000
50.0941 -0.6192 12.5208 1.0000
50.0941 -0.3193 12.5201 1.0000
50.0941 -0.1694 12.5199 1.0000
50.0941 -0.0194 12.5198 1.0000
50.0941 0.1305 12.5198 1.0000
50.0941 0.2805 12.5200 1.0000
50.0941 0.4304 12.5203 1.0000
50.0941 0.5804 12.5206 1.0000
50.0941 0.8804 12.5217 1.0000
50.0941 1.3304 12.5242 1.0000
50.0941 1.4805 12.5253 1.0000
50.0941 1.6306 12.5264 1.0000
50.0941 1.7807 12.5277 1.0000
50.0941 2.0811 12.5306 1.0000
50.0941 2.2313 12.5322 1.0000
50.0941 2.5318 12.5358 1.0000
50.0941 2.6822 12.5377 1.0000
50.0941 3.1336 12.5443 1.0000
50.0941 4.0379 12.5604 1.0000
50.0941 4.1889 12.5635 1.0000
50.0941 4.4910 12.5700 1.0000
50.0941 4.6422 12.5734 1.0000
50.0941 5.0963 12.5844 1.0000
50.0941 5.2479 12.5883 1.0000
50.0941 5.3995 12.5923 1.0000
50.0941 5.5512 12.5964 1.0000
50.0941 5.8550 12.6050 1.0000
50.0941 6.1593 12.6141 1.0000
50.0941 6.4639 12.6236 1.0000
50.0941 6.6164 12.6285 1.0000
50.0941 6.7691 12.6336 1.0000
50.0941 6.9218 12.6388 1.0000
50.0941 7.0746 12.6440 1.0000
50.0941 7.2277 12.6494 1.0000
50.0941 7.5341 12.6606 1.0000
50.0941 7.6875 12.6664 1.0000
50.0941 7.9948 12.6782 1.0000
50.0941 8.1486 12.6844 1.0000
50.0941 8.3026 12.6906 1.0000
50.0941 8.4567 12.6970 1.0000
50.0941 8.6110 12.7034 1.0000
50.0941 8.9201 12.7167 1.0000
50.0941 9.2298 12.7306 1.0000
50.0941 9.6957 12.7522 1.0000
50.0941 10.0073 12.7672 1.0000
50.0941 10.1633 12.7749 1.0000
50.0941 10.3195 12.7827 1.0000
50.0941 10.4759 12.7906 1.0000
50.0941 11.4186 12.8409 1.0000
50.0941 11.7345 12.8587 1.0000
50.0941 12.6877 12.9151 1.0000
50.0941 12.8474 12.9250 1.0000
50.0941 13.0073 12.9350 1.0000
50.0941 13.1675 12.9451 1.0000
50.0941 -13.3568 12.9572 1.0000
50.0941 -13.1963 12.9469 1.0000
50.0941 -13.0361 12.9368 1.0000
50.0941 -12.7164 12.9169 1.0000
50.0941 -12.5569 12.9072 1.0000
50.0941 -12.3976 12.8975 1.0000
50.0941 -12.0799 12.8787 1.0000
50.0941 -11.9213 12.8695 1.0000
50.0941 -11.7629 12.8603 1.0000
50.0941 -11.6048 12.8514 1.0000
50.0941 -11.4470 12.8425 1.0000
50.0941 -11.1318 12.8252 1.0000
50.0941 -10.9746 12.8167 1.0000
50.0941 -10.8175 12.8084 1.0000
50.0941 -10.1914 12.7763 1.0000
50.0941 -10.0353 12.7686 1.0000
50.0941 -9.8794 12.7610 1.0000
50.0941 -9.7237 12.7535 1.0000
50.0941 -9.4129 12.7389 1.0000
50.0941 -8.9479 12.7180 1.0000
50.0941 -8.6388 12.7046 1.0000
50.0941 -8.4845 12.6981 1.0000
50.0941 -8.3303 12.6917 1.0000
50.0941 -7.8686 12.6733 1.0000
50.0941 -7.5617 12.6616 1.0000
50.0940 -7.4083 12.6560 1.0000
50.0940 -7.2552 12.6504 1.0000
50.0940 -6.9493 12.6397 1.0000
50.0940 -6.7965 12.6345 1.0000
50.0940 -6.6439 12.6294 1.0000
50.0940 -6.4913 12.6245 1.0000
50.0940 -6.3389 12.6196 1.0000
50.0940 -5.8824 12.6058 1.0000
50.0940 -5.5786 12.5972 1.0000
50.0940 -5.4268 12.5931 1.0000
50.0940 -5.1236 12.5851 1.0000
50.0940 -4.2160 12.5641 1.0000
50.0940 -4.0650 12.5610 1.0000
50.0940 -3.9141 12.5580 1.0000
50.0940 -3.7633 12.5551 1.0000
50.0940 -3.6125 12.5523 1.0000
50.0940 -3.4618 12.5497 1.0000
50.0941 -2.1080 12.5309 1.0000
50.0941 -1.9579 12.5294 1.0000
50.0941 -1.8077 12.5280 1.0000
50.0941 -1.6576 12.5267 1.0000
50.0941 -1.5075 12.5255 1.0000
50.0941 -1.3574 12.5244 1.0000
50.0941 -1.2073 12.5234 1.0000
50.0941 -0.9073 12.5219 1.0000
50.0941 -0.7573 12.5212 1.0000
50.0941 -0.6073 12.5207 1.0000
50.0941 -0.3074 12.5200 1.0000
50.0941 -0.1575 12.5199 1.0000
50.0941 -0.0075 12.5198 1.0000
50.0941 0.1424 12.5198 1.0000
50.0941 0.2924 12.5200 1.0000
50.0941 0.7423 12.5212 1.0000
50.0941 0.8923 12.5218 1.0000
50.0941 1.1923 12.5233 1.0000
50.0941 1.3423 12.5243 1.0000
50.0941 1.6425 12.5265 1.0000
50.0941 2.0930 12.5307 1.0000
50.0941 2.2432 12.5324 1.0000
50.0941 2.6941 12.5379 1.0000
50.0941 3.1455 12.5445 1.0000
50.0941 3.5974 12.5520 1.0000
50.0941 4.0499 12.5607 1.0000
50.0941 4.2009 12.5637 1.0000
50.0941 4.6542 12.5737 1.0000
50.0941 5.2599 12.5886 1.0000
50.0941 5.5633 12.5968 1.0000
50.0941 6.0191 12.6099 1.0000
50.0941 6.6285 12.6289 1.0000
50.0941 6.9339 12.6392 1.0000
50.0941 7.5462 12.6611 1.0000
50.0941 8.0070 12.6787 1.0000
50.0941 8.4690 12.6975 1.0000
50.0941 8.6233 12.7039 1.0000
50.0941 8.7777 12.7106 1.0000
50.0941 8.9323 12.7173 1.0000
50.0941 9.2422 12.7311 1.0000
50.0941 9.5526 12.7454 1.0000
50.0941 9.7081 12.7528 1.0000
50.0941 10.0196 12.7678 1.0000
50.0941 2.5199 11.6392 1.0000
50.0941 2.6702 11.6410 1.0000
50.0941 2.8207 11.6429 1.0000
50.0941 2.9711 11.6450 1.0000
50.0940 3.5735 11.6541 1.0000
50.0940 3.8750 11.6593 1.0000
50.0940 4.0259 11.6620 1.0000
50.0940 4.1769 11.6649 1.0000
50.0940 4.3279 11.6679 1.0000
50.0941 5.0843 11.6843 1.0000
50.0941 6.1472 11.7117 1.0000
50.0941 6.4518 11.7206 1.0000
50.0941 6.6043 11.7251 1.0000
50.0941 6.7570 11.7298 1.0000
50.0941 6.9097 11.7346 1.0000
50.0941 7.3687 11.7496 1.0000
50.0941 7.9826 11.7712 1.0000
50.0941 8.1364 11.7769 1.0000
50.0941 8.5988 11.7946 1.0000
50.0941 8.9079 11.8069 1.0000
50.0941 9.3727 11.8263 1.0000
50.0941 9.6834 11.8397 1.0000
50.0941 9.8391 11.8466 1.0000
50.0941 10.1509 11.8608 1.0000
50.0941 10.4635 11.8754 1.0000
50.0941 10.6201 11.8829 1.0000
50.0941 10.7769 11.8905 1.0000
50.0941 11.0910 11.9061 1.0000
50.0941 11.4061 11.9221 1.0000
50.0941 11.5639 11.9303 1.0000
50.0941 11.8802 11.9470 1.0000
50.0941 12.0387 11.9555 1.0000
50.0941 12.3564 11.9730 1.0000
50.0941 12.5156 11.9819 1.0000
50.0941 12.6750 11.9909 1.0000
50.0941 12.8347 12.0000 1.0000
50.0941 12.9946 12.0093 1.0000
50.0941 13.1548 12.0187 1.0000
50.0941 13.3152 12.0282 1.0000
50.0941 -13.2091 12.0219 1.0000
50.0941 -12.2512 11.9671 1.0000
50.0941 -12.0924 11.9584 1.0000
50.0941 -11.4595 11.9248 1.0000
50.0941 -11.3018 11.9167 1.0000
50.0941 -11.1443 11.9087 1.0000
50.0941 -10.9870 11.9009 1.0000
50.0941 -10.5165 11.8780 1.0000
50.0941 -10.2037 11.8632 1.0000
50.0941 -10.0477 11.8561 1.0000
50.0941 -9.8918 11.8490 1.0000
50.0941 -9.7361 11.8421 1.0000
50.0941 -9.5805 11.8352 1.0000
50.0941 -9.4252 11.8285 1.0000
50.0941 -9.2701 11.8219 1.0000
50.0941 -8.9602 11.8090 1.0000
50.0941 -8.0346 11.7731 1.0000
50.0941 -7.5738 11.7567 1.0000
50.0940 -7.4205 11.7514 1.0000
50.0940 -7.2673 11.7462 1.0000
50.0941 -7.1143 11.7412 1.0000
50.0941 -6.9614 11.7362 1.0000
50.0941 -6.6560 11.7267 1.0000
50.0940 -6.1987 11.7132 1.0000
50.0941 -6.0465 11.7089 1.0000
50.0940 -5.5906 11.6967 1.0000
50.0941 -5.4388 11.6929 1.0000
50.0941 -5.2872 11.6891 1.0000
50.0940 -4.9841 11.6819 1.0000
50.0940 -4.8327 11.6785 1.0000
50.0940 -4.5302 11.6720 1.0000
50.0940 -4.0770 11.6630 1.0000
50.0940 -3.3232 11.6501 1.0000
50.0940 -3.1726 11.6478 1.0000
50.0940 -3.0221 11.6457 1.0000
50.0940 -2.8716 11.6436 1.0000
50.0940 -2.7212 11.6417 1.0000
50.0940 -2.4205 11.6381 1.0000
50.0941 -2.1200 11.6349 1.0000
50.0940 -1.9698 11.6335 1.0000
50.0940 -1.8196 11.6322 1.0000
50.0941 -1.6695 11.6310 1.0000
50.0940 -1.3693 11.6289 1.0000
50.0940 -1.2193 11.6280 1.0000
50.0940 -1.0693 11.6272 1.0000
50.0940 -0.9193 11.6265 1.0000
50.0941 -0.7693 11.6259 1.0000
50.0940 -0.6193 11.6254 1.0000
50.0941 -0.4693 11.6250 1.0000
50.0941 -0.3193 11.6248 1.0000
50.0940 -0.1694 11.6246 1.0000
50.0940 0.2804 11.6247 1.0000
50.0940 0.4304 11.6250 1.0000
50.0940 0.5804 11.6253 1.0000
50.0940 0.8804 11.6263 1.0000
50.0941 1.0304 11.6270 1.0000
50.0940 1.1804 11.6278 1.0000
50.0940 1.3304 11.6286 1.0000
50.0940 1.4805 11.6296 1.0000
50.0941 1.6305 11.6307 1.0000
50.0940 1.7807 11.6319 1.0000
50.0940 2.0811 11.6346 1.0000
50.0940 2.3815 11.6377 1.0000
50.0941 2.5318 11.6394 1.0000
50.0940 2.8326 11.6431 1.0000
50.0941 2.9830 11.6451 1.0000
50.0940 3.4347 11.6518 1.0000
50.0940 3.5854 11.6543 1.0000
50.0940 3.7362 11.6568 1.0000
50.0940 3.8870 11.6595 1.0000
50.0940 4.0379 11.6622 1.0000
50.0940 4.1889 11.6651 1.0000
50.0940 4.3399 11.6681 1.0000
50.0940 4.4910 11.6712 1.0000
50.0940 4.6422 11.6743 1.0000
50.0941 4.7935 11.6776 1.0000
50.0941 4.9449 11.6810 1.0000
50.0941 5.2479 11.6882 1.0000
50.0941 5.3995 11.6919 1.0000
50.0941 5.8551 11.7037 1.0000
50.0941 6.0071 11.7078 1.0000
50.0941 6.3116 11.7164 1.0000
50.0941 6.6164 11.7255 1.0000
50.0941 6.7691 11.7302 1.0000
50.0941 7.0747 11.7399 1.0000
50.0941 7.3808 11.7501 1.0000
50.0941 7.5341 11.7553 1.0000
50.0941 7.8411 11.7661 1.0000
50.0941 8.1486 11.7773 1.0000
50.0941 8.3026 11.7831 1.0000
50.0941 8.4568 11.7890 1.0000
50.0941 8.6110 11.7950 1.0000
50.0941 8.7655 11.8012 1.0000
50.0941 8.9201 11.8074 1.0000
50.0941 9.5403 11.8335 1.0000
50.0941 9.8514 11.8472 1.0000
50.0941 10.0073 11.8542 1.0000
50.0941 10.1633 11.8614 1.0000
50.0941 10.3195 11.8686 1.0000
50.0941 10.6325 11.8835 1.0000
50.0941 10.7893 11.8911 1.0000
50.0941 10.9463 11.8988 1.0000
50.0941 11.1035 11.9067 1.0000
50.0941 11.4186 11.9227 1.0000
50.0941 11.5765 11.9309 1.0000
50.0941 12.0513 11.9562 1.0000
50.0941 13.3279 12.0289 1.0000
50.0941 -13.1963 12.0211 1.0000
50.0941 -12.5569 11.9842 1.0000
50.0941 -12.0798 11.9578 1.0000
50.0941 -11.7629 11.9407 1.0000
50.0941 -11.4469 11.9242 1.0000
50.0941 -10.9746 11.9002 1.0000
50.0941 -10.8175 11.8925 1.0000
50.0941 -10.6607 11.8849 1.0000
50.0941 -10.5041 11.8774 1.0000
50.0941 -10.3476 11.8700 1.0000
50.0941 -10.1914 11.8627 1.0000
50.0941 -9.8795 11.8485 1.0000
50.0941 -9.1027 11.8149 1.0000
50.0941 -8.7933 11.8023 1.0000
50.0941 -8.3303 11.7842 1.0000
50.0941 -8.1762 11.7784 1.0000
50.0941 -8.0224 11.7727 1.0000
50.0941 -7.8687 11.7671 1.0000
50.0941 -7.7151 11.7616 1.0000
50.0941 -7.5617 11.7562 1.0000
50.0940 -7.1022 11.7408 1.0000
50.0941 -6.9493 11.7358 1.0000
50.0940 -6.7965 11.7310 1.0000
50.0940 -6.6439 11.7263 1.0000
50.0940 -6.3389 11.7172 1.0000
50.0940 -6.1866 11.7129 1.0000
50.0941 -6.0345 11.7086 1.0000
50.0941 -5.5786 11.6964 1.0000
50.0940 -5.4268 11.6926 1.0000
50.0940 -4.9721 11.6817 1.0000
50.0940 -4.6694 11.6749 1.0000
50.0940 -4.5182 11.6717 1.0000
50.0940 -4.3671 11.6686 1.0000
50.0940 -4.2160 11.6656 1.0000
50.0940 -4.0651 11.6628 1.0000
50.0940 -3.6126 11.6547 1.0000
50.0940 -3.4619 11.6523 1.0000
50.0940 -3.3112 11.6499 1.0000
50.0940 -3.1606 11.6477 1.0000
50.0940 -2.8597 11.6435 1.0000
50.0940 -2.7093 11.6415 1.0000
50.0940 -2.4086 11.6380 1.0000
50.0941 -2.2583 11.6364 1.0000
50.0941 -2.1081 11.6348 1.0000
50.0941 -1.9579 11.6334 1.0000
50.0940 -1.8077 11.6321 1.0000
50.0940 -1.6576 11.6309 1.0000
50.0941 -1.3574 11.6288 1.0000
50.0941 -1.2074 11.6279 1.0000
50.0941 -0.7573 11.6259 1.0000
50.0940 -0.0075 11.6245 1.0000
50.0940 0.1424 11.6246 1.0000
50.0940 0.5923 11.6253 1.0000
50.0940 1.1923 11.6278 1.0000
50.0941 1.4924 11.6297 1.0000
50.0941 1.9428 11.6333 1.0000
50.0941 2.2432 11.6362 1.0000
50.0940 2.5438 11.6395 1.0000
50.0941 2.9950 11.6453 1.0000
50.0940 3.2961 11.6497 1.0000
50.0940 3.4467 11.6520 1.0000
50.0940 3.8990 11.6597 1.0000
50.0940 4.6542 11.6746 1.0000
50.0941 5.4116 11.6922 1.0000
50.0941 5.7152 11.6999 1.0000
50.0941 6.1713 11.7124 1.0000
50.0941 6.3236 11.7168 1.0000
50.0941 6.4760 11.7213 1.0000
50.0941 6.6286 11.7259 1.0000
50.0941 6.7812 11.7306 1.0000
50.0941 6.9340 11.7354 1.0000
50.0941 7.2398 11.7453 1.0000
50.0941 7.3930 11.7505 1.0000
50.0941 7.8532 11.7665 1.0000
50.0941 8.1608 11.7778 1.0000
50.0941 8.3148 11.7836 1.0000
50.0941 8.4690 11.7895 1.0000
50.0941 8.6233 11.7955 1.0000
50.0941 9.0872 11.8143 1.0000
50.0941 9.2422 11.8207 1.0000
50.0941 9.3973 11.8273 1.0000
50.0941 9.5526 11.8340 1.0000
50.0941 9.7081 11.8408 1.0000
50.0941 9.8637 11.8477 1.0000
50.0941 10.0196 11.8548 1.0000
50.0940 2.5199 10.7498 1.0000
50.0940 2.8207 10.7533 1.0000
50.0941 2.9711 10.7551 1.0000
50.0941 3.1216 10.7571 1.0000
50.0940 3.2722 10.7592 1.0000
50.0941 3.4228 10.7613 1.0000
50.0941 3.5734 10.7635 1.0000
50.0941 3.7242 10.7659 1.0000
50.0941 4.0259 10.7709 1.0000
50.0941 4.3279 10.7763 1.0000
50.0941 4.7815 10.7851 1.0000
50.0941 4.9328 10.7882 1.0000
50.0941 5.3874 10.7982 1.0000
50.0941 5.5391 10.8017 1.0000
50.0941 5.9950 10.8129 1.0000
50.0941 6.1471 10.8168 1.0000
50.0940 6.6043 10.8292 1.0000
50.0941 6.9096 10.8379 1.0000
50.0941 7.2155 10.8471 1.0000
50.0941 7.6753 10.8616 1.0000
50.0941 7.8289 10.8666 1.0000
50.0940 7.9825 10.8717 1.0000
50.0941 8.5988 10.8933 1.0000
50.0941 8.7532 10.8989 1.0000
50.0941 8.9079 10.9047 1.0000
50.0941 9.0626 10.9106 1.0000
50.0941 9.3727 10.9226 1.0000
50.0941 9.5279 10.9287 1.0000
50.0941 9.6834 10.9350 1.0000
50.0941 10.3071 10.9612 1.0000
50.0940 10.9339 10.9890 1.0000
50.0941 11.0911 10.9963 1.0000
50.0940 11.7220 11.0263 1.0000
50.0940 12.0387 11.0420 1.0000
50.0941 12.3564 11.0581 1.0000
50.0940 12.5156 11.0663 1.0000
50.0941 12.8346 11.0831 1.0000
50.0940 12.9946 11.0916 1.0000
50.0940 13.1548 11.1003 1.0000
50.0941 -13.3695 11.1121 1.0000
50.0941 -13.0487 11.0945 1.0000
50.0941 -12.5695 11.0691 1.0000
50.0941 -12.4102 11.0608 1.0000
50.0941 -12.0924 11.0447 1.0000
50.0941 -11.9338 11.0367 1.0000
50.0941 -11.4595 11.0136 1.0000
50.0941 -11.1443 10.9987 1.0000
50.0941 -10.6731 10.9773 1.0000
50.0941 -10.3600 10.9635 1.0000
50.0941 -10.0476 10.9501 1.0000
50.0941 -9.5805 10.9309 1.0000
50.0941 -9.4252 10.9247 1.0000
50.0941 -8.9602 10.9067 1.0000
50.0941 -8.3425 10.8842 1.0000
50.0941 -8.1884 10.8788 1.0000
50.0941 -8.0346 10.8735 1.0000
50.0941 -7.8809 10.8683 1.0000
50.0940 -7.2673 10.8487 1.0000
50.0939 -7.1143 10.8440 1.0000
50.0939 -6.6560 10.8306 1.0000
50.0940 -6.5034 10.8264 1.0000
50.0940 -6.3510 10.8222 1.0000
50.0940 -5.8944 10.8103 1.0000
50.0940 -5.7425 10.8066 1.0000
50.0940 -5.5906 10.8029 1.0000
50.0940 -4.5302 10.7801 1.0000
50.0940 -3.7753 10.7667 1.0000
50.0939 -3.6245 10.7643 1.0000
50.0939 -3.4738 10.7621 1.0000
50.0940 -3.0221 10.7558 1.0000
50.0940 -2.7212 10.7521 1.0000
50.0940 -2.5708 10.7504 1.0000
50.0940 -2.4205 10.7488 1.0000
50.0941 -2.2702 10.7473 1.0000
50.0941 -1.8196 10.7433 1.0000
50.0940 -1.6695 10.7422 1.0000
50.0940 -1.5194 10.7412 1.0000
50.0941 -1.2193 10.7394 1.0000
50.0940 -0.9192 10.7381 1.0000
50.0941 -0.7692 10.7375 1.0000
50.0940 -0.3193 10.7365 1.0000
50.0940 0.1305 10.7363 1.0000
50.0941 0.4304 10.7367 1.0000
50.0941 0.7304 10.7374 1.0000
50.0940 1.0304 10.7385 1.0000
50.0941 1.4805 10.7410 1.0000
50.0941 1.7807 10.7430 1.0000
50.0941 1.9309 10.7442 1.0000
50.0941 2.0810 10.7455 1.0000
50.0940 2.2313 10.7469 1.0000
50.0940 3.2841 10.7593 1.0000
50.0941 3.5854 10.7637 1.0000
50.0941 4.1888 10.7737 1.0000
50.0941 4.3398 10.7765 1.0000
50.0940 4.9448 10.7884 1.0000
50.0940 5.2479 10.7950 1.0000
50.0940 5.5512 10.8020 1.0000
50.0940 6.0071 10.8132 1.0000
50.0940 6.1592 10.8171 1.0000
50.0940 7.0746 10.8428 1.0000
50.0940 7.2277 10.8474 1.0000
50.0941 7.5341 10.8570 1.0000
50.0940 7.6875 10.8620 1.0000
50.0941 7.8411 10.8670 1.0000
50.0941 8.1486 10.8774 1.0000
50.0941 8.3026 10.8827 1.0000
50.0941 8.4567 10.8882 1.0000
50.0940 8.6111 10.8937 1.0000
50.0940 8.9201 10.9052 1.0000
50.0940 9.2299 10.9170 1.0000
50.0940 9.3850 10.9231 1.0000
50.0940 9.5403 10.9292 1.0000
50.0941 9.6957 10.9355 1.0000
50.0940 10.1632 10.9550 1.0000
50.0940 10.3195 10.9617 1.0000
50.0941 10.4759 10.9685 1.0000
50.0940 10.6325 10.9754 1.0000
50.0941 10.7893 10.9825 1.0000
50.0941 10.9463 10.9896 1.0000
50.0941 11.1036 10.9969 1.0000
50.0940 12.2100 11.0506 1.0000
50.0941 12.3690 11.0587 1.0000
50.0940 12.5282 11.0669 1.0000
50.0940 12.8474 11.0837 1.0000
50.0940 13.0073 11.0923 1.0000
50.0941 13.1675 11.1010 1.0000
50.0941 13.3279 11.1098 1.0000
50.0941 -13.3568 11.1114 1.0000
50.0941 -13.1963 11.1026 1.0000
50.0941 -13.0361 11.0939 1.0000
50.0941 -12.7163 11.0768 1.0000
50.0941 -12.5569 11.0684 1.0000
50.0941 -12.3976 11.0602 1.0000
50.0941 -12.0798 11.0440 1.0000
50.0941 -11.9212 11.0361 1.0000
50.0941 -11.7629 11.0283 1.0000
50.0941 -11.4469 11.0130 1.0000
50.0941 -10.9745 10.9909 1.0000
50.0941 -10.8175 10.9838 1.0000
50.0941 -10.6606 10.9767 1.0000
50.0941 -10.5040 10.9698 1.0000
50.0941 -9.7237 10.9367 1.0000
50.0941 -9.4128 10.9242 1.0000
50.0941 -8.9479 10.9062 1.0000
50.0941 -8.6388 10.8948 1.0000
50.0941 -8.4844 10.8892 1.0000
50.0941 -8.3303 10.8837 1.0000
50.0941 -8.1762 10.8784 1.0000
50.0941 -7.7151 10.8629 1.0000
50.0941 -7.5616 10.8579 1.0000
50.0939 -7.2552 10.8483 1.0000
50.0940 -6.9493 10.8391 1.0000
50.0939 -6.4913 10.8260 1.0000
50.0939 -5.8824 10.8100 1.0000
50.0940 -5.5786 10.8026 1.0000
50.0940 -5.2751 10.7956 1.0000
50.0940 -5.1236 10.7923 1.0000
50.0939 -4.9721 10.7890 1.0000
50.0939 -4.8207 10.7859 1.0000
50.0939 -4.5182 10.7798 1.0000
50.0939 -4.0650 10.7716 1.0000
50.0939 -3.9141 10.7690 1.0000
50.0940 -3.6125 10.7641 1.0000
50.0940 -3.4618 10.7619 1.0000
50.0939 -3.3112 10.7597 1.0000
50.0940 -3.0101 10.7556 1.0000
50.0939 -2.8596 10.7537 1.0000
50.0941 -1.9579 10.7445 1.0000
50.0941 -1.8077 10.7433 1.0000
50.0940 -1.6576 10.7421 1.0000
50.0941 -1.3574 10.7402 1.0000
50.0940 -1.0573 10.7387 1.0000
50.0941 -0.7573 10.7375 1.0000
50.0940 0.2923 10.7364 1.0000
50.0940 0.5923 10.7370 1.0000
50.0941 0.7422 10.7374 1.0000
50.0941 1.0423 10.7386 1.0000
50.0941 1.1923 10.7393 1.0000
50.0941 1.3423 10.7401 1.0000
50.0940 1.4924 10.7410 1.0000
50.0941 1.6425 10.7420 1.0000
50.0940 1.9428 10.7443 1.0000
50.0940 2.9950 10.7554 1.0000
50.0941 3.1455 10.7574 1.0000
50.0940 3.2961 10.7595 1.0000
50.0940 3.7482 10.7663 1.0000
50.0941 4.2008 10.7740 1.0000
50.0941 4.3519 10.7767 1.0000
50.0940 5.1083 10.7920 1.0000
50.0940 5.2598 10.7953 1.0000
50.0940 6.0191 10.8135 1.0000
50.0941 6.1713 10.8174 1.0000
50.0941 6.4760 10.8256 1.0000
50.0941 7.0868 10.8432 1.0000
50.0940 7.2398 10.8478 1.0000
50.0940 7.3930 10.8526 1.0000
50.0941 8.6232 10.8942 1.0000
50.0940 8.7778 10.8998 1.0000
50.0941 8.9324 10.9056 1.0000
50.0940 9.2421 10.9175 1.0000
50.0941 9.3973 10.9235 1.0000
50.0941 9.5526 10.9297 1.0000
50.0940 9.8638 10.9424 1.0000
50.0940 2.6703 9.8684 1.0000
50.0940 2.8207 9.8700 1.0000
50.0940 3.1216 9.8735 1.0000
50.0940 3.7243 9.8816 1.0000
50.0940 3.8751 9.8838 1.0000
50.0940 4.1769 9.8886 1.0000
50.0940 4.7815 9.8992 1.0000
50.0940 5.0843 9.9050 1.0000
50.0940 5.3875 9.9112 1.0000
50.0940 5.8430 9.9212 1.0000
50.0940 5.9950 9.9247 1.0000
50.0940 6.4518 9.9358 1.0000
50.0940 6.6043 9.9397 1.0000
50.0940 6.7570 9.9436 1.0000
50.0940 6.9096 9.9477 1.0000
50.0940 7.3687 9.9605 1.0000
50.0940 7.5219 9.9649 1.0000
50.0940 8.1364 9.9835 1.0000
50.0940 8.4445 9.9934 1.0000
50.0940 8.5988 9.9985 1.0000
50.0940 8.9078 10.0090 1.0000
50.0940 9.0626 10.0144 1.0000
50.0940 9.2175 10.0198 1.0000
50.0940 9.3727 10.0254 1.0000
50.0941 9.5280 10.0311 1.0000
50.0941 10.1509 10.0547 1.0000
50.0941 10.4634 10.0671 1.0000
50.0941 10.6201 10.0734 1.0000
50.0941 10.7769 10.0799 1.0000
50.0941 10.9338 10.0864 1.0000
50.0941 11.4061 10.1066 1.0000
50.0941 11.5639 10.1136 1.0000
50.0941 11.7220 10.1206 1.0000
50.0941 11.8802 10.1278 1.0000
50.0941 12.0387 10.1350 1.0000
50.0941 12.3564 10.1498 1.0000
50.0941 12.5155 10.1573 1.0000
50.0941 12.8347 10.1727 1.0000
50.0941 12.9946 10.1806 1.0000
50.0941 13.1548 10.1885 1.0000
50.0940 -13.2090 10.1912 1.0000
50.0941 -12.8888 10.1754 1.0000
50.0941 -12.2512 10.1448 1.0000
50.0940 -11.9338 10.1302 1.0000
50.0941 -11.7755 10.1230 1.0000
50.0941 -11.4595 10.1090 1.0000
50.0941 -11.3018 10.1021 1.0000
50.0941 -10.8300 10.0821 1.0000
50.0940 -9.8918 10.0447 1.0000
50.0940 -9.7361 10.0388 1.0000
50.0941 -9.1150 10.0162 1.0000
50.0940 -8.0346 9.9804 1.0000
50.0941 -7.5738 9.9664 1.0000
50.0939 -7.4205 9.9619 1.0000
50.0939 -7.1143 9.9533 1.0000
50.0939 -6.8086 9.9450 1.0000
50.0939 -6.6559 9.9410 1.0000
50.0939 -6.5034 9.9371 1.0000
50.0939 -6.3510 9.9333 1.0000
50.0939 -6.0465 9.9259 1.0000
50.0939 -5.8944 9.9224 1.0000
50.0939 -5.5906 9.9156 1.0000
50.0939 -4.8327 9.9002 1.0000
50.0939 -4.5302 9.8946 1.0000
50.0939 -4.3791 9.8920 1.0000
50.0939 -4.2280 9.8894 1.0000
50.0939 -4.0770 9.8870 1.0000
50.0939 -3.9261 9.8846 1.0000
50.0939 -3.6245 9.8802 1.0000
50.0939 -3.4738 9.8781 1.0000
50.0939 -3.3232 9.8761 1.0000
50.0939 -3.1726 9.8741 1.0000
50.0939 -2.8716 9.8706 1.0000
50.0940 -2.7212 9.8689 1.0000
50.0940 -2.4205 9.8659 1.0000
50.0940 -2.2702 9.8645 1.0000
50.0940 -1.8196 9.8609 1.0000
50.0940 -1.3693 9.8581 1.0000
50.0940 -1.0692 9.8567 1.0000
50.0940 -0.9192 9.8561 1.0000
50.0940 -0.7692 9.8556 1.0000
50.0940 -0.4693 9.8548 1.0000
50.0940 0.4305 9.8548 1.0000
50.0940 1.3304 9.8579 1.0000
50.0940 1.6306 9.8596 1.0000
50.0940 1.7807 9.8606 1.0000
50.0940 2.3816 9.8655 1.0000
50.0940 2.8326 9.8701 1.0000
50.0940 3.1336 9.8737 1.0000
50.0940 3.4348 9.8775 1.0000
50.0940 3.7362 9.8818 1.0000
50.0940 4.0379 9.8864 1.0000
50.0940 4.6422 9.8966 1.0000
50.0940 4.7935 9.8994 1.0000
50.0940 4.9448 9.9023 1.0000
50.0940 5.2479 9.9083 1.0000
50.0940 5.7031 9.9181 1.0000
50.0940 6.0071 9.9250 1.0000
50.0940 6.1592 9.9286 1.0000
50.0940 6.3115 9.9323 1.0000
50.0940 6.7690 9.9440 1.0000
50.0940 6.9218 9.9480 1.0000
50.0940 7.2277 9.9565 1.0000
50.0940 7.5341 9.9652 1.0000
50.0940 7.6875 9.9698 1.0000
50.0940 7.8410 9.9744 1.0000
50.0940 7.9948 9.9791 1.0000
50.0940 8.1486 9.9839 1.0000
50.0940 8.4567 9.9938 1.0000
50.0941 9.5403 10.0315 1.0000
50.0941 9.6957 10.0373 1.0000
50.0941 9.8514 10.0432 1.0000
50.0941 10.0073 10.0491 1.0000
50.0941 10.3195 10.0613 1.0000
50.0941 10.7893 10.0804 1.0000
50.0941 10.9463 10.0869 1.0000
50.0941 11.1035 10.0936 1.0000
50.0941 11.5764 10.1141 1.0000
50.0941 12.0513 10.1356 1.0000
50.0941 12.5282 10.1579 1.0000
50.0941 12.6877 10.1656 1.0000
50.0941 12.8473 10.1733 1.0000
50.0941 13.0073 10.1812 1.0000
50.0940 -13.3568 10.1987 1.0000
50.0941 -13.0361 10.1826 1.0000
50.0940 -12.7163 10.1670 1.0000
50.0940 -12.5568 10.1593 1.0000
50.0941 -12.2386 10.1443 1.0000
50.0941 -11.7629 10.1225 1.0000
50.0941 -11.4469 10.1084 1.0000
50.0940 -11.1318 10.0948 1.0000
50.0940 -10.8175 10.0816 1.0000
50.0941 -10.5040 10.0687 1.0000
50.0941 -10.3476 10.0625 1.0000
50.0941 -9.8794 10.0442 1.0000
50.0941 -9.4129 10.0269 1.0000
50.0940 -9.2577 10.0213 1.0000
50.0941 -9.1027 10.0158 1.0000
50.0941 -8.9479 10.0104 1.0000
50.0940 -8.7933 10.0051 1.0000
50.0940 -8.6388 9.9999 1.0000
50.0941 -8.4845 9.9948 1.0000
50.0941 -7.8687 9.9752 1.0000
50.0940 -7.7151 9.9706 1.0000
50.0940 -7.5616 9.9661 1.0000
50.0939 -6.9493 9.9488 1.0000
50.0939 -6.7965 9.9447 1.0000
50.0939 -6.4913 9.9368 1.0000
50.0939 -6.1866 9.9293 1.0000
50.0939 -6.0345 9.9256 1.0000
50.0939 -5.8824 9.9221 1.0000
50.0939 -5.7304 9.9187 1.0000
50.0939 -5.5785 9.9153 1.0000
50.0939 -5.4268 9.9121 1.0000
50.0939 -5.2751 9.9089 1.0000
50.0939 -4.9721 9.9028 1.0000
50.0939 -4.8207 9.8999 1.0000
50.0939 -4.6694 9.8971 1.0000
50.0939 -4.5182 9.8944 1.0000
50.0939 -4.2160 9.8892 1.0000
50.0939 -3.4618 9.8779 1.0000
50.0939 -2.5589 9.8673 1.0000
50.0940 -2.4085 9.8658 1.0000
50.0940 -2.1080 9.8631 1.0000
50.0940 -1.8077 9.8608 1.0000
50.0940 -1.5074 9.8589 1.0000
50.0940 -1.3574 9.8580 1.0000
50.0940 -1.0573 9.8566 1.0000
50.0940 -0.9073 9.8560 1.0000
50.0940 -0.3074 9.8546 1.0000
50.0940 -0.1574 9.8545 1.0000
50.0940 -0.0075 9.8544 1.0000
50.0940 0.1424 9.8544 1.0000
50.0940 0.2924 9.8546 1.0000
50.0940 0.4423 9.8548 1.0000
50.0940 0.5923 9.8551 1.0000
50.0940 0.8923 9.8560 1.0000
50.0940 1.1923 9.8572 1.0000
50.0940 1.4924 9.8588 1.0000
50.0940 1.6425 9.8597 1.0000
50.0940 1.9428 9.8618 1.0000
50.0940 2.0930 9.8630 1.0000
50.0940 2.3935 9.8656 1.0000
50.0940 2.6942 9.8686 1.0000
50.0940 3.8990 9.8842 1.0000
50.0940 4.0499 9.8866 1.0000
50.0940 4.3519 9.8915 1.0000
50.0940 4.5030 9.8941 1.0000
50.0940 4.6542 9.8969 1.0000
50.0940 4.8055 9.8996 1.0000
50.0940 5.1084 9.9055 1.0000
50.0940 5.4116 9.9117 1.0000
50.0940 5.8671 9.9218 1.0000
50.0940 6.1713 9.9289 1.0000
50.0940 6.3236 9.9326 1.0000
50.0940 6.6285 9.9403 1.0000
50.0940 6.7812 9.9443 1.0000
50.0940 6.9339 9.9484 1.0000
50.0940 7.0868 9.9525 1.0000
50.0940 7.2398 9.9568 1.0000
50.0940 7.3930 9.9611 1.0000
50.0940 7.8532 9.9748 1.0000
50.0940 8.1608 9.9843 1.0000
50.0940 8.3148 9.9892 1.0000
50.0940 8.4690 9.9943 1.0000
50.0940 8.6233 9.9994 1.0000
50.0940 9.3973 10.0263 1.0000
50.0941 9.8637 10.0436 1.0000
50.0941 10.0196 10.0496 1.0000
50.0940 2.9711 8.9942 1.0000
50.0940 3.7243 9.0032 1.0000
50.0940 4.0259 9.0073 1.0000
50.0940 4.4790 9.0142 1.0000
50.0940 4.6302 9.0167 1.0000
50.0940 4.7815 9.0192 1.0000
50.0940 4.9329 9.0218 1.0000
50.0940 5.0843 9.0245 1.0000
50.0940 5.5392 9.0331 1.0000
50.0940 5.8429 9.0393 1.0000
50.0940 6.2994 9.0491 1.0000
50.0940 6.6043 9.0561 1.0000
50.0940 6.7569 9.0597 1.0000
50.0940 7.2155 9.0711 1.0000
50.0940 7.3686 9.0750 1.0000
50.0940 7.5219 9.0790 1.0000
50.0940 7.6753 9.0832 1.0000
50.0940 8.1364 9.0961 1.0000
50.0940 8.2903 9.1005 1.0000
50.0940 8.4445 9.1051 1.0000
50.0940 8.5988 9.1097 1.0000
50.0940 8.7532 9.1144 1.0000
50.0940 8.9078 9.1192 1.0000
50.0940 9.6834 9.1446 1.0000
50.0940 9.8390 9.1499 1.0000
50.0940 10.1509 9.1609 1.0000
50.0940 10.3071 9.1665 1.0000
50.0940 10.6200 9.1779 1.0000
50.0940 10.9338 9.1898 1.0000
50.0940 11.5639 9.2145 1.0000
50.0940 11.7220 9.2209 1.0000
50.0940 11.8802 9.2274 1.0000
50.0940 12.0387 9.2340 1.0000
50.0940 12.3564 9.2475 1.0000
50.0940 12.5156 9.2544 1.0000
50.0940 12.8347 9.2684 1.0000
50.0940 12.9946 9.2756 1.0000
50.0941 -13.3695 9.2927 1.0000
50.0941 -13.2090 9.2853 1.0000
50.0941 -12.5695 9.2567 1.0000
50.0941 -12.2512 9.2430 1.0000
50.0941 -12.0924 9.2363 1.0000
50.0941 -11.9338 9.2297 1.0000
50.0941 -11.7755 9.2231 1.0000
50.0941 -11.6173 9.2167 1.0000
50.0940 -10.9870 9.1918 1.0000
50.0941 -10.3600 9.1684 1.0000
50.0940 -10.2037 9.1628 1.0000
50.0940 -10.0477 9.1572 1.0000
50.0940 -9.7361 9.1464 1.0000
50.0940 -9.5805 9.1411 1.0000
50.0940 -9.4252 9.1359 1.0000
50.0940 -8.9602 9.1209 1.0000
50.0940 -8.8055 9.1160 1.0000
50.0940 -8.4967 9.1066 1.0000
50.0940 -7.5738 9.0804 1.0000
50.0939 -7.4205 9.0764 1.0000
50.0939 -7.2673 9.0724 1.0000
50.0940 -7.1143 9.0685 1.0000
50.0939 -6.9614 9.0647 1.0000
50.0939 -6.8086 9.0609 1.0000
50.0939 -6.3510 9.0503 1.0000
50.0939 -5.7425 9.0372 1.0000
50.0940 -5.1356 9.0254 1.0000
50.0939 -4.9841 9.0227 1.0000
50.0939 -4.8328 9.0201 1.0000
50.0939 -4.6814 9.0175 1.0000
50.0939 -4.0771 9.0081 1.0000
50.0939 -3.6245 9.0019 1.0000
50.0940 -3.4739 8.9999 1.0000
50.0939 -3.3232 8.9981 1.0000
50.0939 -2.7212 8.9916 1.0000
50.0939 -2.4205 8.9889 1.0000
50.0939 -2.2702 8.9876 1.0000
50.0939 -2.1200 8.9864 1.0000
50.0940 -1.9698 8.9853 1.0000
50.0940 -1.8196 8.9843 1.0000
50.0940 -1.6695 8.9834 1.0000
50.0940 -1.5194 8.9825 1.0000
50.0940 -1.3693 8.9817 1.0000
50.0940 -1.2193 8.9810 1.0000
50.0940 -1.0693 8.9804 1.0000
50.0940 -0.4693 8.9788 1.0000
50.0940 -0.1694 8.9784 1.0000
50.0940 0.1305 8.9784 1.0000
50.0940 0.2805 8.9785 1.0000
50.0940 0.4304 8.9787 1.0000
50.0940 0.5804 8.9790 1.0000
50.0940 1.3304 8.9816 1.0000
50.0940 1.6306 8.9831 1.0000
50.0940 1.7807 8.9841 1.0000
50.0940 2.0811 8.9861 1.0000
50.0940 2.3815 8.9885 1.0000
50.0940 2.6822 8.9913 1.0000
50.0940 2.9831 8.9943 1.0000
50.0940 3.1336 8.9959 1.0000
50.0940 3.2841 8.9977 1.0000
50.0940 3.4348 8.9995 1.0000
50.0940 3.7362 9.0033 1.0000
50.0940 4.4910 9.0144 1.0000
50.0940 4.9448 9.0220 1.0000
50.0940 5.0963 9.0247 1.0000
50.0940 5.2479 9.0275 1.0000
50.0940 5.5512 9.0333 1.0000
50.0940 5.7031 9.0364 1.0000
50.0940 6.1592 9.0460 1.0000
50.0940 6.6164 9.0564 1.0000
50.0940 6.9218 9.0637 1.0000
50.0940 7.3808 9.0753 1.0000
50.0940 7.6875 9.0835 1.0000
50.0940 8.3025 9.1009 1.0000
50.0940 8.9201 9.1196 1.0000
50.0940 9.2298 9.1295 1.0000
50.0940 9.3850 9.1346 1.0000
50.0940 9.5402 9.1398 1.0000
50.0940 10.0072 9.1558 1.0000
50.0940 10.3195 9.1669 1.0000
50.0940 10.4759 9.1726 1.0000
50.0940 10.6325 9.1784 1.0000
50.0940 10.7893 9.1843 1.0000
50.0940 11.2609 9.2024 1.0000
50.0940 11.5764 9.2150 1.0000
50.0940 11.7345 9.2214 1.0000
50.0940 12.2101 9.2413 1.0000
50.0940 12.3690 9.2480 1.0000
50.0940 12.5282 9.2549 1.0000
50.0940 12.6877 9.2619 1.0000
50.0940 12.8474 9.2690 1.0000
50.0940 13.0073 9.2761 1.0000
50.0940 13.1675 9.2834 1.0000
50.0940 13.3279 9.2907 1.0000
50.0941 -13.0361 9.2774 1.0000
50.0941 -12.8761 9.2702 1.0000
50.0941 -12.7164 9.2632 1.0000
50.0941 -12.3976 9.2493 1.0000
50.0941 -12.2386 9.2425 1.0000
50.0941 -11.2893 9.2036 1.0000
50.0940 -10.9746 9.1913 1.0000
50.0940 -10.8175 9.1854 1.0000
50.0940 -10.5041 9.1737 1.0000
50.0941 -10.3476 9.1679 1.0000
50.0940 -10.0353 9.1568 1.0000
50.0940 -9.8794 9.1513 1.0000
50.0940 -9.7238 9.1460 1.0000
50.0940 -9.1027 9.1254 1.0000
50.0940 -8.7933 9.1157 1.0000
50.0940 -8.6388 9.1109 1.0000
50.0940 -8.1762 9.0972 1.0000
50.0940 -8.0223 9.0928 1.0000
50.0940 -7.7151 9.0843 1.0000
50.0939 -7.4084 9.0760 1.0000
50.0939 -7.2552 9.0721 1.0000
50.0939 -7.1021 9.0682 1.0000
50.0939 -6.9493 9.0644 1.0000
50.0939 -6.3389 9.0500 1.0000
50.0939 -6.0344 9.0433 1.0000
50.0940 -5.7304 9.0369 1.0000
50.0939 -4.3671 9.0124 1.0000
50.0939 -4.0650 9.0079 1.0000
50.0939 -3.9142 9.0058 1.0000
50.0939 -3.7634 9.0037 1.0000
50.0939 -3.6126 9.0017 1.0000
50.0939 -3.4619 8.9998 1.0000
50.0939 -3.0101 8.9946 1.0000
50.0939 -2.7093 8.9915 1.0000
50.0940 -2.1080 8.9863 1.0000
50.0940 -1.9579 8.9852 1.0000
50.0940 -1.6575 8.9833 1.0000
50.0940 -1.5075 8.9825 1.0000
50.0940 -1.0573 8.9804 1.0000
50.0940 -0.1575 8.9784 1.0000
50.0940 0.4423 8.9787 1.0000
50.0940 0.8923 8.9798 1.0000
50.0940 1.1923 8.9809 1.0000
50.0940 1.3423 8.9816 1.0000
50.0940 1.6425 8.9832 1.0000
50.0940 1.7926 8.9841 1.0000
50.0940 1.9428 8.9851 1.0000
50.0940 2.5438 8.9900 1.0000
50.0940 2.6941 8.9914 1.0000
50.0940 2.9950 8.9944 1.0000
50.0940 3.1455 8.9961 1.0000
50.0940 3.2961 8.9978 1.0000
50.0940 3.5974 9.0015 1.0000
50.0940 3.7482 9.0035 1.0000
50.0940 3.8989 9.0055 1.0000
50.0940 4.2008 9.0099 1.0000
50.0940 4.5030 9.0146 1.0000
50.0940 4.8055 9.0196 1.0000
50.0940 4.9569 9.0222 1.0000
50.0940 5.2599 9.0278 1.0000
50.0940 5.5633 9.0336 1.0000
50.0940 5.7151 9.0366 1.0000
50.0940 6.0191 9.0430 1.0000
50.0940 6.1713 9.0463 1.0000
50.0940 6.3236 9.0496 1.0000
50.0940 6.6285 9.0567 1.0000
50.0940 6.9339 9.0640 1.0000
50.0940 7.2398 9.0717 1.0000
50.0940 7.5462 9.0797 1.0000
50.0940 7.6996 9.0838 1.0000
50.0940 8.1607 9.0968 1.0000
50.0940 8.4689 9.1058 1.0000
50.0940 8.7777 9.1152 1.0000
50.0940 9.0871 9.1249 1.0000
50.0940 9.2421 9.1299 1.0000
50.0940 9.5526 9.1402 1.0000
50.0940 9.8637 9.1508 1.0000
50.0940 10.0196 9.1562 1.0000
50.0939 2.8207 8.1205 1.0000
50.0939 2.9712 8.1219 1.0000
50.0939 3.1216 8.1234 1.0000
50.0939 3.2722 8.1249 1.0000
50.0940 3.4228 8.1266 1.0000
50.0939 3.5735 8.1283 1.0000
50.0940 3.7242 8.1300 1.0000
50.0940 3.8750 8.1319 1.0000
50.0940 4.1769 8.1358 1.0000
50.0939 4.3279 8.1379 1.0000
50.0940 4.4790 8.1400 1.0000
50.0939 4.6302 8.1422 1.0000
50.0940 5.0843 8.1493 1.0000
50.0939 5.2359 8.1518 1.0000
50.0939 5.3875 8.1544 1.0000
50.0940 5.6910 8.1598 1.0000
50.0939 5.8430 8.1626 1.0000
50.0940 5.9950 8.1655 1.0000
50.0940 6.1471 8.1685 1.0000
50.0939 6.4518 8.1746 1.0000
50.0939 6.6043 8.1778 1.0000
50.0940 6.7569 8.1811 1.0000
50.0940 6.9096 8.1844 1.0000
50.0940 7.2155 8.1913 1.0000
50.0940 7.3686 8.1949 1.0000
50.0940 7.5219 8.1985 1.0000
50.0940 7.6753 8.2023 1.0000
50.0940 7.8288 8.2061 1.0000
50.0939 7.9825 8.2099 1.0000
50.0940 8.1363 8.2139 1.0000
50.0940 8.5988 8.2262 1.0000
50.0940 8.7532 8.2305 1.0000
50.0939 9.2175 8.2438 1.0000
50.0939 9.5279 8.2530 1.0000
50.0940 9.6834 8.2577 1.0000
50.0939 9.8390 8.2626 1.0000
50.0939 10.1509 8.2724 1.0000
50.0939 10.9338 8.2985 1.0000
50.0939 11.2484 8.3095 1.0000
50.0939 11.7220 8.3267 1.0000
50.0939 11.8802 8.3325 1.0000
50.0939 12.0387 8.3385 1.0000
50.0939 12.1974 8.3445 1.0000
50.0939 12.5155 8.3569 1.0000
50.0939 12.8346 8.3695 1.0000
50.0941 -13.3695 8.3914 1.0000
50.0940 -13.2090 8.3848 1.0000
50.0940 -13.0488 8.3782 1.0000
50.0940 -12.5695 8.3590 1.0000
50.0940 -12.4102 8.3528 1.0000
50.0940 -11.6173 8.3228 1.0000
50.0940 -11.3018 8.3114 1.0000
50.0940 -11.1443 8.3059 1.0000
50.0940 -10.9870 8.3004 1.0000
50.0940 -10.8300 8.2950 1.0000
50.0940 -10.5164 8.2844 1.0000
50.0940 -10.3600 8.2792 1.0000
50.0940 -9.8918 8.2642 1.0000
50.0940 -9.5805 8.2546 1.0000
50.0940 -9.4252 8.2499 1.0000
50.0940 -9.2700 8.2453 1.0000
50.0940 -8.8055 8.2320 1.0000
50.0940 -8.6510 8.2277 1.0000
50.0940 -8.1885 8.2153 1.0000
50.0940 -7.8808 8.2074 1.0000
50.0940 -7.7273 8.2036 1.0000
50.0939 -7.2673 8.1925 1.0000
50.0939 -7.1143 8.1890 1.0000
50.0939 -6.5034 8.1757 1.0000
50.0939 -5.5906 8.1580 1.0000
50.0939 -5.2871 8.1527 1.0000
50.0939 -5.1356 8.1502 1.0000
50.0939 -4.9841 8.1477 1.0000
50.0939 -4.8327 8.1453 1.0000
50.0939 -4.0770 8.1345 1.0000
50.0939 -3.9261 8.1325 1.0000
50.0939 -3.6245 8.1288 1.0000
50.0939 -3.4738 8.1271 1.0000
50.0939 -3.1725 8.1239 1.0000
50.0939 -3.0221 8.1224 1.0000
50.0939 -2.8716 8.1210 1.0000
50.0939 -2.4205 8.1171 1.0000
50.0939 -1.9698 8.1139 1.0000
50.0939 -1.8196 8.1130 1.0000
50.0939 -1.6695 8.1122 1.0000
50.0939 -1.5194 8.1114 1.0000
50.0939 -1.2192 8.1101 1.0000
50.0939 -0.9192 8.1090 1.0000
50.0939 -0.7692 8.1086 1.0000
50.0939 -0.6192 8.1083 1.0000
50.0939 -0.4693 8.1080 1.0000
50.0939 -0.3193 8.1078 1.0000
50.0939 -0.1694 8.1077 1.0000
50.0939 -0.0194 8.1077 1.0000
50.0939 0.1305 8.1077 1.0000
50.0939 0.2805 8.1078 1.0000
50.0939 1.1804 8.1099 1.0000
50.0939 1.6306 8.1120 1.0000
50.0939 1.7807 8.1128 1.0000
50.0939 2.0810 8.1147 1.0000
50.0940 2.2313 8.1157 1.0000
50.0939 2.5319 8.1180 1.0000
50.0939 2.6822 8.1193 1.0000
50.0939 2.8326 8.1206 1.0000
50.0939 2.9830 8.1220 1.0000
50.0939 3.1336 8.1235 1.0000
50.0939 3.2841 8.1251 1.0000
50.0940 4.0379 8.1340 1.0000
50.0940 4.1889 8.1360 1.0000
50.0940 4.3399 8.1380 1.0000
50.0939 4.4910 8.1402 1.0000
50.0940 5.0963 8.1495 1.0000
50.0939 5.3995 8.1546 1.0000
50.0940 5.8550 8.1629 1.0000
50.0939 6.4639 8.1749 1.0000
50.0940 6.6164 8.1781 1.0000
50.0940 6.7690 8.1813 1.0000
50.0939 6.9218 8.1847 1.0000
50.0940 7.0746 8.1881 1.0000
50.0939 7.2277 8.1916 1.0000
50.0940 7.5341 8.1988 1.0000
50.0940 7.6874 8.2026 1.0000
50.0940 8.1486 8.2142 1.0000
50.0940 8.4567 8.2224 1.0000
50.0940 8.6110 8.2266 1.0000
50.0939 8.7655 8.2308 1.0000
50.0940 8.9201 8.2352 1.0000
50.0939 9.0748 8.2396 1.0000
50.0940 9.2298 8.2441 1.0000
50.0939 9.3849 8.2487 1.0000
50.0940 9.5402 8.2534 1.0000
50.0939 10.1632 8.2728 1.0000
50.0940 10.3195 8.2779 1.0000
50.0940 10.4759 8.2831 1.0000
50.0940 10.7893 8.2936 1.0000
50.0939 11.4186 8.3156 1.0000
50.0939 11.5764 8.3213 1.0000
50.0939 12.0512 8.3390 1.0000
50.0939 12.2100 8.3450 1.0000
50.0939 12.3690 8.3512 1.0000
50.0939 12.5282 8.3574 1.0000
50.0940 13.1675 8.3831 1.0000
50.0940 -13.3567 8.3909 1.0000
50.0940 -13.0361 8.3777 1.0000
50.0940 -12.7164 8.3648 1.0000
50.0940 -12.5569 8.3585 1.0000
50.0940 -12.3976 8.3523 1.0000
50.0940 -12.2386 8.3461 1.0000
50.0940 -12.0798 8.3401 1.0000
50.0940 -11.9212 8.3341 1.0000
50.0940 -11.4469 8.3166 1.0000
50.0940 -11.2893 8.3110 1.0000
50.0940 -10.9746 8.2999 1.0000
50.0940 -10.8175 8.2945 1.0000
50.0940 -10.6607 8.2892 1.0000
50.0940 -10.0353 8.2688 1.0000
50.0940 -9.8794 8.2638 1.0000
50.0940 -9.7237 8.2590 1.0000
50.0940 -9.5682 8.2542 1.0000
50.0940 -9.2577 8.2450 1.0000
50.0940 -8.9479 8.2360 1.0000
50.0940 -8.7932 8.2316 1.0000
50.0940 -8.4845 8.2231 1.0000
50.0940 -8.0224 8.2110 1.0000
50.0939 -7.4083 8.1958 1.0000
50.0939 -6.9493 8.1853 1.0000
50.0939 -6.3389 8.1723 1.0000
50.0939 -6.1866 8.1692 1.0000
50.0939 -5.7304 8.1605 1.0000
50.0939 -5.5785 8.1578 1.0000
50.0939 -5.1236 8.1500 1.0000
50.0939 -4.9721 8.1475 1.0000
50.0939 -3.6125 8.1287 1.0000
50.0939 -3.4618 8.1270 1.0000
50.0939 -3.3112 8.1253 1.0000
50.0939 -3.1606 8.1238 1.0000
50.0939 -3.0101 8.1223 1.0000
50.0939 -2.7093 8.1195 1.0000
50.0939 -2.5589 8.1182 1.0000
50.0939 -2.4086 8.1170 1.0000
50.0939 -1.8077 8.1129 1.0000
50.0939 -1.6576 8.1121 1.0000
50.0939 -1.5074 8.1113 1.0000
50.0939 -1.3574 8.1106 1.0000
50.0939 -1.2073 8.1100 1.0000
50.0940 -0.7573 8.1086 1.0000
50.0939 -0.6073 8.1083 1.0000
50.0940 -0.1575 8.1077 1.0000
50.0939 -0.0075 8.1077 1.0000
50.0939 0.4423 8.1080 1.0000
50.0939 0.7423 8.1085 1.0000
50.0939 1.3423 8.1106 1.0000
50.0939 1.6425 8.1120 1.0000
50.0939 1.7926 8.1128 1.0000
50.0939 1.9428 8.1138 1.0000
50.0939 2.0930 8.1147 1.0000
50.0939 2.2432 8.1158 1.0000
50.0939 2.3935 8.1169 1.0000
50.0939 2.6941 8.1194 1.0000
50.0939 3.1455 8.1236 1.0000
50.0939 3.2961 8.1252 1.0000
50.0940 3.7481 8.1303 1.0000
50.0940 4.0498 8.1341 1.0000
50.0940 4.3519 8.1382 1.0000
50.0940 4.5030 8.1403 1.0000
50.0940 4.6542 8.1426 1.0000
50.0940 4.8055 8.1449 1.0000
50.0940 4.9569 8.1473 1.0000
50.0940 5.1083 8.1497 1.0000
50.0940 5.2598 8.1522 1.0000
50.0939 5.4115 8.1548 1.0000
50.0940 5.5633 8.1575 1.0000
50.0940 5.7151 8.1603 1.0000
50.0940 6.0191 8.1660 1.0000
50.0940 6.3236 8.1720 1.0000
50.0940 6.4760 8.1751 1.0000
50.0940 6.9339 8.1850 1.0000
50.0940 7.0868 8.1884 1.0000
50.0940 7.2398 8.1919 1.0000
50.0940 7.3929 8.1955 1.0000
50.0940 7.5462 8.1991 1.0000
50.0940 7.8532 8.2067 1.0000
50.0940 8.0069 8.2106 1.0000
50.0939 8.1608 8.2145 1.0000
50.0940 8.3148 8.2186 1.0000
50.0940 8.6232 8.2269 1.0000
50.0940 8.7777 8.2312 1.0000
50.0939 8.9323 8.2355 1.0000
50.0940 9.2421 8.2445 1.0000
50.0940 9.3973 8.2491 1.0000
50.0940 9.5526 8.2538 1.0000
50.0940 2.9711 7.2544 1.0000
50.0940 3.1216 7.2557 1.0000
50.0940 3.4228 7.2586 1.0000
50.0940 3.5735 7.2601 1.0000
50.0940 3.8750 7.2633 1.0000
50.0940 4.0259 7.2650 1.0000
50.0940 4.1768 7.2668 1.0000
50.0940 4.3279 7.2687 1.0000
50.0940 4.6302 7.2725 1.0000
50.0939 4.7815 7.2746 1.0000
50.0940 4.9328 7.2767 1.0000
50.0940 5.0843 7.2789 1.0000
50.0940 5.2358 7.2811 1.0000
50.0940 5.3875 7.2834 1.0000
50.0939 5.5392 7.2858 1.0000
50.0939 5.6910 7.2883 1.0000
50.0940 6.1471 7.2960 1.0000
50.0939 6.2994 7.2987 1.0000
50.0940 6.4518 7.3015 1.0000
50.0940 6.6043 7.3043 1.0000
50.0940 6.7569 7.3073 1.0000
50.0939 6.9096 7.3102 1.0000
50.0939 7.2155 7.3164 1.0000
50.0939 7.5219 7.3229 1.0000
50.0940 7.8288 7.3296 1.0000
50.0940 7.9825 7.3330 1.0000
50.0940 8.2903 7.3402 1.0000
50.0940 8.4444 7.3439 1.0000
50.0940 9.2175 7.3633 1.0000
50.0940 9.3726 7.3673 1.0000
50.0939 9.6834 7.3757 1.0000
50.0939 9.8390 7.3800 1.0000
50.0940 10.3071 7.3934 1.0000
50.0939 11.0910 7.4170 1.0000
50.0939 11.2484 7.4220 1.0000
50.0939 11.5639 7.4321 1.0000
50.0940 11.8802 7.4425 1.0000
50.0939 12.0387 7.4479 1.0000
50.0940 12.1974 7.4533 1.0000
50.0939 12.9946 7.4814 1.0000
50.0940 13.1547 7.4872 1.0000
50.0940 13.3151 7.4931 1.0000
50.0940 -13.2090 7.4892 1.0000
50.0940 -12.8888 7.4775 1.0000
50.0940 -12.7291 7.4718 1.0000
50.0940 -12.2512 7.4551 1.0000
50.0940 -11.9338 7.4443 1.0000
50.0940 -11.7755 7.4391 1.0000
50.0940 -11.4595 7.4287 1.0000
50.0940 -11.3018 7.4237 1.0000
50.0940 -10.9870 7.4138 1.0000
50.0940 -10.8300 7.4090 1.0000
50.0940 -10.6731 7.4042 1.0000
50.0940 -10.2037 7.3904 1.0000
50.0940 -9.8918 7.3815 1.0000
50.0940 -9.7361 7.3772 1.0000
50.0940 -9.5805 7.3729 1.0000
50.0940 -8.4967 7.3451 1.0000
50.0940 -8.3425 7.3414 1.0000
50.0940 -8.1885 7.3378 1.0000
50.0940 -8.0346 7.3342 1.0000
50.0939 -7.4205 7.3207 1.0000
50.0939 -7.2673 7.3175 1.0000
50.0939 -6.9614 7.3113 1.0000
50.0939 -6.5034 7.3024 1.0000
50.0939 -6.3510 7.2996 1.0000
50.0939 -6.0465 7.2942 1.0000
50.0939 -5.8944 7.2916 1.0000
50.0939 -5.7425 7.2891 1.0000
50.0939 -5.5906 7.2866 1.0000
50.0939 -5.1356 7.2796 1.0000
50.0939 -4.8327 7.2753 1.0000
50.0939 -4.6814 7.2732 1.0000
50.0939 -4.5302 7.2712 1.0000
50.0939 -4.3791 7.2693 1.0000
50.0939 -4.2280 7.2674 1.0000
50.0939 -3.7753 7.2622 1.0000
50.0939 -3.6245 7.2606 1.0000
50.0939 -3.4738 7.2591 1.0000
50.0939 -3.1726 7.2562 1.0000
50.0939 -3.0221 7.2548 1.0000
50.0939 -2.7212 7.2524 1.0000
50.0940 -2.4205 7.2501 1.0000
50.0940 -2.2702 7.2491 1.0000
50.0940 -2.1200 7.2482 1.0000
50.0940 -1.9698 7.2473 1.0000
50.0940 -1.6695 7.2457 1.0000
50.0940 -0.9192 7.2429 1.0000
50.0940 -0.7693 7.2425 1.0000
50.0940 -0.6193 7.2422 1.0000
50.0940 -0.1694 7.2417 1.0000
50.0940 0.1305 7.2417 1.0000
50.0940 0.7304 7.2424 1.0000
50.0940 0.8804 7.2428 1.0000
50.0940 1.0303 7.2432 1.0000
50.0940 1.3304 7.2442 1.0000
50.0940 1.7807 7.2462 1.0000
50.0940 1.9309 7.2471 1.0000
50.0940 2.0811 7.2479 1.0000
50.0940 2.2312 7.2489 1.0000
50.0940 2.3815 7.2499 1.0000
50.0940 3.1336 7.2558 1.0000
50.0940 3.4347 7.2587 1.0000
50.0940 3.7361 7.2618 1.0000
50.0940 4.0379 7.2652 1.0000
50.0939 4.1889 7.2670 1.0000
50.0940 4.6422 7.2727 1.0000
50.0939 4.9449 7.2769 1.0000
50.0940 5.5512 7.2860 1.0000
50.0940 5.8550 7.2910 1.0000
50.0940 6.3114 7.2989 1.0000
50.0939 6.4639 7.3017 1.0000
50.0940 6.7690 7.3075 1.0000
50.0940 6.9218 7.3105 1.0000
50.0940 7.6875 7.3265 1.0000
50.0940 7.8410 7.3299 1.0000
50.0939 8.3025 7.3405 1.0000
50.0940 8.6110 7.3479 1.0000
50.0940 8.7654 7.3517 1.0000
50.0940 8.9200 7.3556 1.0000
50.0940 9.8514 7.3804 1.0000
50.0940 10.1632 7.3892 1.0000
50.0940 10.3195 7.3937 1.0000
50.0940 10.4758 7.3983 1.0000
50.0939 10.6325 7.4030 1.0000
50.0940 10.7893 7.4077 1.0000
50.0939 11.2609 7.4224 1.0000
50.0940 11.4186 7.4274 1.0000
50.0940 11.5764 7.4325 1.0000
50.0940 11.7345 7.4377 1.0000
50.0939 11.8928 7.4430 1.0000
50.0940 12.0512 7.4483 1.0000
50.0940 12.2100 7.4537 1.0000
50.0940 12.3689 7.4592 1.0000
50.0939 12.5282 7.4647 1.0000
50.0940 12.6876 7.4703 1.0000
50.0940 13.1674 7.4877 1.0000
50.0940 13.3279 7.4936 1.0000
50.0940 -13.3568 7.4947 1.0000
50.0940 -12.5569 7.4657 1.0000
50.0940 -12.0798 7.4493 1.0000
50.0940 -11.7630 7.4387 1.0000
50.0940 -11.6048 7.4335 1.0000
50.0940 -11.2893 7.4233 1.0000
50.0940 -10.5041 7.3992 1.0000
50.0940 -10.3476 7.3946 1.0000
50.0940 -10.0353 7.3856 1.0000
50.0940 -9.8795 7.3812 1.0000
50.0940 -9.7238 7.3768 1.0000
50.0940 -9.5682 7.3726 1.0000
50.0940 -9.4129 7.3684 1.0000
50.0940 -8.9479 7.3563 1.0000
50.0940 -8.7933 7.3524 1.0000
50.0940 -8.4845 7.3448 1.0000
50.0940 -8.3303 7.3411 1.0000
50.0940 -7.8687 7.3305 1.0000
50.0940 -7.7151 7.3271 1.0000
50.0940 -7.5616 7.3237 1.0000
50.0939 -7.4084 7.3204 1.0000
50.0939 -7.2552 7.3172 1.0000
50.0939 -6.6438 7.3051 1.0000
50.0939 -6.4913 7.3022 1.0000
50.0939 -5.5785 7.2864 1.0000
50.0939 -5.4268 7.2840 1.0000
50.0939 -5.2751 7.2817 1.0000
50.0939 -5.1236 7.2795 1.0000
50.0939 -4.9721 7.2773 1.0000
50.0939 -4.8207 7.2751 1.0000
50.0939 -4.6694 7.2731 1.0000
50.0939 -4.5182 7.2711 1.0000
50.0939 -4.3671 7.2691 1.0000
50.0939 -3.7633 7.2621 1.0000
50.0939 -3.4619 7.2589 1.0000
50.0939 -3.1607 7.2561 1.0000
50.0939 -3.0102 7.2547 1.0000
50.0939 -2.7093 7.2523 1.0000
50.0939 -2.5589 7.2511 1.0000
50.0940 -2.4086 7.2500 1.0000
50.0940 -2.1081 7.2481 1.0000
50.0940 -1.8077 7.2464 1.0000
50.0940 -1.5075 7.2449 1.0000
50.0940 -1.3575 7.2443 1.0000
50.0940 -1.2074 7.2438 1.0000
50.0940 -0.7573 7.2425 1.0000
50.0940 -0.1575 7.2417 1.0000
50.0940 0.1424 7.2417 1.0000
50.0940 0.2924 7.2418 1.0000
50.0940 0.5923 7.2422 1.0000
50.0940 0.7422 7.2425 1.0000
50.0940 0.8922 7.2428 1.0000
50.0940 1.0422 7.2432 1.0000
50.0940 1.1923 7.2437 1.0000
50.0940 1.3423 7.2443 1.0000
50.0940 1.4924 7.2449 1.0000
50.0940 1.7926 7.2463 1.0000
50.0940 2.0930 7.2480 1.0000
50.0940 2.2432 7.2489 1.0000
50.0940 2.5438 7.2510 1.0000
50.0940 2.8445 7.2533 1.0000
50.0940 3.4467 7.2588 1.0000
50.0940 3.8989 7.2636 1.0000
50.0940 4.0498 7.2653 1.0000
50.0939 4.2008 7.2671 1.0000
50.0940 4.6542 7.2729 1.0000
50.0940 5.2598 7.2815 1.0000
50.0940 5.4115 7.2838 1.0000
50.0940 5.8671 7.2912 1.0000
50.0939 6.0191 7.2938 1.0000
50.0939 6.1713 7.2964 1.0000
50.0940 6.3236 7.2991 1.0000
50.0939 6.7811 7.3077 1.0000
50.0939 6.9339 7.3107 1.0000
50.0940 7.0868 7.3138 1.0000
50.0939 7.2398 7.3169 1.0000
50.0940 7.3929 7.3201 1.0000
50.0939 7.5462 7.3234 1.0000
50.0940 7.6996 7.3267 1.0000
50.0940 7.8532 7.3301 1.0000
50.0939 8.0069 7.3336 1.0000
50.0940 8.6232 7.3482 1.0000
50.0940 8.9323 7.3559 1.0000
50.0940 9.2421 7.3639 1.0000
50.0940 9.3972 7.3680 1.0000
50.0939 9.5526 7.3722 1.0000
50.0940 9.7080 7.3764 1.0000
50.0940 9.8637 7.3807 1.0000
50.0940 10.0196 7.3851 1.0000
50.0939 2.5200 6.3880 1.0000
50.0939 2.8207 6.3900 1.0000
50.0939 3.1216 6.3923 1.0000
50.0939 3.4229 6.3948 1.0000
50.0939 3.7243 6.3975 1.0000
50.0939 4.0260 6.4005 1.0000
50.0939 4.4790 6.4054 1.0000
50.0939 4.6302 6.4071 1.0000
50.0939 5.0843 6.4127 1.0000
50.0939 5.3875 6.4167 1.0000
50.0939 5.6911 6.4210 1.0000
50.0939 6.4518 6.4326 1.0000
50.0939 6.6043 6.4351 1.0000
50.0939 6.7569 6.4377 1.0000
50.0939 7.2155 6.4458 1.0000
50.0939 7.6753 6.4544 1.0000
50.0939 7.8289 6.4574 1.0000
50.0939 7.9825 6.4604 1.0000
50.0939 8.2904 6.4667 1.0000
50.0939 8.4445 6.4699 1.0000
50.0939 8.7532 6.4766 1.0000
50.0939 8.9079 6.4800 1.0000
50.0939 9.0626 6.4835 1.0000
50.0939 9.2175 6.4870 1.0000
50.0939 9.5279 6.4943 1.0000
50.0939 9.8390 6.5018 1.0000
50.0939 10.1509 6.5096 1.0000
50.0939 10.6200 6.5217 1.0000
50.0939 10.9339 6.5301 1.0000
50.0939 11.0910 6.5344 1.0000
50.0939 11.2485 6.5388 1.0000
50.0939 12.0387 6.5616 1.0000
50.0939 12.1974 6.5663 1.0000
50.0939 12.9946 6.5911 1.0000
