ply
format ascii 1.0
element vertex 1598
property float32 x
property float32 y
property float32 z
property float32 I
end_header
50.0941 10.8226 11.8927 1.0000
50.0941 10.9796 11.9005 1.0000
50.0941 11.1370 11.9084 1.0000
50.0941 11.2945 11.9163 1.0000
50.0941 11.6102 11.9327 1.0000
50.0941 12.4031 11.9756 1.0000
50.0941 12.7220 11.9936 1.0000
50.0941 12.8818 12.0027 1.0000
50.0941 13.3627 12.0310 1.0000
50.0941 -13.3220 12.0286 1.0000
50.0941 -13.0013 12.0097 1.0000
50.0941 -12.6817 11.9913 1.0000
50.0941 -12.0452 11.9559 1.0000
50.0941 -11.8866 11.9473 1.0000
50.0941 -11.7283 11.9389 1.0000
50.0941 -11.5702 11.9306 1.0000
50.0941 -11.4123 11.9224 1.0000
50.0941 -11.2546 11.9143 1.0000
50.0941 -11.0972 11.9064 1.0000
50.0941 -10.9400 11.8985 1.0000
50.0941 -10.6261 11.8832 1.0000
50.0941 -10.4695 11.8757 1.0000
50.0941 -10.3130 11.8683 1.0000
50.0941 -9.3783 11.8265 1.0000
50.0941 -9.2231 11.8199 1.0000
50.0941 -9.0681 11.8135 1.0000
50.0941 -8.9133 11.8071 1.0000
50.0941 -8.6041 11.7948 1.0000
50.0941 -8.2956 11.7829 1.0000
50.0941 -7.9877 11.7714 1.0000
50.0940 -7.3737 11.7498 1.0000
50.0940 -7.2205 11.7447 1.0000
50.0940 -7.0674 11.7397 1.0000
50.0941 -6.3041 11.7162 1.0000
50.0941 -5.9996 11.7076 1.0000
50.0940 -5.8475 11.7035 1.0000
50.0940 -5.6955 11.6994 1.0000
50.0940 -5.3919 11.6917 1.0000
50.0941 -5.2402 11.6880 1.0000
50.0940 -5.0886 11.6844 1.0000
50.0940 -4.6344 11.6742 1.0000
50.0940 -4.3320 11.6679 1.0000
50.0940 -4.1809 11.6650 1.0000
50.0940 -4.0300 11.6621 1.0000
50.0940 -3.7282 11.6567 1.0000
50.0940 -3.5774 11.6541 1.0000
50.0940 -3.4267 11.6517 1.0000
50.0940 -3.1254 11.6471 1.0000
50.0940 -2.8244 11.6430 1.0000
50.0941 -2.0726 11.6345 1.0000
50.0940 -1.9224 11.6331 1.0000
50.0941 -1.7722 11.6318 1.0000
50.0940 -1.4719 11.6296 1.0000
50.0941 -1.0217 11.6270 1.0000
50.0941 -0.7216 11.6257 1.0000
50.0941 -0.4216 11.6250 1.0000
50.0940 -0.2715 11.6247 1.0000
50.0940 -0.1216 11.6246 1.0000
50.0941 0.0284 11.6245 1.0000
50.0941 0.4784 11.6251 1.0000
50.0941 0.7784 11.6259 1.0000
50.0940 0.9285 11.6265 1.0000
50.0940 1.0785 11.6272 1.0000
50.0941 1.2286 11.6280 1.0000
50.0940 1.6789 11.6311 1.0000
50.0940 2.1296 11.6350 1.0000
50.0940 2.2798 11.6366 1.0000
50.0940 3.0319 11.6458 1.0000
50.0940 3.1825 11.6480 1.0000
50.0940 3.3331 11.6502 1.0000
50.0940 3.6345 11.6551 1.0000
50.0940 3.7854 11.6577 1.0000
50.0940 4.0871 11.6632 1.0000
50.0940 4.3893 11.6691 1.0000
50.0940 4.5405 11.6722 1.0000
50.0940 4.6918 11.6754 1.0000
50.0941 4.8431 11.6787 1.0000
50.0941 4.9946 11.6822 1.0000
50.0941 5.4494 11.6931 1.0000
50.0941 5.6012 11.6970 1.0000
50.0941 5.9052 11.7050 1.0000
50.0941 6.0573 11.7092 1.0000
50.0941 6.2095 11.7135 1.0000
50.0941 6.3619 11.7179 1.0000
50.0941 6.5144 11.7224 1.0000
50.0941 6.8197 11.7318 1.0000
50.0941 7.1255 11.7416 1.0000
50.0941 7.7386 11.7624 1.0000
50.0941 12.2239 11.0513 1.0000
50.0940 12.3830 11.0594 1.0000
50.0940 12.5423 11.0677 1.0000
50.0941 12.7018 11.0760 1.0000
50.0940 13.3423 11.1106 1.0000
50.0941 -13.0216 11.0931 1.0000
50.0941 -12.7018 11.0760 1.0000
50.0941 -12.5423 11.0677 1.0000
50.0941 -12.0652 11.0433 1.0000
50.0941 -11.9066 11.0354 1.0000
50.0941 -11.7483 11.0276 1.0000
50.0941 -11.4322 11.0123 1.0000
50.0941 -11.2746 11.0048 1.0000
50.0941 -10.9598 10.9902 1.0000
50.0941 -10.8027 10.9831 1.0000
50.0941 -10.6459 10.9760 1.0000
50.0941 -10.4892 10.9691 1.0000
50.0941 -10.0204 10.9490 1.0000
50.0941 -9.8645 10.9425 1.0000
50.0941 -9.7087 10.9361 1.0000
50.0941 -9.5532 10.9298 1.0000
50.0941 -9.2427 10.9175 1.0000
50.0941 -9.0877 10.9115 1.0000
50.0941 -8.9329 10.9056 1.0000
50.0941 -8.4693 10.8886 1.0000
50.0941 -8.3151 10.8832 1.0000
50.0941 -8.1610 10.8778 1.0000
50.0941 -8.0071 10.8726 1.0000
50.0941 -7.8534 10.8674 1.0000
50.0941 -7.6998 10.8624 1.0000
50.0941 -7.5463 10.8574 1.0000
50.0940 -7.0868 10.8432 1.0000
50.0940 -6.7811 10.8342 1.0000
50.0940 -6.6284 10.8298 1.0000
50.0940 -6.4758 10.8256 1.0000
50.0939 -6.1711 10.8174 1.0000
50.0940 -6.0189 10.8135 1.0000
50.0939 -5.5629 10.8023 1.0000
50.0939 -5.4111 10.7987 1.0000
50.0939 -5.2594 10.7953 1.0000
50.0940 -4.2000 10.7739 1.0000
50.0940 -3.8981 10.7687 1.0000
50.0940 -3.5965 10.7639 1.0000
50.0939 -2.9939 10.7554 1.0000
50.0939 -2.8434 10.7536 1.0000
50.0941 -2.6930 10.7518 1.0000
50.0940 -2.5425 10.7501 1.0000
50.0940 -1.6410 10.7420 1.0000
50.0941 -1.3408 10.7401 1.0000
50.0940 -1.1907 10.7393 1.0000
50.0941 -1.0406 10.7386 1.0000
50.0941 -0.7405 10.7374 1.0000
50.0940 -0.5905 10.7370 1.0000
50.0941 -0.1405 10.7363 1.0000
50.0941 0.1594 10.7363 1.0000
50.0940 0.3095 10.7365 1.0000
50.0941 0.4594 10.7367 1.0000
50.0940 0.6095 10.7371 1.0000
50.0940 1.5098 10.7411 1.0000
50.0940 2.1105 10.7458 1.0000
50.0941 2.2608 10.7472 1.0000
50.0941 2.5615 10.7503 1.0000
50.0940 2.8623 10.7538 1.0000
50.0940 3.0129 10.7557 1.0000
50.0940 3.3140 10.7597 1.0000
50.0941 3.4647 10.7619 1.0000
50.0941 3.6154 10.7642 1.0000
50.0941 4.2191 10.7743 1.0000
50.0941 4.3702 10.7770 1.0000
50.0941 4.5213 10.7799 1.0000
50.0941 4.6726 10.7829 1.0000
50.0941 4.8239 10.7859 1.0000
50.0940 5.1269 10.7924 1.0000
50.0941 5.4302 10.7992 1.0000
50.0940 5.5820 10.8027 1.0000
50.0941 5.7339 10.8064 1.0000
50.0941 5.8859 10.8101 1.0000
50.0940 6.1902 10.8179 1.0000
50.0941 6.3425 10.8220 1.0000
50.0940 6.8003 10.8347 1.0000
50.0940 6.9531 10.8392 1.0000
50.0940 7.1060 10.8438 1.0000
50.0941 7.2591 10.8484 1.0000
50.0940 7.4124 10.8532 1.0000
50.0941 7.5657 10.8580 1.0000
50.0940 7.7192 10.8630 1.0000
50.0941 8.4888 10.8893 1.0000
50.0941 8.6432 10.8949 1.0000
50.0941 8.7977 10.9006 1.0000
50.0940 8.9524 10.9064 1.0000
50.0940 9.1073 10.9123 1.0000
50.0941 9.2623 10.9183 1.0000
50.0941 9.4175 10.9243 1.0000
50.0941 9.8841 10.9433 1.0000
50.0941 10.0400 10.9498 1.0000
50.0941 10.1962 10.9564 1.0000
50.0940 10.3525 10.9631 1.0000
50.0940 10.6657 10.9769 1.0000
50.0940 10.9796 10.9911 1.0000
50.0940 11.1370 10.9984 1.0000
50.0941 11.2945 11.0058 1.0000
50.0941 12.0853 11.0443 1.0000
50.0941 12.4032 11.0605 1.0000
50.0941 12.5624 11.0687 1.0000
50.0941 13.0418 11.0942 1.0000
50.0940 13.2021 11.1029 1.0000
50.0941 13.3626 11.1117 1.0000
50.0941 -13.3220 11.1095 1.0000
50.0941 -13.0013 11.0920 1.0000
50.0941 -12.6816 11.0750 1.0000
50.0941 -12.5222 11.0666 1.0000
50.0941 -12.0452 11.0423 1.0000
50.0941 -11.2546 11.0039 1.0000
50.0941 -10.9399 10.9893 1.0000
50.0941 -10.7829 10.9822 1.0000
50.0941 -10.4694 10.9682 1.0000
50.0941 -10.0006 10.9481 1.0000
50.0941 -8.9132 10.9049 1.0000
50.0941 -8.7586 10.8992 1.0000
50.0941 -8.6041 10.8935 1.0000
50.0941 -8.2956 10.8825 1.0000
50.0941 -7.9877 10.8719 1.0000
50.0941 -7.8339 10.8668 1.0000
50.0941 -7.5269 10.8568 1.0000
50.0940 -7.3736 10.8519 1.0000
50.0940 -7.2205 10.8472 1.0000
50.0940 -6.6091 10.8293 1.0000
50.0939 -6.4565 10.8251 1.0000
50.0939 -5.8475 10.8092 1.0000
50.0940 -5.5437 10.8018 1.0000
50.0940 -4.7857 10.7851 1.0000
50.0940 -4.4832 10.7792 1.0000
50.0940 -4.3320 10.7763 1.0000
50.0940 -4.0300 10.7710 1.0000
50.0940 -3.2760 10.7592 1.0000
50.0940 -2.3732 10.7483 1.0000
50.0940 -2.2229 10.7468 1.0000
50.0940 -1.7722 10.7430 1.0000
50.0940 -1.6220 10.7419 1.0000
50.0940 -1.4719 10.7409 1.0000
50.0941 -1.0216 10.7385 1.0000
50.0941 -0.8716 10.7379 1.0000
50.0940 -0.5716 10.7370 1.0000
50.0941 -0.4216 10.7366 1.0000
50.0941 -0.2716 10.7364 1.0000
50.0940 -0.1216 10.7363 1.0000
50.0941 0.3284 10.7365 1.0000
50.0940 0.4784 10.7368 1.0000
50.0941 0.6284 10.7371 1.0000
50.0941 0.9285 10.7381 1.0000
50.0941 1.2286 10.7395 1.0000
50.0940 1.6789 10.7423 1.0000
50.0940 2.1295 10.7460 1.0000
50.0941 2.4302 10.7489 1.0000
50.0940 3.0319 10.7559 1.0000
50.0941 3.1824 10.7579 1.0000
50.0940 3.3331 10.7600 1.0000
50.0940 3.4837 10.7622 1.0000
50.0941 3.6345 10.7645 1.0000
50.0940 4.0872 10.7720 1.0000
50.0940 4.2382 10.7746 1.0000
50.0941 4.5405 10.7803 1.0000
50.0941 5.1461 10.7928 1.0000
50.0940 5.2977 10.7961 1.0000
50.0941 5.4494 10.7996 1.0000
50.0941 5.7531 10.8068 1.0000
50.0940 6.0573 10.8145 1.0000
50.0941 6.2095 10.8184 1.0000
50.0940 6.3619 10.8225 1.0000
50.0941 6.6669 10.8309 1.0000
50.0940 7.1254 10.8443 1.0000
50.0940 7.2785 10.8490 1.0000
50.0941 7.8922 10.8687 1.0000
50.0941 12.7018 10.1663 1.0000
50.0941 13.1818 10.1899 1.0000
50.0940 -13.3423 10.1980 1.0000
50.0941 -13.1818 10.1899 1.0000
50.0941 -13.0216 10.1819 1.0000
50.0940 -12.8616 10.1740 1.0000
50.0941 -12.5423 10.1586 1.0000
50.0940 -12.2240 10.1436 1.0000
50.0941 -11.9066 10.1290 1.0000
50.0941 -11.7483 10.1218 1.0000
50.0941 -10.9598 10.0875 1.0000
50.0940 -10.8027 10.0810 1.0000
50.0940 -10.3327 10.0619 1.0000
50.0941 -10.1764 10.0557 1.0000
50.0940 -9.8645 10.0437 1.0000
50.0940 -9.7087 10.0378 1.0000
50.0941 -9.5532 10.0320 1.0000
50.0940 -9.3979 10.0263 1.0000
50.0941 -9.2427 10.0207 1.0000
50.0940 -8.9329 10.0099 1.0000
50.0941 -8.7782 10.0046 1.0000
50.0940 -8.6237 9.9994 1.0000
50.0941 -8.4693 9.9943 1.0000
50.0940 -8.1611 9.9843 1.0000
50.0941 -7.8534 9.9748 1.0000
50.0939 -7.3930 9.9611 1.0000
50.0939 -6.6284 9.9403 1.0000
50.0939 -6.1711 9.9289 1.0000
50.0939 -6.0188 9.9253 1.0000
50.0939 -5.8667 9.9218 1.0000
50.0939 -5.7148 9.9183 1.0000
50.0939 -5.4111 9.9117 1.0000
50.0939 -5.2594 9.9086 1.0000
50.0939 -4.3511 9.8915 1.0000
50.0939 -4.2000 9.8890 1.0000
50.0939 -3.8981 9.8842 1.0000
50.0939 -3.5965 9.8798 1.0000
50.0939 -3.2951 9.8757 1.0000
50.0939 -3.1445 9.8738 1.0000
50.0939 -2.8434 9.8703 1.0000
50.0939 -2.6930 9.8686 1.0000
50.0939 -2.5425 9.8671 1.0000
50.0940 -2.0916 9.8630 1.0000
50.0940 -1.7912 9.8607 1.0000
50.0940 -1.6410 9.8597 1.0000
50.0940 -1.4909 9.8588 1.0000
50.0940 -1.3407 9.8579 1.0000
50.0940 -1.1907 9.8572 1.0000
50.0940 -0.7405 9.8555 1.0000
50.0940 -0.5905 9.8551 1.0000
50.0940 -0.2905 9.8546 1.0000
50.0940 -0.1405 9.8544 1.0000
50.0940 0.1595 9.8545 1.0000
50.0940 0.6095 9.8551 1.0000
50.0940 0.7595 9.8555 1.0000
50.0940 0.9095 9.8560 1.0000
50.0940 1.3597 9.8580 1.0000
50.0940 1.5098 9.8589 1.0000
50.0940 1.6600 9.8598 1.0000
50.0940 2.2609 9.8644 1.0000
50.0940 2.5616 9.8673 1.0000
50.0940 2.7120 9.8688 1.0000
50.0940 2.8624 9.8705 1.0000
50.0940 3.0129 9.8722 1.0000
50.0940 3.3141 9.8760 1.0000
50.0940 3.4647 9.8779 1.0000
50.0940 3.6155 9.8800 1.0000
50.0940 3.7662 9.8822 1.0000
50.0940 4.0681 9.8869 1.0000
50.0940 4.3702 9.8918 1.0000
50.0940 4.6726 9.8972 1.0000
50.0940 5.1269 9.9059 1.0000
50.0940 5.2785 9.9090 1.0000
50.0940 5.4302 9.9121 1.0000
50.0940 5.5820 9.9154 1.0000
50.0940 5.8859 9.9222 1.0000
50.0940 6.1903 9.9294 1.0000
50.0940 6.3426 9.9331 1.0000
50.0940 6.4951 9.9369 1.0000
50.0940 6.8003 9.9448 1.0000
50.0940 6.9531 9.9489 1.0000
50.0940 7.1061 9.9531 1.0000
50.0940 7.2591 9.9573 1.0000
50.0940 7.4123 9.9617 1.0000
50.0940 7.5657 9.9662 1.0000
50.0940 7.8728 9.9754 1.0000
50.0940 8.0266 9.9801 1.0000
50.0940 8.3345 9.9899 1.0000
50.0940 8.4887 9.9949 1.0000
50.0941 9.4175 10.0270 1.0000
50.0941 9.5729 10.0327 1.0000
50.0941 9.8841 10.0444 1.0000
50.0941 10.0401 10.0504 1.0000
50.0941 10.3525 10.0626 1.0000
50.0941 10.5090 10.0689 1.0000
50.0941 10.9796 10.0883 1.0000
50.0941 11.1369 10.0950 1.0000
50.0941 11.6101 10.1156 1.0000
50.0941 11.7682 10.1227 1.0000
50.0941 11.9266 10.1299 1.0000
50.0941 12.4031 10.1520 1.0000
50.0941 12.8818 10.1750 1.0000
50.0941 13.3626 10.1990 1.0000
50.0940 -13.3220 10.1969 1.0000
50.0941 -13.0013 10.1809 1.0000
50.0940 -12.6816 10.1653 1.0000
50.0940 -12.3629 10.1501 1.0000
50.0941 -12.2039 10.1426 1.0000
50.0941 -11.5702 10.1139 1.0000
50.0940 -11.2546 10.1001 1.0000
50.0941 -10.7829 10.0801 1.0000
50.0941 -10.6261 10.0737 1.0000
50.0941 -10.4694 10.0673 1.0000
50.0940 -10.1567 10.0549 1.0000
50.0941 -9.8448 10.0429 1.0000
50.0941 -9.6891 10.0371 1.0000
50.0941 -9.5336 10.0313 1.0000
50.0940 -9.2230 10.0200 1.0000
50.0940 -9.0681 10.0146 1.0000
50.0940 -8.6041 9.9987 1.0000
50.0940 -8.4498 9.9936 1.0000
50.0940 -7.8340 9.9742 1.0000
50.0940 -7.6804 9.9696 1.0000
50.0941 -7.5270 9.9650 1.0000
50.0939 -7.0674 9.9520 1.0000
50.0939 -6.9145 9.9478 1.0000
50.0939 -6.7617 9.9438 1.0000
50.0939 -6.4565 9.9359 1.0000
50.0939 -6.3041 9.9321 1.0000
50.0939 -5.9996 9.9248 1.0000
50.0939 -5.8475 9.9213 1.0000
50.0939 -5.6955 9.9179 1.0000
50.0939 -5.3919 9.9113 1.0000
50.0939 -5.2402 9.9082 1.0000
50.0939 -4.9371 9.9021 1.0000
50.0939 -4.6344 9.8965 1.0000
50.0939 -4.4832 9.8938 1.0000
50.0939 -4.3320 9.8912 1.0000
50.0939 -4.1809 9.8887 1.0000
50.0939 -3.7282 9.8817 1.0000
50.0939 -3.1254 9.8736 1.0000
50.0939 -2.9748 9.8718 1.0000
50.0939 -2.6739 9.8684 1.0000
50.0940 -2.2228 9.8641 1.0000
50.0940 -2.0726 9.8628 1.0000
50.0940 -1.9223 9.8617 1.0000
50.0940 -1.7721 9.8606 1.0000
50.0940 -1.0216 9.8565 1.0000
50.0940 -0.8716 9.8559 1.0000
50.0940 -0.7216 9.8554 1.0000
50.0940 -0.5715 9.8550 1.0000
50.0940 -0.4215 9.8547 1.0000
50.0940 -0.2715 9.8546 1.0000
50.0940 -0.1216 9.8544 1.0000
50.0940 0.6284 9.8552 1.0000
50.0940 0.7785 9.8556 1.0000
50.0940 0.9285 9.8561 1.0000
50.0940 1.0786 9.8567 1.0000
50.0940 1.2286 9.8574 1.0000
50.0940 1.3787 9.8581 1.0000
50.0940 1.6790 9.8599 1.0000
50.0940 1.8291 9.8610 1.0000
50.0940 2.2799 9.8646 1.0000
50.0940 2.4302 9.8660 1.0000
50.0940 2.5805 9.8675 1.0000
50.0940 2.7310 9.8690 1.0000
50.0940 3.1825 9.8743 1.0000
50.0940 3.3331 9.8762 1.0000
50.0940 3.6345 9.8803 1.0000
50.0940 3.7854 9.8825 1.0000
50.0940 4.0872 9.8872 1.0000
50.0940 4.3893 9.8922 1.0000
50.0940 4.5405 9.8948 1.0000
50.0940 4.8431 9.9004 1.0000
50.0940 5.1461 9.9063 1.0000
50.0940 5.4494 9.9125 1.0000
50.0940 5.6012 9.9158 1.0000
50.0940 5.9052 9.9226 1.0000
50.0940 6.5144 9.9374 1.0000
50.0940 6.6670 9.9413 1.0000
50.0940 7.2785 9.9579 1.0000
50.0940 7.4317 9.9623 1.0000
50.0940 7.5851 9.9667 1.0000
50.0940 7.7386 9.9713 1.0000
50.0940 12.2240 9.2418 1.0000
50.0940 12.3830 9.2486 1.0000
50.0940 12.7018 9.2625 1.0000
50.0940 13.0216 9.2768 1.0000
50.0940 13.1818 9.2840 1.0000
50.0940 13.3423 9.2914 1.0000
50.0941 -13.3423 9.2914 1.0000
50.0941 -13.1818 9.2840 1.0000
50.0941 -12.2240 9.2418 1.0000
50.0941 -11.7483 9.2220 1.0000
50.0941 -11.4323 9.2092 1.0000
50.0940 -11.1171 9.1968 1.0000
50.0940 -10.9598 9.1908 1.0000
50.0940 -10.8027 9.1848 1.0000
50.0940 -10.6459 9.1789 1.0000
50.0940 -10.4892 9.1731 1.0000
50.0940 -9.2427 9.1299 1.0000
50.0940 -9.0877 9.1249 1.0000
50.0940 -8.9328 9.1200 1.0000
50.0940 -8.7782 9.1152 1.0000
50.0940 -8.4693 9.1058 1.0000
50.0940 -8.3151 9.1012 1.0000
50.0940 -8.1611 9.0968 1.0000
50.0940 -7.5463 9.0797 1.0000
50.0939 -7.3930 9.0756 1.0000
50.0939 -7.0868 9.0678 1.0000
50.0939 -6.9339 9.0640 1.0000
50.0939 -6.6284 9.0566 1.0000
50.0939 -6.4758 9.0531 1.0000
50.0939 -6.3234 9.0496 1.0000
50.0940 -6.1711 9.0463 1.0000
50.0939 -6.0189 9.0430 1.0000
50.0939 -5.8668 9.0397 1.0000
50.0939 -5.5629 9.0336 1.0000
50.0939 -5.4111 9.0306 1.0000
50.0939 -5.2594 9.0277 1.0000
50.0939 -4.9563 9.0222 1.0000
50.0939 -4.8049 9.0196 1.0000
50.0939 -4.5023 9.0146 1.0000
50.0939 -4.3512 9.0122 1.0000
50.0939 -4.2001 9.0099 1.0000
50.0939 -3.7472 9.0035 1.0000
50.0939 -3.4457 8.9996 1.0000
50.0939 -3.2950 8.9978 1.0000
50.0939 -3.1445 8.9961 1.0000
50.0939 -2.9939 8.9944 1.0000
50.0939 -2.6930 8.9914 1.0000
50.0939 -2.5425 8.9899 1.0000
50.0939 -2.3922 8.9886 1.0000
50.0939 -2.2419 8.9874 1.0000
50.0940 -2.0916 8.9862 1.0000
50.0940 -1.9414 8.9851 1.0000
50.0940 -1.6410 8.9832 1.0000
50.0940 -1.4909 8.9824 1.0000
50.0940 -1.0406 8.9803 1.0000
50.0940 -0.8906 8.9798 1.0000
50.0940 -0.5905 8.9790 1.0000
50.0940 -0.4405 8.9787 1.0000
50.0940 -0.2905 8.9785 1.0000
50.0940 -0.1405 8.9784 1.0000
50.0940 0.3095 8.9786 1.0000
50.0940 0.6095 8.9791 1.0000
50.0940 0.9095 8.9799 1.0000
50.0940 1.0596 8.9804 1.0000
50.0940 1.3597 8.9817 1.0000
50.0940 1.5098 8.9825 1.0000
50.0940 1.8101 8.9843 1.0000
50.0940 1.9604 8.9853 1.0000
50.0940 2.1105 8.9864 1.0000
50.0940 2.4111 8.9888 1.0000
50.0940 2.7119 8.9915 1.0000
50.0940 3.0129 8.9946 1.0000
50.0940 3.1634 8.9963 1.0000
50.0940 3.3140 8.9980 1.0000
50.0940 3.4647 8.9998 1.0000
50.0940 3.6154 9.0017 1.0000
50.0940 3.9171 9.0058 1.0000
50.0940 4.3702 9.0125 1.0000
50.0940 4.6726 9.0174 1.0000
50.0940 4.8239 9.0199 1.0000
50.0940 5.1269 9.0253 1.0000
50.0940 5.2785 9.0281 1.0000
50.0940 5.4302 9.0310 1.0000
50.0940 5.8859 9.0402 1.0000
50.0940 6.1903 9.0467 1.0000
50.0940 6.4950 9.0535 1.0000
50.0940 6.9531 9.0645 1.0000
50.0940 7.2591 9.0722 1.0000
50.0940 7.4123 9.0761 1.0000
50.0940 7.7191 9.0844 1.0000
50.0940 7.8728 9.0886 1.0000
50.0940 8.0266 9.0929 1.0000
50.0940 8.1804 9.0973 1.0000
50.0940 8.4887 9.1064 1.0000
50.0940 8.6431 9.1111 1.0000
50.0940 8.7977 9.1158 1.0000
50.0940 9.1072 9.1256 1.0000
50.0940 9.2622 9.1306 1.0000
50.0940 9.7284 9.1461 1.0000
50.0940 9.8841 9.1515 1.0000
50.0940 10.0400 9.1569 1.0000
50.0940 10.3525 9.1681 1.0000
50.0940 10.6656 9.1796 1.0000
50.0940 10.8225 9.1855 1.0000
50.0940 11.2945 9.2038 1.0000
50.0940 11.6101 9.2164 1.0000
50.0940 11.9266 9.2294 1.0000
50.0940 12.0852 9.2360 1.0000
50.0940 12.4031 9.2495 1.0000
50.0940 12.5625 9.2564 1.0000
50.0940 12.7220 9.2634 1.0000
50.0940 12.8818 9.2705 1.0000
50.0940 13.0418 9.2777 1.0000
50.0940 13.3627 9.2923 1.0000
50.0941 -12.8414 9.2687 1.0000
50.0941 -12.5222 9.2547 1.0000
50.0941 -12.3629 9.2478 1.0000
50.0941 -12.0452 9.2343 1.0000
50.0941 -11.8866 9.2277 1.0000
50.0941 -11.7283 9.2212 1.0000
50.0940 -11.2546 9.2022 1.0000
50.0940 -10.9399 9.1900 1.0000
50.0941 -10.3130 9.1667 1.0000
50.0940 -10.1567 9.1611 1.0000
50.0940 -10.0007 9.1556 1.0000
50.0941 -9.8448 9.1501 1.0000
50.0940 -9.5336 9.1395 1.0000
50.0941 -9.3783 9.1344 1.0000
50.0940 -9.2231 9.1293 1.0000
50.0940 -8.7586 9.1146 1.0000
50.0940 -8.6041 9.1099 1.0000
50.0940 -8.1416 9.0962 1.0000
50.0940 -7.9877 9.0918 1.0000
50.0940 -7.5269 9.0792 1.0000
50.0940 -7.0675 9.0673 1.0000
50.0940 -6.9145 9.0635 1.0000
50.0939 -6.6091 9.0562 1.0000
50.0939 -6.4565 9.0527 1.0000
50.0939 -6.3041 9.0492 1.0000
50.0939 -6.1518 9.0458 1.0000
50.0940 -5.9996 9.0426 1.0000
50.0939 -5.8475 9.0393 1.0000
50.0939 -5.3919 9.0302 1.0000
50.0939 -4.7857 9.0193 1.0000
50.0939 -4.6344 9.0167 1.0000
50.0939 -4.3321 9.0119 1.0000
50.0939 -4.0300 9.0074 1.0000
50.0939 -3.8790 9.0053 1.0000
50.0939 -3.7282 9.0032 1.0000
50.0939 -3.5774 9.0013 1.0000
50.0939 -3.4267 8.9994 1.0000
50.0939 -3.2760 8.9976 1.0000
50.0939 -2.3732 8.9885 1.0000
50.0939 -2.2229 8.9872 1.0000
50.0940 -2.0726 8.9861 1.0000
50.0940 -1.9224 8.9850 1.0000
50.0940 -0.7215 8.9793 1.0000
50.0940 -0.5715 8.9790 1.0000
50.0940 -0.4215 8.9787 1.0000
50.0940 -0.1216 8.9784 1.0000
50.0940 0.0284 8.9784 1.0000
50.0940 0.1784 8.9784 1.0000
50.0940 0.3284 8.9786 1.0000
50.0940 0.6285 8.9791 1.0000
50.0940 0.7784 8.9795 1.0000
50.0940 0.9285 8.9799 1.0000
50.0940 1.0786 8.9805 1.0000
50.0940 1.2286 8.9811 1.0000
50.0940 1.3787 8.9818 1.0000
50.0940 1.5288 8.9826 1.0000
50.0940 1.6789 8.9834 1.0000
50.0940 1.8291 8.9844 1.0000
50.0940 2.1296 8.9865 1.0000
50.0940 2.4302 8.9889 1.0000
50.0940 2.7310 8.9917 1.0000
50.0940 3.1825 8.9965 1.0000
50.0940 3.9362 9.0061 1.0000
50.0940 4.0872 9.0082 1.0000
50.0940 4.2382 9.0105 1.0000
50.0940 4.3893 9.0128 1.0000
50.0940 4.6918 9.0177 1.0000
50.0940 5.1461 9.0256 1.0000
50.0940 5.2977 9.0285 1.0000
50.0940 5.6012 9.0343 1.0000
50.0940 5.7531 9.0374 1.0000
50.0940 6.2095 9.0471 1.0000
50.0940 6.5143 9.0540 1.0000
50.0940 6.8196 9.0612 1.0000
50.0940 6.9725 9.0649 1.0000
50.0940 7.1254 9.0688 1.0000
50.0940 7.4317 9.0767 1.0000
50.0940 7.5851 9.0807 1.0000
50.0940 7.8922 9.0891 1.0000
50.0939 12.2239 8.3456 1.0000
50.0939 12.3830 8.3517 1.0000
50.0939 12.5423 8.3579 1.0000
50.0939 12.8615 8.3706 1.0000
50.0939 13.0215 8.3771 1.0000
50.0940 13.1818 8.3837 1.0000
50.0940 13.3423 8.3903 1.0000
50.0940 -13.3423 8.3903 1.0000
50.0940 -12.5423 8.3579 1.0000
50.0940 -12.3831 8.3517 1.0000
50.0940 -11.4322 8.3161 1.0000
50.0940 -11.1171 8.3049 1.0000
50.0940 -10.6459 8.2887 1.0000
50.0940 -10.3327 8.2783 1.0000
50.0940 -10.0204 8.2683 1.0000
50.0940 -9.8645 8.2634 1.0000
50.0940 -9.7088 8.2585 1.0000
50.0940 -9.3979 8.2491 1.0000
50.0940 -9.2427 8.2445 1.0000
50.0940 -9.0877 8.2400 1.0000
50.0940 -8.9329 8.2356 1.0000
50.0940 -8.7782 8.2312 1.0000
50.0940 -8.6236 8.2269 1.0000
50.0940 -8.4693 8.2227 1.0000
50.0940 -8.3151 8.2186 1.0000
50.0940 -8.1611 8.2146 1.0000
50.0940 -7.8534 8.2067 1.0000
50.0939 -7.2398 8.1919 1.0000
50.0939 -6.9338 8.1850 1.0000
50.0939 -6.7810 8.1816 1.0000
50.0939 -6.4758 8.1751 1.0000
50.0939 -6.3234 8.1720 1.0000
50.0939 -6.0188 8.1660 1.0000
50.0939 -5.8667 8.1631 1.0000
50.0939 -5.7147 8.1602 1.0000
50.0939 -5.1078 8.1497 1.0000
50.0939 -4.9563 8.1472 1.0000
50.0939 -4.8048 8.1449 1.0000
50.0939 -4.5023 8.1403 1.0000
50.0939 -4.3511 8.1382 1.0000
50.0939 -3.7472 8.1303 1.0000
50.0939 -3.1444 8.1236 1.0000
50.0939 -2.8434 8.1207 1.0000
50.0939 -2.5425 8.1181 1.0000
50.0940 -2.3922 8.1169 1.0000
50.0939 -2.0916 8.1147 1.0000
50.0939 -1.9413 8.1137 1.0000
50.0939 -1.7911 8.1128 1.0000
50.0939 -1.6410 8.1120 1.0000
50.0940 -1.3408 8.1106 1.0000
50.0939 -1.1906 8.1099 1.0000
50.0939 -1.0406 8.1094 1.0000
50.0939 -0.8905 8.1089 1.0000
50.0939 -0.2905 8.1078 1.0000
50.0939 -0.1405 8.1077 1.0000
50.0940 0.0095 8.1077 1.0000
50.0939 0.1595 8.1077 1.0000
50.0939 0.3095 8.1078 1.0000
50.0939 0.7595 8.1086 1.0000
50.0939 0.9095 8.1090 1.0000
50.0939 1.0595 8.1095 1.0000
50.0939 1.3597 8.1106 1.0000
50.0939 1.6600 8.1121 1.0000
50.0939 1.8102 8.1129 1.0000
50.0939 1.9603 8.1139 1.0000
50.0939 2.1105 8.1149 1.0000
50.0939 3.0128 8.1223 1.0000
50.0940 3.4647 8.1270 1.0000
50.0940 3.6155 8.1288 1.0000
50.0940 4.0680 8.1344 1.0000
50.0939 4.2191 8.1364 1.0000
50.0940 4.5213 8.1406 1.0000
50.0940 4.6726 8.1428 1.0000
50.0939 4.9754 8.1476 1.0000
50.0939 5.1269 8.1500 1.0000
50.0940 5.2785 8.1525 1.0000
50.0940 6.1902 8.1693 1.0000
50.0939 6.3426 8.1724 1.0000
50.0940 6.9531 8.1854 1.0000
50.0940 7.4123 8.1959 1.0000
50.0940 7.8727 8.2072 1.0000
50.0940 8.3345 8.2191 1.0000
50.0939 8.4887 8.2232 1.0000
50.0940 8.6431 8.2275 1.0000
50.0940 9.4174 8.2497 1.0000
50.0940 9.7284 8.2591 1.0000
50.0940 10.1961 8.2739 1.0000
50.0940 10.3524 8.2790 1.0000
50.0940 10.6656 8.2894 1.0000
50.0940 10.8225 8.2947 1.0000
50.0939 11.2944 8.3112 1.0000
50.0939 11.6101 8.3226 1.0000
50.0939 11.9266 8.3343 1.0000
50.0939 12.0852 8.3403 1.0000
50.0939 12.2441 8.3463 1.0000
50.0939 12.5624 8.3587 1.0000
50.0940 13.2021 8.3845 1.0000
50.0940 -13.3220 8.3895 1.0000
50.0940 -12.8414 8.3698 1.0000
50.0940 -12.2039 8.3448 1.0000
50.0940 -11.8866 8.3328 1.0000
50.0940 -11.4123 8.3154 1.0000
50.0940 -11.2546 8.3098 1.0000
50.0940 -10.9399 8.2987 1.0000
50.0940 -10.7829 8.2934 1.0000
50.0940 -10.6260 8.2881 1.0000
50.0940 -10.4694 8.2828 1.0000
50.0940 -10.3129 8.2777 1.0000
50.0940 -10.1567 8.2726 1.0000
50.0940 -9.6891 8.2579 1.0000
50.0940 -9.5336 8.2532 1.0000
50.0940 -8.7586 8.2307 1.0000
50.0940 -8.6041 8.2264 1.0000
50.0940 -8.4498 8.2222 1.0000
50.0940 -8.2956 8.2181 1.0000
50.0940 -7.9877 8.2101 1.0000
50.0940 -7.6804 8.2024 1.0000
50.0940 -7.5269 8.1987 1.0000
50.0939 -7.3736 8.1950 1.0000
50.0939 -7.2204 8.1914 1.0000
50.0939 -7.0674 8.1880 1.0000
50.0939 -6.9145 8.1845 1.0000
50.0939 -6.1518 8.1686 1.0000
50.0939 -5.6955 8.1599 1.0000
50.0939 -5.3918 8.1545 1.0000
50.0939 -5.2402 8.1519 1.0000
50.0939 -4.6344 8.1423 1.0000
50.0939 -4.4832 8.1401 1.0000
50.0939 -4.3320 8.1379 1.0000
50.0939 -4.1809 8.1358 1.0000
50.0939 -4.0300 8.1338 1.0000
50.0939 -3.8790 8.1319 1.0000
50.0939 -3.7282 8.1301 1.0000
50.0939 -3.5774 8.1283 1.0000
50.0939 -3.4267 8.1266 1.0000
50.0939 -3.1254 8.1234 1.0000
50.0939 -2.9748 8.1219 1.0000
50.0939 -2.8243 8.1205 1.0000
50.0939 -2.6739 8.1192 1.0000
50.0939 -2.3732 8.1167 1.0000
50.0939 -1.9223 8.1136 1.0000
50.0939 -1.6220 8.1119 1.0000
50.0939 -1.4719 8.1112 1.0000
50.0939 -1.1717 8.1099 1.0000
50.0939 -1.0216 8.1093 1.0000
50.0939 -0.8716 8.1089 1.0000
50.0939 -0.4215 8.1079 1.0000
50.0939 -0.2715 8.1078 1.0000
50.0939 0.3284 8.1078 1.0000
50.0939 0.6284 8.1083 1.0000
50.0939 0.7784 8.1086 1.0000
50.0939 0.9285 8.1090 1.0000
50.0939 1.0785 8.1095 1.0000
50.0939 1.2286 8.1101 1.0000
50.0940 1.8291 8.1131 1.0000
50.0939 2.1296 8.1150 1.0000
50.0939 2.2798 8.1161 1.0000
50.0939 2.7309 8.1197 1.0000
50.0940 4.0872 8.1346 1.0000
50.0940 4.3893 8.1387 1.0000
50.0940 4.5405 8.1409 1.0000
50.0940 4.9945 8.1479 1.0000
50.0939 5.1461 8.1503 1.0000
50.0940 5.2977 8.1529 1.0000
50.0940 5.4494 8.1555 1.0000
50.0940 5.7531 8.1610 1.0000
50.0940 6.0573 8.1667 1.0000
50.0939 6.2095 8.1697 1.0000
50.0940 6.3618 8.1728 1.0000
50.0939 6.5143 8.1759 1.0000
50.0940 6.8196 8.1824 1.0000
50.0940 7.1254 8.1893 1.0000
50.0940 7.2785 8.1928 1.0000
50.0939 7.4317 8.1964 1.0000
50.0940 12.3829 7.4597 1.0000
50.0939 12.8615 7.4766 1.0000
50.0940 13.0215 7.4823 1.0000
50.0940 13.3422 7.4941 1.0000
50.0940 -13.1819 7.4882 1.0000
50.0940 -12.7019 7.4709 1.0000
50.0940 -12.5423 7.4652 1.0000
50.0940 -12.2241 7.4542 1.0000
50.0940 -11.5902 7.4330 1.0000
50.0940 -11.1171 7.4179 1.0000
50.0940 -10.8027 7.4082 1.0000
50.0940 -10.4892 7.3987 1.0000
50.0940 -10.3327 7.3941 1.0000
50.0940 -10.0204 7.3851 1.0000
50.0940 -9.8645 7.3808 1.0000
50.0940 -9.5532 7.3722 1.0000
50.0940 -9.3979 7.3680 1.0000
50.0940 -8.9329 7.3559 1.0000
50.0940 -8.4693 7.3445 1.0000
50.0940 -8.1611 7.3372 1.0000
50.0940 -8.0072 7.3336 1.0000
50.0940 -7.6998 7.3267 1.0000
50.0940 -7.5464 7.3234 1.0000
50.0939 -6.7810 7.3077 1.0000
50.0939 -6.3234 7.2991 1.0000
50.0939 -6.1711 7.2964 1.0000
50.0939 -5.8667 7.2912 1.0000
50.0939 -5.7148 7.2886 1.0000
50.0939 -5.5629 7.2862 1.0000
50.0939 -5.4111 7.2838 1.0000
50.0939 -5.1078 7.2792 1.0000
50.0939 -4.6536 7.2729 1.0000
50.0939 -4.2000 7.2671 1.0000
50.0939 -4.0491 7.2653 1.0000
50.0939 -3.7473 7.2619 1.0000
50.0939 -3.5965 7.2603 1.0000
50.0939 -3.2951 7.2573 1.0000
50.0939 -3.1445 7.2559 1.0000
50.0939 -2.9939 7.2546 1.0000
50.0939 -2.6930 7.2521 1.0000
50.0940 -2.2419 7.2489 1.0000
50.0940 -2.0916 7.2480 1.0000
50.0940 -1.7912 7.2463 1.0000
50.0940 -1.6411 7.2456 1.0000
50.0940 -1.1907 7.2437 1.0000
50.0940 -1.0406 7.2432 1.0000
50.0940 -0.8906 7.2428 1.0000
50.0940 -0.7405 7.2425 1.0000
50.0940 -0.4405 7.2420 1.0000
50.0940 -0.1405 7.2417 1.0000
50.0940 0.1594 7.2417 1.0000
50.0940 0.3094 7.2418 1.0000
50.0940 0.4594 7.2420 1.0000
50.0940 1.0595 7.2433 1.0000
50.0940 1.2096 7.2438 1.0000
50.0940 1.3596 7.2443 1.0000
50.0940 1.6600 7.2457 1.0000
50.0940 1.8101 7.2464 1.0000
50.0940 1.9603 7.2472 1.0000
50.0940 2.2608 7.2490 1.0000
50.0940 2.5615 7.2511 1.0000
50.0940 2.8623 7.2535 1.0000
50.0940 3.0128 7.2548 1.0000
50.0940 3.1634 7.2561 1.0000
50.0940 3.4647 7.2590 1.0000
50.0940 3.6154 7.2605 1.0000
50.0940 3.7662 7.2621 1.0000
50.0940 3.9171 7.2638 1.0000
50.0939 4.0681 7.2655 1.0000
50.0940 4.2191 7.2673 1.0000
50.0940 4.3702 7.2692 1.0000
50.0940 4.6726 7.2731 1.0000
50.0939 4.9754 7.2773 1.0000
50.0939 5.2785 7.2818 1.0000
50.0939 5.5820 7.2865 1.0000
50.0940 6.1902 7.2968 1.0000
50.0940 6.3425 7.2995 1.0000
50.0939 6.6476 7.3052 1.0000
50.0940 6.8003 7.3081 1.0000
50.0940 6.9531 7.3111 1.0000
50.0939 7.1061 7.3142 1.0000
50.0939 7.2591 7.3173 1.0000
50.0940 7.5657 7.3238 1.0000
50.0939 7.7191 7.3272 1.0000
50.0940 7.8728 7.3306 1.0000
50.0940 8.0265 7.3341 1.0000
50.0940 8.1804 7.3376 1.0000
50.0940 8.4887 7.3449 1.0000
50.0940 9.1072 7.3604 1.0000
50.0939 10.0400 7.3857 1.0000
50.0940 10.5089 7.3993 1.0000
50.0940 10.6656 7.4040 1.0000
50.0940 10.8225 7.4088 1.0000
50.0940 11.1369 7.4185 1.0000
50.0940 11.2944 7.4235 1.0000
50.0939 11.6101 7.4336 1.0000
50.0940 12.0852 7.4494 1.0000
50.0939 13.0418 7.4831 1.0000
50.0940 13.2020 7.4890 1.0000
50.0939 13.3626 7.4949 1.0000
50.0940 -13.0014 7.4816 1.0000
50.0940 -12.8414 7.4758 1.0000
50.0940 -12.6817 7.4701 1.0000
50.0940 -12.3630 7.4590 1.0000
50.0940 -11.8866 7.4428 1.0000
50.0940 -11.2546 7.4222 1.0000
50.0940 -11.0972 7.4172 1.0000
50.0940 -10.7829 7.4076 1.0000
50.0940 -10.6261 7.4028 1.0000
50.0940 -10.3130 7.3936 1.0000
50.0940 -10.1567 7.3890 1.0000
50.0940 -10.0007 7.3846 1.0000
50.0940 -9.8448 7.3802 1.0000
50.0940 -9.6891 7.3759 1.0000
50.0940 -9.0681 7.3594 1.0000
50.0940 -8.9133 7.3554 1.0000
50.0940 -8.6041 7.3477 1.0000
50.0940 -8.4498 7.3440 1.0000
50.0940 -7.5270 7.3230 1.0000
50.0939 -7.3736 7.3197 1.0000
50.0939 -7.2205 7.3165 1.0000
50.0939 -6.6091 7.3044 1.0000
50.0939 -6.3041 7.2988 1.0000
50.0939 -5.9996 7.2934 1.0000
50.0939 -5.2402 7.2812 1.0000
50.0939 -4.9371 7.2768 1.0000
50.0939 -4.7857 7.2746 1.0000
50.0939 -4.4832 7.2706 1.0000
50.0939 -4.0299 7.2651 1.0000
50.0939 -3.7282 7.2617 1.0000
50.0939 -3.5773 7.2601 1.0000
50.0939 -3.2760 7.2571 1.0000
50.0939 -3.1254 7.2558 1.0000
50.0939 -2.9748 7.2544 1.0000
50.0939 -2.8244 7.2532 1.0000
50.0939 -2.6739 7.2520 1.0000
50.0940 -2.0726 7.2479 1.0000
50.0940 -1.7721 7.2462 1.0000
50.0940 -1.6220 7.2455 1.0000
50.0940 -1.3218 7.2442 1.0000
50.0940 -1.1717 7.2437 1.0000
50.0940 -1.0216 7.2432 1.0000
50.0940 -0.7216 7.2424 1.0000
50.0940 -0.4215 7.2419 1.0000
50.0940 0.3284 7.2418 1.0000
50.0940 0.4784 7.2420 1.0000
50.0940 0.9285 7.2429 1.0000
50.0940 1.2286 7.2439 1.0000
50.0940 1.5288 7.2450 1.0000
50.0940 1.8291 7.2465 1.0000
50.0940 2.1295 7.2482 1.0000
50.0940 2.2798 7.2492 1.0000
50.0940 2.7309 7.2524 1.0000
50.0940 2.8814 7.2536 1.0000
50.0940 3.0319 7.2549 1.0000
50.0940 3.1825 7.2563 1.0000
50.0940 3.7853 7.2623 1.0000
50.0940 4.0871 7.2657 1.0000
50.0940 4.3893 7.2694 1.0000
50.0940 4.6917 7.2734 1.0000
50.0940 4.8431 7.2754 1.0000
50.0940 5.2976 7.2821 1.0000
50.0939 5.4494 7.2844 1.0000
50.0940 5.9051 7.2918 1.0000
50.0940 6.0572 7.2944 1.0000
50.0940 6.3618 7.2998 1.0000
50.0940 6.6669 7.3055 1.0000
50.0939 7.1254 7.3146 1.0000
50.0940 7.5851 7.3242 1.0000
50.0940 7.7386 7.3276 1.0000
50.0940 7.8922 7.3310 1.0000
50.0939 12.2239 6.5671 1.0000
50.0939 12.3830 6.5719 1.0000
50.0939 12.7018 6.5818 1.0000
50.0939 13.0215 6.5919 1.0000
50.0939 13.1818 6.5971 1.0000
50.0939 13.3423 6.6023 1.0000
50.0940 -13.1818 6.5971 1.0000
50.0940 -12.7019 6.5818 1.0000
50.0940 -12.3831 6.5719 1.0000
50.0940 -11.9067 6.5577 1.0000
50.0940 -11.7483 6.5530 1.0000
50.0940 -11.4323 6.5440 1.0000
50.0940 -11.2746 6.5395 1.0000
50.0940 -10.9598 6.5308 1.0000
50.0940 -10.8028 6.5266 1.0000
50.0940 -10.3327 6.5142 1.0000
50.0940 -10.1765 6.5102 1.0000
50.0940 -9.7088 6.4986 1.0000
50.0940 -9.5532 6.4949 1.0000
50.0940 -9.3979 6.4912 1.0000
50.0940 -8.7782 6.4771 1.0000
50.0940 -8.6237 6.4738 1.0000
50.0940 -8.1611 6.4640 1.0000
50.0940 -7.8534 6.4578 1.0000
50.0940 -7.6998 6.4548 1.0000
50.0939 -6.3234 6.4305 1.0000
50.0939 -6.0188 6.4258 1.0000
50.0939 -5.8667 6.4235 1.0000
50.0939 -5.7147 6.4213 1.0000
50.0939 -5.5629 6.4191 1.0000
50.0939 -5.4111 6.4170 1.0000
50.0939 -4.9563 6.4111 1.0000
50.0939 -4.6536 6.4074 1.0000
50.0939 -4.5023 6.4056 1.0000
50.0939 -4.3511 6.4039 1.0000
50.0939 -4.2000 6.4023 1.0000
50.0939 -4.0490 6.4007 1.0000
50.0939 -3.7472 6.3977 1.0000
50.0939 -3.5964 6.3963 1.0000
50.0939 -3.1444 6.3925 1.0000
50.0939 -2.6929 6.3891 1.0000
50.0939 -2.2419 6.3863 1.0000
50.0939 -2.0916 6.3855 1.0000
50.0939 -1.6410 6.3833 1.0000
50.0939 -1.3407 6.3822 1.0000
50.0939 -1.1907 6.3817 1.0000
50.0939 -1.0406 6.3813 1.0000
50.0939 -0.7405 6.3806 1.0000
50.0939 -0.5905 6.3804 1.0000
50.0939 -0.4405 6.3802 1.0000
50.0939 -0.2905 6.3800 1.0000
50.0939 0.0095 6.3799 1.0000
50.0939 0.1595 6.3799 1.0000
50.0939 0.4595 6.3802 1.0000
50.0939 0.6095 6.3804 1.0000
50.0939 0.7595 6.3807 1.0000
50.0939 0.9095 6.3810 1.0000
50.0939 1.0595 6.3813 1.0000
50.0939 1.6600 6.3834 1.0000
50.0939 1.9604 6.3848 1.0000
50.0939 2.1106 6.3856 1.0000
50.0939 2.2608 6.3864 1.0000
50.0939 2.4112 6.3873 1.0000
50.0939 2.7119 6.3893 1.0000
50.0939 3.0129 6.3914 1.0000
50.0939 3.4647 6.3952 1.0000
50.0939 3.7663 6.3979 1.0000
50.0939 3.9171 6.3994 1.0000
50.0939 4.0681 6.4009 1.0000
50.0939 4.2191 6.4025 1.0000
50.0939 4.3702 6.4041 1.0000
50.0939 4.5214 6.4058 1.0000
50.0939 4.9754 6.4113 1.0000
50.0939 5.1269 6.4132 1.0000
50.0939 5.2785 6.4152 1.0000
50.0939 5.4302 6.4173 1.0000
50.0939 5.8859 6.4238 1.0000
50.0939 6.0380 6.4261 1.0000
50.0939 6.1903 6.4284 1.0000
50.0939 6.3426 6.4308 1.0000
50.0939 6.4950 6.4333 1.0000
50.0939 6.6476 6.4358 1.0000
50.0939 7.1061 6.4438 1.0000
50.0939 7.2591 6.4466 1.0000
50.0939 7.5657 6.4523 1.0000
50.0939 7.7192 6.4552 1.0000
50.0939 7.8728 6.4582 1.0000
50.0939 8.1805 6.4644 1.0000
50.0939 8.3345 6.4676 1.0000
50.0939 8.4887 6.4709 1.0000
50.0939 8.6431 6.4742 1.0000
50.0939 8.7977 6.4776 1.0000
50.0939 8.9524 6.4810 1.0000
50.0939 9.1072 6.4845 1.0000
50.0939 9.8841 6.5029 1.0000
50.0939 10.0400 6.5068 1.0000
50.0939 10.5089 6.5188 1.0000
50.0939 10.6657 6.5229 1.0000
50.0939 10.8225 6.5271 1.0000
50.0939 10.9796 6.5314 1.0000
50.0939 11.1369 6.5357 1.0000
50.0939 11.7682 6.5536 1.0000
50.0939 11.9266 6.5582 1.0000
50.0939 12.4031 6.5726 1.0000
50.0939 12.5625 6.5775 1.0000
50.0939 12.7220 6.5824 1.0000
50.0939 13.0418 6.5926 1.0000
50.0940 -13.0014 6.5913 1.0000
50.0940 -12.8414 6.5862 1.0000
50.0940 -11.7283 6.5524 1.0000
50.0940 -11.5702 6.5479 1.0000
50.0940 -11.4123 6.5434 1.0000
50.0940 -11.2546 6.5390 1.0000
50.0940 -10.9400 6.5303 1.0000
50.0940 -10.6261 6.5219 1.0000
50.0940 -10.0007 6.5058 1.0000
50.0940 -9.6891 6.4982 1.0000
50.0940 -9.5336 6.4944 1.0000
50.0940 -9.3783 6.4908 1.0000
50.0940 -9.2231 6.4872 1.0000
50.0940 -9.0681 6.4836 1.0000
50.0940 -8.9133 6.4801 1.0000
50.0940 -8.1416 6.4636 1.0000
50.0940 -7.8340 6.4575 1.0000
50.0940 -7.6804 6.4545 1.0000
50.0939 -7.2204 6.4458 1.0000
50.0939 -7.0674 6.4431 1.0000
50.0939 -6.1518 6.4278 1.0000
50.0939 -5.9996 6.4255 1.0000
50.0939 -5.6955 6.4210 1.0000
50.0939 -5.5436 6.4189 1.0000
50.0939 -5.3919 6.4168 1.0000
50.0939 -5.0886 6.4127 1.0000
50.0939 -4.7857 6.4090 1.0000
50.0939 -4.6344 6.4072 1.0000
50.0939 -4.0300 6.4005 1.0000
50.0939 -3.5774 6.3962 1.0000
50.0939 -3.4267 6.3948 1.0000
50.0939 -3.1254 6.3923 1.0000
50.0939 -2.8244 6.3900 1.0000
50.0939 -2.6739 6.3890 1.0000
50.0939 -2.5235 6.3880 1.0000
50.0939 -2.3732 6.3871 1.0000
50.0939 -2.0725 6.3854 1.0000
50.0939 -1.7721 6.3839 1.0000
50.0939 -1.6220 6.3833 1.0000
50.0939 -1.3218 6.3821 1.0000
50.0939 -1.1717 6.3817 1.0000
50.0939 -1.0216 6.3812 1.0000
50.0939 -0.8715 6.3809 1.0000
50.0939 -0.7215 6.3806 1.0000
50.0939 -0.5715 6.3803 1.0000
50.0939 -0.4215 6.3801 1.0000
50.0939 -0.1215 6.3799 1.0000
50.0939 0.1784 6.3800 1.0000
50.0939 0.4784 6.3802 1.0000
50.0939 0.6285 6.3804 1.0000
50.0939 0.7784 6.3807 1.0000
50.0939 1.2286 6.3818 1.0000
50.0939 1.3787 6.3823 1.0000
50.0939 1.5288 6.3829 1.0000
50.0939 1.9793 6.3849 1.0000
50.0939 2.1296 6.3857 1.0000
50.0939 2.2798 6.3865 1.0000
50.0939 2.7310 6.3894 1.0000
50.0939 3.0319 6.3916 1.0000
50.0939 3.7854 6.3981 1.0000
50.0939 3.9362 6.3996 1.0000
50.0939 4.0872 6.4011 1.0000
50.0939 4.2382 6.4027 1.0000
50.0939 4.5405 6.4061 1.0000
50.0939 4.8431 6.4097 1.0000
50.0939 4.9946 6.4116 1.0000
50.0939 5.2977 6.4155 1.0000
50.0939 5.4494 6.4176 1.0000
50.0939 5.7532 6.4218 1.0000
50.0939 5.9052 6.4241 1.0000
50.0939 6.0573 6.4264 1.0000
50.0939 6.2095 6.4287 1.0000
50.0939 6.3619 6.4312 1.0000
50.0939 6.8196 6.4388 1.0000
50.0939 6.9725 6.4414 1.0000
50.0939 7.1254 6.4441 1.0000
50.0939 7.4318 6.4497 1.0000
50.0939 7.7386 6.4556 1.0000
50.0939 7.8922 6.4586 1.0000
50.0939 12.2239 5.6839 1.0000
50.0939 12.3830 5.6881 1.0000
50.0939 12.7018 5.6966 1.0000
50.0939 12.8615 5.7009 1.0000
50.0939 13.0215 5.7054 1.0000
50.0939 -13.0216 5.7054 1.0000
50.0939 -12.5423 5.6923 1.0000
50.0940 -12.2240 5.6839 1.0000
50.0940 -11.4323 5.6638 1.0000
50.0939 -11.2745 5.6600 1.0000
50.0940 -11.1171 5.6562 1.0000
50.0940 -10.8027 5.6488 1.0000
50.0940 -10.4892 5.6416 1.0000
50.0940 -10.3328 5.6381 1.0000
50.0940 -10.1765 5.6347 1.0000
50.0940 -9.7088 5.6246 1.0000
50.0940 -9.5532 5.6214 1.0000
50.0939 -8.7782 5.6060 1.0000
50.0939 -8.6236 5.6031 1.0000
50.0940 -8.1611 5.5947 1.0000
50.0940 -7.8534 5.5893 1.0000
50.0939 -7.3930 5.5817 1.0000
50.0939 -7.2398 5.5792 1.0000
50.0939 -7.0868 5.5768 1.0000
50.0939 -6.9339 5.5745 1.0000
50.0939 -6.6284 5.5700 1.0000
50.0939 -6.4758 5.5678 1.0000
50.0939 -6.0188 5.5616 1.0000
50.0939 -5.7147 5.5577 1.0000
50.0939 -5.2594 5.5522 1.0000
50.0939 -5.1078 5.5505 1.0000
50.0939 -4.9563 5.5488 1.0000
50.0939 -4.3511 5.5426 1.0000
50.0939 -4.2000 5.5412 1.0000
50.0939 -4.0491 5.5399 1.0000
50.0939 -3.4457 5.5349 1.0000
50.0939 -3.2950 5.5338 1.0000
50.0939 -3.1444 5.5327 1.0000
50.0939 -2.9939 5.5317 1.0000
50.0939 -2.8434 5.5307 1.0000
50.0939 -2.6929 5.5298 1.0000
50.0939 -2.3921 5.5281 1.0000
50.0939 -1.7912 5.5254 1.0000
50.0939 -1.4909 5.5243 1.0000
50.0939 -1.3408 5.5238 1.0000
50.0939 -1.1907 5.5234 1.0000
50.0939 -0.7405 5.5225 1.0000
50.0939 -0.4405 5.5221 1.0000
50.0939 -0.2905 5.5219 1.0000
50.0939 0.0095 5.5219 1.0000
50.0939 0.3095 5.5220 1.0000
50.0939 0.4595 5.5221 1.0000
50.0939 0.6095 5.5223 1.0000
50.0939 1.2096 5.5235 1.0000
50.0939 1.3597 5.5239 1.0000
50.0939 1.6599 5.5249 1.0000
50.0939 1.8101 5.5255 1.0000
50.0939 1.9603 5.5261 1.0000
50.0939 2.4111 5.5282 1.0000
50.0939 2.5615 5.5291 1.0000
50.0939 2.8623 5.5309 1.0000
50.0939 3.0129 5.5318 1.0000
50.0939 3.1634 5.5329 1.0000
50.0939 3.4647 5.5350 1.0000
50.0939 3.6155 5.5362 1.0000
50.0939 3.7662 5.5374 1.0000
50.0939 3.9171 5.5387 1.0000
50.0939 4.0680 5.5400 1.0000
50.0939 4.2191 5.5414 1.0000
50.0939 4.8239 5.5474 1.0000
50.0939 5.2785 5.5524 1.0000
50.0939 5.8859 5.5598 1.0000
50.0939 6.0380 5.5618 1.0000
50.0939 6.1902 5.5639 1.0000
50.0939 6.4950 5.5681 1.0000
50.0939 6.6476 5.5703 1.0000
50.0939 6.8003 5.5725 1.0000
50.0939 7.2591 5.5795 1.0000
50.0939 7.4123 5.5820 1.0000
50.0939 7.7191 5.5870 1.0000
50.0939 8.0266 5.5923 1.0000
50.0939 8.1805 5.5950 1.0000
50.0939 8.3345 5.5978 1.0000
50.0939 8.4887 5.6006 1.0000
50.0939 8.6431 5.6034 1.0000
50.0939 8.7977 5.6064 1.0000
50.0939 8.9523 5.6093 1.0000
50.0939 9.4174 5.6186 1.0000
50.0939 9.5728 5.6218 1.0000
50.0939 10.1962 5.6351 1.0000
50.0939 10.5089 5.6421 1.0000
50.0939 10.8225 5.6493 1.0000
50.0939 11.2944 5.6605 1.0000
50.0939 11.4521 5.6643 1.0000
50.0939 11.6101 5.6682 1.0000
50.0939 11.7682 5.6722 1.0000
50.0939 11.9266 5.6762 1.0000
50.0939 12.7220 5.6971 1.0000
50.0939 13.0418 5.7059 1.0000
50.0939 13.3626 5.7149 1.0000
50.0939 -13.3220 5.7138 1.0000
50.0939 -13.1615 5.7093 1.0000
50.0939 -13.0013 5.7048 1.0000
50.0940 -12.2039 5.6834 1.0000
50.0940 -12.0452 5.6792 1.0000
50.0939 -11.7282 5.6712 1.0000
50.0940 -11.5702 5.6672 1.0000
50.0940 -11.2546 5.6595 1.0000
50.0939 -10.9399 5.6520 1.0000
50.0939 -10.7829 5.6483 1.0000
50.0939 -10.3129 5.6377 1.0000
50.0939 -9.3782 5.6178 1.0000
50.0939 -9.2231 5.6147 1.0000
50.0940 -9.0681 5.6116 1.0000
50.0939 -8.6041 5.6027 1.0000
50.0940 -8.4498 5.5999 1.0000
50.0940 -8.2956 5.5971 1.0000
50.0940 -8.1416 5.5943 1.0000
50.0939 -7.5269 5.5838 1.0000
50.0939 -7.3736 5.5813 1.0000
50.0939 -7.0674 5.5765 1.0000
50.0939 -6.6090 5.5697 1.0000
50.0939 -5.9996 5.5613 1.0000
50.0939 -5.2402 5.5520 1.0000
50.0939 -4.0299 5.5397 1.0000
50.0939 -3.8790 5.5384 1.0000
50.0939 -3.4266 5.5348 1.0000
50.0939 -3.2760 5.5336 1.0000
50.0939 -3.1254 5.5326 1.0000
50.0939 -2.8243 5.5306 1.0000
50.0939 -2.6739 5.5297 1.0000
50.0939 -2.5235 5.5289 1.0000
50.0939 -2.3732 5.5280 1.0000
50.0939 -2.2229 5.5273 1.0000
50.0939 -2.0726 5.5266 1.0000
50.0939 -1.6220 5.5247 1.0000
50.0939 -1.4719 5.5242 1.0000
50.0939 -1.3218 5.5238 1.0000
50.0939 -0.8716 5.5227 1.0000
50.0939 -0.7216 5.5224 1.0000
50.0939 -0.5716 5.5222 1.0000
50.0939 -0.2716 5.5219 1.0000
50.0939 0.0284 5.5219 1.0000
50.0939 0.1784 5.5219 1.0000
50.0939 0.7784 5.5225 1.0000
50.0939 1.3787 5.5239 1.0000
50.0939 1.6789 5.5249 1.0000
50.0939 1.8291 5.5255 1.0000
50.0939 1.9793 5.5262 1.0000
50.0939 2.4302 5.5283 1.0000
50.0939 2.5805 5.5292 1.0000
50.0939 2.7309 5.5301 1.0000
50.0939 2.8814 5.5310 1.0000
50.0939 3.1825 5.5330 1.0000
50.0939 3.4838 5.5352 1.0000
50.0939 3.6345 5.5364 1.0000
50.0939 3.7854 5.5376 1.0000
50.0939 4.2382 5.5416 1.0000
50.0939 4.5405 5.5445 1.0000
50.0939 5.1461 5.5509 1.0000
50.0939 5.4494 5.5544 1.0000
50.0939 5.6012 5.5563 1.0000
50.0939 5.7531 5.5582 1.0000
50.0939 6.0573 5.5621 1.0000
50.0939 6.3619 5.5662 1.0000
50.0939 6.9724 5.5751 1.0000
50.0939 7.2785 5.5798 1.0000
50.0939 7.7386 5.5873 1.0000
50.0939 12.2239 4.8039 1.0000
50.0939 12.3829 4.8075 1.0000
50.0939 12.7018 4.8147 1.0000
50.0939 13.1817 4.8259 1.0000
50.0939 13.3422 4.8297 1.0000
50.0939 -13.3423 4.8297 1.0000
50.0939 -13.1818 4.8259 1.0000
50.0939 -12.8616 4.8184 1.0000
50.0939 -12.3830 4.8075 1.0000
50.0939 -12.2240 4.8039 1.0000
50.0939 -12.0652 4.8004 1.0000
50.0939 -11.9066 4.7970 1.0000
50.0939 -11.5902 4.7903 1.0000
50.0939 -11.4323 4.7870 1.0000
50.0939 -11.2745 4.7837 1.0000
50.0939 -11.1170 4.7805 1.0000
50.0939 -10.9598 4.7774 1.0000
50.0939 -10.4892 4.7682 1.0000
50.0939 -10.3327 4.7652 1.0000
50.0939 -10.0204 4.7594 1.0000
50.0939 -9.3979 4.7484 1.0000
50.0939 -8.9328 4.7406 1.0000
50.0939 -8.6237 4.7356 1.0000
50.0939 -8.3151 4.7308 1.0000
50.0939 -7.8534 4.7240 1.0000
50.0938 -7.3930 4.7175 1.0000
50.0938 -7.0867 4.7135 1.0000
50.0938 -6.7810 4.7095 1.0000
50.0938 -6.6284 4.7077 1.0000
50.0938 -6.4758 4.7058 1.0000
50.0938 -6.3234 4.7040 1.0000
50.0938 -6.1710 4.7023 1.0000
50.0938 -6.0188 4.7005 1.0000
50.0938 -5.7147 4.6973 1.0000
50.0938 -5.5628 4.6957 1.0000
50.0938 -5.1077 4.6912 1.0000
50.0938 -4.8048 4.6884 1.0000
50.0938 -4.5023 4.6858 1.0000
50.0938 -4.2000 4.6834 1.0000
50.0938 -3.8981 4.6811 1.0000
50.0938 -3.2950 4.6771 1.0000
50.0938 -3.1445 4.6762 1.0000
50.0938 -2.6929 4.6737 1.0000
50.0938 -2.5425 4.6730 1.0000
50.0939 -2.0916 4.6710 1.0000
50.0939 -1.7912 4.6700 1.0000
50.0939 -1.0406 4.6680 1.0000
50.0939 -0.8905 4.6677 1.0000
50.0939 -0.5905 4.6673 1.0000
50.0939 -0.2905 4.6671 1.0000
50.0939 -0.1405 4.6670 1.0000
50.0939 0.3094 4.6671 1.0000
50.0939 0.6094 4.6673 1.0000
50.0939 0.7595 4.6675 1.0000
50.0939 1.0596 4.6680 1.0000
50.0939 1.2096 4.6683 1.0000
50.0939 1.3597 4.6687 1.0000
50.0939 1.5098 4.6691 1.0000
50.0939 1.8101 4.6700 1.0000
50.0939 1.9603 4.6706 1.0000
50.0939 2.4111 4.6724 1.0000
50.0939 3.0129 4.6754 1.0000
50.0939 3.7662 4.6802 1.0000
50.0939 4.0680 4.6823 1.0000
50.0939 4.2191 4.6835 1.0000
50.0939 4.3702 4.6847 1.0000
50.0939 5.1268 4.6914 1.0000
50.0939 5.2785 4.6928 1.0000
50.0939 5.5820 4.6959 1.0000
50.0939 5.7339 4.6975 1.0000
50.0939 6.0380 4.7008 1.0000
50.0939 6.4950 4.7061 1.0000
50.0939 7.4123 4.7178 1.0000
50.0939 7.5657 4.7199 1.0000
50.0939 7.7191 4.7221 1.0000
50.0939 8.0265 4.7265 1.0000
50.0939 8.1804 4.7288 1.0000
50.0939 8.3345 4.7311 1.0000
50.0939 8.7976 4.7384 1.0000
50.0939 8.9523 4.7409 1.0000
50.0939 9.1072 4.7435 1.0000
50.0939 9.2622 4.7461 1.0000
50.0939 9.5728 4.7514 1.0000
50.0939 9.8841 4.7570 1.0000
50.0939 10.0400 4.7598 1.0000
50.0939 10.1961 4.7627 1.0000
50.0939 10.3525 4.7656 1.0000
50.0939 10.5089 4.7686 1.0000
50.0939 10.8225 4.7747 1.0000
50.0939 10.9796 4.7778 1.0000
50.0939 11.1369 4.7809 1.0000
50.0939 11.2944 4.7841 1.0000
50.0939 11.7682 4.7940 1.0000
50.0939 11.9266 4.7974 1.0000
50.0939 12.0852 4.8009 1.0000
50.0939 12.2440 4.8044 1.0000
50.0939 12.8817 4.8188 1.0000
50.0939 13.2020 4.8263 1.0000
50.0939 -13.0013 4.8216 1.0000
50.0939 -12.8413 4.8179 1.0000
50.0939 -12.3629 4.8070 1.0000
50.0939 -12.0452 4.8000 1.0000
50.0939 -11.8866 4.7966 1.0000
50.0939 -11.7283 4.7932 1.0000
50.0939 -10.9399 4.7770 1.0000
50.0939 -10.7829 4.7739 1.0000
50.0939 -10.4694 4.7678 1.0000
50.0939 -10.1567 4.7619 1.0000
50.0939 -10.0006 4.7591 1.0000
50.0939 -9.8448 4.7563 1.0000
50.0939 -9.6891 4.7535 1.0000
50.0939 -9.5336 4.7508 1.0000
50.0939 -9.2231 4.7454 1.0000
50.0939 -9.0680 4.7428 1.0000
50.0939 -8.9133 4.7403 1.0000
50.0939 -8.7586 4.7378 1.0000
50.0939 -8.2956 4.7305 1.0000
50.0939 -8.1416 4.7282 1.0000
50.0939 -7.9877 4.7259 1.0000
50.0939 -7.8339 4.7237 1.0000
50.0939 -7.6804 4.7215 1.0000
50.0939 -7.5270 4.7194 1.0000
50.0938 -7.3736 4.7173 1.0000
50.0938 -7.2205 4.7152 1.0000
50.0938 -6.9145 4.7112 1.0000
50.0938 -6.7617 4.7093 1.0000
50.0938 -6.6090 4.7074 1.0000
50.0938 -6.4565 4.7056 1.0000
50.0938 -6.3041 4.7038 1.0000
50.0938 -6.1518 4.7020 1.0000
50.0938 -5.5436 4.6955 1.0000
50.0938 -5.2402 4.6924 1.0000
50.0938 -4.3320 4.6844 1.0000
50.0938 -4.0299 4.6821 1.0000
50.0938 -3.7281 4.6799 1.0000
50.0938 -3.5773 4.6789 1.0000
50.0938 -3.2760 4.6770 1.0000
50.0938 -2.9748 4.6752 1.0000
50.0938 -2.8243 4.6744 1.0000
50.0938 -2.6739 4.6736 1.0000
50.0939 -1.9224 4.6704 1.0000
50.0939 -1.4719 4.6690 1.0000
50.0939 -1.0216 4.6680 1.0000
50.0939 -0.8716 4.6677 1.0000
50.0939 -0.5715 4.6673 1.0000
50.0939 -0.2716 4.6670 1.0000
50.0939 -0.1215 4.6670 1.0000
50.0939 0.0284 4.6670 1.0000
50.0939 0.1784 4.6670 1.0000
50.0939 0.3284 4.6671 1.0000
50.0939 0.7784 4.6675 1.0000
50.0939 1.0785 4.6681 1.0000
50.0939 1.2286 4.6684 1.0000
50.0939 1.3787 4.6687 1.0000
50.0939 1.5288 4.6692 1.0000
50.0939 1.8291 4.6701 1.0000
50.0939 1.9793 4.6706 1.0000
50.0939 2.1296 4.6712 1.0000
50.0939 2.4302 4.6725 1.0000
50.0939 3.3331 4.6773 1.0000
50.0939 3.6345 4.6792 1.0000
50.0939 4.0871 4.6825 1.0000
50.0939 4.2382 4.6837 1.0000
50.0939 4.3893 4.6849 1.0000
50.0939 4.8431 4.6887 1.0000
50.0939 4.9945 4.6901 1.0000
50.0939 5.1461 4.6915 1.0000
50.0939 5.4494 4.6945 1.0000
50.0939 5.6012 4.6961 1.0000
50.0939 6.0573 4.7010 1.0000
50.0939 6.5143 4.7063 1.0000
50.0939 6.6669 4.7081 1.0000
50.0939 6.8196 4.7100 1.0000
50.0939 6.9724 4.7120 1.0000
50.0939 7.1254 4.7140 1.0000
50.0939 7.2785 4.7160 1.0000
50.0939 7.7386 4.7223 1.0000
50.0939 7.8922 4.7245 1.0000
50.0939 12.2239 3.9267 1.0000
50.0939 12.3830 3.9296 1.0000
50.0939 12.5422 3.9325 1.0000
50.0939 12.7018 3.9355 1.0000
50.0939 12.8615 3.9385 1.0000
50.0939 13.3423 3.9478 1.0000
50.0939 -12.8616 3.9385 1.0000
50.0939 -12.5423 3.9326 1.0000
50.0939 -12.3830 3.9296 1.0000
50.0939 -11.7482 3.9183 1.0000
50.0939 -11.4322 3.9129 1.0000
50.0939 -10.9598 3.9050 1.0000
50.0939 -10.8027 3.9025 1.0000
50.0939 -10.6458 3.9000 1.0000
50.0939 -10.3327 3.8951 1.0000
50.0939 -10.1764 3.8927 1.0000
50.0939 -10.0204 3.8904 1.0000
50.0939 -9.8645 3.8881 1.0000
50.0939 -9.7087 3.8858 1.0000
50.0939 -9.2427 3.8792 1.0000
50.0939 -9.0877 3.8771 1.0000
50.0939 -8.9329 3.8750 1.0000
50.0939 -8.1611 3.8651 1.0000
50.0939 -8.0071 3.8632 1.0000
50.0939 -7.8534 3.8614 1.0000
50.0939 -7.6998 3.8596 1.0000
50.0939 -7.5464 3.8578 1.0000
50.0938 -7.0867 3.8528 1.0000
50.0938 -6.7810 3.8496 1.0000
50.0938 -5.8667 3.8409 1.0000
50.0938 -5.7147 3.8395 1.0000
50.0938 -5.2593 3.8358 1.0000
50.0938 -5.1077 3.8346 1.0000
50.0938 -4.5023 3.8302 1.0000
50.0938 -4.2000 3.8282 1.0000
50.0938 -4.0490 3.8272 1.0000
50.0938 -3.5964 3.8246 1.0000
50.0938 -3.4457 3.8238 1.0000
50.0938 -2.9939 3.8216 1.0000
50.0938 -2.3921 3.8191 1.0000
50.0938 -2.2419 3.8186 1.0000
50.0939 -1.9414 3.8177 1.0000
50.0939 -1.6410 3.8168 1.0000
50.0939 -1.3407 3.8162 1.0000
50.0939 -1.0406 3.8156 1.0000
50.0939 -0.8905 3.8154 1.0000
50.0939 -0.7405 3.8152 1.0000
50.0939 0.0095 3.8148 1.0000
50.0939 0.1595 3.8148 1.0000
50.0939 0.3095 3.8149 1.0000
50.0939 0.4595 3.8150 1.0000
50.0939 0.6095 3.8151 1.0000
50.0939 0.7595 3.8152 1.0000
50.0939 0.9095 3.8154 1.0000
50.0939 1.0596 3.8156 1.0000
50.0939 1.2096 3.8159 1.0000
50.0939 1.3597 3.8162 1.0000
50.0939 1.6600 3.8169 1.0000
50.0939 1.9604 3.8177 1.0000
50.0939 2.1106 3.8182 1.0000
50.0939 2.4112 3.8192 1.0000
50.0939 2.5615 3.8198 1.0000
50.0939 2.7120 3.8204 1.0000
50.0939 2.8624 3.8210 1.0000
50.0939 3.1635 3.8224 1.0000
50.0939 3.3141 3.8231 1.0000
50.0939 3.6155 3.8247 1.0000
50.0939 3.7662 3.8256 1.0000
50.0939 3.9171 3.8264 1.0000
50.0939 4.0681 3.8274 1.0000
50.0939 4.3702 3.8293 1.0000
50.0939 4.5214 3.8303 1.0000
50.0939 4.6726 3.8314 1.0000
50.0939 5.2785 3.8359 1.0000
50.0939 5.7339 3.8397 1.0000
50.0939 6.1902 3.8438 1.0000
50.0939 6.6476 3.8482 1.0000
50.0939 6.8003 3.8498 1.0000
50.0939 6.9532 3.8514 1.0000
50.0939 7.2591 3.8546 1.0000
50.0939 7.5657 3.8581 1.0000
50.0939 8.0265 3.8635 1.0000
50.0939 8.1804 3.8653 1.0000
