ply
format ascii 1.0
element vertex 1591
property float32 x
property float32 y
property float32 z
property float32 I
end_header
50.0941 5.8742 11.7042 1.0000
50.0941 6.1784 11.7126 1.0000
50.0941 6.6356 11.7261 1.0000
50.0941 6.9410 11.7356 1.0000
50.0941 7.0939 11.7405 1.0000
50.0941 7.2470 11.7455 1.0000
50.0941 7.4001 11.7507 1.0000
50.0941 7.5534 11.7559 1.0000
50.0941 7.8604 11.7668 1.0000
50.0941 8.1680 11.7781 1.0000
50.0941 8.3220 11.7839 1.0000
50.0941 8.7849 11.8019 1.0000
50.0941 9.2494 11.8210 1.0000
50.0941 9.4045 11.8276 1.0000
50.0941 9.5598 11.8343 1.0000
50.0941 9.7153 11.8411 1.0000
50.0941 9.8710 11.8481 1.0000
50.0941 10.0269 11.8551 1.0000
50.0941 10.3391 11.8696 1.0000
50.0941 10.6522 11.8845 1.0000
50.0941 10.8091 11.8921 1.0000
50.0941 10.9661 11.8998 1.0000
50.0941 11.1233 11.9077 1.0000
50.0941 11.4384 11.9237 1.0000
50.0941 12.3890 11.9748 1.0000
50.0941 12.5482 11.9837 1.0000
50.0941 12.7077 11.9927 1.0000
50.0941 13.3480 12.0301 1.0000
50.0941 -13.3366 12.0295 1.0000
50.0941 -12.8561 12.0013 1.0000
50.0941 -12.2187 11.9654 1.0000
50.0941 -11.5850 11.9314 1.0000
50.0941 -11.4272 11.9232 1.0000
50.0941 -11.1121 11.9071 1.0000
50.0941 -10.7979 11.8915 1.0000
50.0941 -10.4845 11.8764 1.0000
50.0941 -10.1718 11.8618 1.0000
50.0941 -9.7043 11.8407 1.0000
50.0941 -9.5488 11.8338 1.0000
50.0941 -9.3935 11.8272 1.0000
50.0941 -9.2384 11.8206 1.0000
50.0941 -9.0834 11.8141 1.0000
50.0941 -8.1570 11.7776 1.0000
50.0941 -8.0032 11.7720 1.0000
50.0941 -7.8495 11.7664 1.0000
50.0941 -7.6959 11.7609 1.0000
50.0940 -6.7774 11.7304 1.0000
50.0940 -6.6248 11.7258 1.0000
50.0940 -6.3199 11.7167 1.0000
50.0940 -6.1676 11.7123 1.0000
50.0941 -6.0155 11.7080 1.0000
50.0941 -5.7115 11.6999 1.0000
50.0941 -5.2562 11.6884 1.0000
50.0940 -5.1046 11.6847 1.0000
50.0940 -4.8018 11.6778 1.0000
50.0940 -4.4994 11.6713 1.0000
50.0940 -4.0462 11.6624 1.0000
50.0940 -3.8954 11.6596 1.0000
50.0940 -3.7445 11.6570 1.0000
50.0940 -3.5938 11.6544 1.0000
50.0940 -3.2925 11.6496 1.0000
50.0940 -3.1419 11.6474 1.0000
50.0940 -2.9914 11.6452 1.0000
50.0940 -2.8409 11.6432 1.0000
50.0941 -2.6905 11.6413 1.0000
50.0941 -2.2396 11.6362 1.0000
50.0940 -2.0893 11.6346 1.0000
50.0940 -1.9392 11.6332 1.0000
50.0940 -1.4888 11.6297 1.0000
50.0941 -1.3388 11.6287 1.0000
50.0940 -1.1887 11.6278 1.0000
50.0941 -0.7387 11.6258 1.0000
50.0940 -0.5887 11.6253 1.0000
50.0940 -0.4387 11.6250 1.0000
50.0941 -0.2888 11.6247 1.0000
50.0940 0.0111 11.6245 1.0000
50.0940 0.4610 11.6250 1.0000
50.0940 0.6109 11.6254 1.0000
50.0941 0.7609 11.6259 1.0000
50.0940 0.9109 11.6265 1.0000
50.0941 1.3609 11.6288 1.0000
50.0940 1.6611 11.6309 1.0000
50.0940 1.8112 11.6321 1.0000
50.0940 2.4121 11.6380 1.0000
50.0940 2.5625 11.6397 1.0000
50.0941 2.8632 11.6435 1.0000
50.0941 3.1642 11.6477 1.0000
50.0940 3.4654 11.6523 1.0000
50.0940 3.6161 11.6548 1.0000
50.0940 3.9177 11.6600 1.0000
50.0940 4.2196 11.6657 1.0000
50.0940 4.6729 11.6750 1.0000
50.0941 4.9757 11.6817 1.0000
50.0941 5.1271 11.6853 1.0000
50.0941 5.4304 11.6926 1.0000
50.0941 5.5821 11.6965 1.0000
50.0941 5.8859 11.7045 1.0000
50.0941 6.9529 11.7360 1.0000
50.0941 7.1057 11.7409 1.0000
50.0941 7.4120 11.7511 1.0000
50.0941 7.7187 11.7617 1.0000
50.0941 8.1798 11.7785 1.0000
50.0941 8.3339 11.7843 1.0000
50.0941 8.4880 11.7902 1.0000
50.0941 8.7969 11.8024 1.0000
50.0941 8.9515 11.8087 1.0000
50.0941 9.2613 11.8215 1.0000
50.0941 9.4165 11.8281 1.0000
50.0941 9.7273 11.8417 1.0000
50.0941 9.8830 11.8486 1.0000
50.0941 10.1950 11.8628 1.0000
50.0941 10.3512 11.8701 1.0000
50.0941 10.6643 11.8850 1.0000
50.0941 10.8211 11.8927 1.0000
50.0941 10.9782 11.9004 1.0000
50.0941 11.4506 11.9244 1.0000
50.0941 12.2423 11.9666 1.0000
50.0941 12.7200 11.9934 1.0000
50.0941 13.0398 12.0119 1.0000
50.0941 13.2000 12.0213 1.0000
50.0941 -13.1638 12.0192 1.0000
50.0941 -13.0037 12.0098 1.0000
50.0941 -12.6841 11.9914 1.0000
50.0941 -12.5246 11.9824 1.0000
50.0941 -12.3654 11.9735 1.0000
50.0941 -12.2064 11.9647 1.0000
50.0941 -12.0477 11.9560 1.0000
50.0941 -11.8891 11.9475 1.0000
50.0941 -11.7309 11.9390 1.0000
50.0941 -11.2574 11.9145 1.0000
50.0941 -11.1000 11.9065 1.0000
50.0941 -10.9428 11.8987 1.0000
50.0941 -10.6290 11.8833 1.0000
50.0941 -10.3160 11.8685 1.0000
50.0941 -10.1598 11.8612 1.0000
50.0941 -9.6923 11.8401 1.0000
50.0941 -9.5368 11.8333 1.0000
50.0941 -9.0714 11.8136 1.0000
50.0941 -8.9166 11.8073 1.0000
50.0941 -7.9913 11.7715 1.0000
50.0941 -7.8377 11.7660 1.0000
50.0941 -7.6841 11.7605 1.0000
50.0941 -13.3491 11.1109 1.0000
50.0941 -13.0284 11.0934 1.0000
50.0941 -12.8684 11.0849 1.0000
50.0941 -12.5492 11.0680 1.0000
50.0941 -12.3900 11.0598 1.0000
50.0941 -12.2309 11.0517 1.0000
50.0941 -11.5973 11.0202 1.0000
50.0941 -10.9670 10.9906 1.0000
50.0941 -10.6531 10.9764 1.0000
50.0941 -10.3401 10.9626 1.0000
50.0941 -9.8720 10.9428 1.0000
50.0941 -9.5607 10.9301 1.0000
50.0941 -9.4054 10.9239 1.0000
50.0941 -9.2503 10.9178 1.0000
50.0941 -9.0953 10.9118 1.0000
50.0941 -8.9405 10.9059 1.0000
50.0941 -8.7859 10.9002 1.0000
50.0941 -8.6314 10.8945 1.0000
50.0941 -8.4770 10.8889 1.0000
50.0941 -8.1689 10.8781 1.0000
50.0941 -8.0150 10.8728 1.0000
50.0941 -7.8613 10.8677 1.0000
50.0940 -7.4010 10.8528 1.0000
50.0939 -7.0949 10.8434 1.0000
50.0939 -6.9420 10.8389 1.0000
50.0940 -6.6366 10.8301 1.0000
50.0939 -6.4841 10.8258 1.0000
50.0940 -6.3317 10.8217 1.0000
50.0939 -6.1794 10.8176 1.0000
50.0939 -6.0272 10.8137 1.0000
50.0940 -5.8752 10.8099 1.0000
50.0939 -5.7232 10.8061 1.0000
50.0940 -5.5714 10.8025 1.0000
50.0939 -5.2679 10.7955 1.0000
50.0940 -4.8136 10.7857 1.0000
50.0939 -4.6622 10.7827 1.0000
50.0940 -4.5111 10.7797 1.0000
50.0940 -3.9070 10.7689 1.0000
50.0939 -3.6054 10.7640 1.0000
50.0940 -3.4547 10.7618 1.0000
50.0940 -3.3041 10.7596 1.0000
50.0940 -3.1536 10.7575 1.0000
50.0940 -3.0030 10.7555 1.0000
50.0940 -2.8525 10.7537 1.0000
50.0941 -1.9508 10.7444 1.0000
50.0941 -1.3503 10.7402 1.0000
50.0941 -0.9003 10.7380 1.0000
50.0941 -0.7503 10.7375 1.0000
50.0941 -0.6003 10.7370 1.0000
50.0941 -0.3004 10.7365 1.0000
50.0940 -0.1504 10.7363 1.0000
50.0941 0.5993 10.7370 1.0000
50.0940 0.8993 10.7380 1.0000
50.0940 1.0493 10.7386 1.0000
50.0940 1.1993 10.7393 1.0000
50.0940 1.3494 10.7402 1.0000
50.0941 1.4994 10.7411 1.0000
50.0941 2.2502 10.7471 1.0000
50.0940 2.4005 10.7486 1.0000
50.0940 2.7012 10.7519 1.0000
50.0940 3.0020 10.7555 1.0000
50.0941 3.1526 10.7575 1.0000
50.0941 3.6045 10.7640 1.0000
50.0940 3.7552 10.7664 1.0000
50.0940 4.0569 10.7714 1.0000
50.0941 4.3589 10.7768 1.0000
50.0941 4.5101 10.7797 1.0000
50.0940 4.6613 10.7826 1.0000
50.0941 4.8125 10.7857 1.0000
50.0941 5.2670 10.7955 1.0000
50.0941 5.5703 10.8024 1.0000
50.0940 5.7222 10.8061 1.0000
50.0940 5.8741 10.8098 1.0000
50.0941 6.0262 10.8137 1.0000
50.0941 6.4830 10.8258 1.0000
50.0941 6.6356 10.8301 1.0000
50.0941 6.9410 10.8388 1.0000
50.0941 7.4001 10.8528 1.0000
50.0941 7.8604 10.8676 1.0000
50.0941 8.3220 10.8834 1.0000
50.0940 8.4761 10.8889 1.0000
50.0941 8.6304 10.8944 1.0000
50.0940 8.9396 10.9059 1.0000
50.0940 9.2493 10.9178 1.0000
50.0940 9.5598 10.9300 1.0000
50.0940 9.7153 10.9363 1.0000
50.0940 10.3391 10.9626 1.0000
50.0941 10.4955 10.9694 1.0000
50.0941 10.8090 10.9834 1.0000
50.0940 11.4384 11.0126 1.0000
50.0940 11.5963 11.0202 1.0000
50.0940 11.7544 11.0279 1.0000
50.0940 11.9127 11.0357 1.0000
50.0940 12.2300 11.0516 1.0000
50.0941 12.3889 11.0597 1.0000
50.0940 12.8674 11.0848 1.0000
50.0941 13.3480 11.1109 1.0000
50.0941 -13.3366 11.1103 1.0000
50.0941 -12.8561 11.0842 1.0000
50.0941 -12.5369 11.0674 1.0000
50.0941 -12.2187 11.0510 1.0000
50.0941 -11.9014 11.0351 1.0000
50.0941 -11.5850 11.0196 1.0000
50.0941 -11.4272 11.0121 1.0000
50.0941 -10.9549 10.9900 1.0000
50.0941 -10.3280 10.9621 1.0000
50.0941 -10.1718 10.9554 1.0000
50.0941 -10.0157 10.9488 1.0000
50.0941 -9.7042 10.9359 1.0000
50.0941 -9.3934 10.9234 1.0000
50.0941 -9.0834 10.9114 1.0000
50.0941 -8.7739 10.8997 1.0000
50.0941 -8.6195 10.8940 1.0000
50.0941 -8.1570 10.8777 1.0000
50.0941 -8.0031 10.8724 1.0000
50.0941 -7.8495 10.8673 1.0000
50.0940 -7.0831 10.8431 1.0000
50.0939 -6.9302 10.8385 1.0000
50.0940 -6.6248 10.8297 1.0000
50.0939 -5.4079 10.7986 1.0000
50.0940 -5.2562 10.7952 1.0000
50.0939 -5.1046 10.7919 1.0000
50.0939 -4.9532 10.7886 1.0000
50.0939 -4.8018 10.7855 1.0000
50.0939 -4.4993 10.7795 1.0000
50.0940 -3.8954 10.7687 1.0000
50.0940 -3.2925 10.7594 1.0000
50.0940 -3.1419 10.7574 1.0000
50.0939 -2.9914 10.7554 1.0000
50.0940 -2.8410 10.7535 1.0000
50.0941 -2.6905 10.7517 1.0000
50.0940 -2.0894 10.7456 1.0000
50.0940 -1.7891 10.7431 1.0000
50.0941 -1.4888 10.7410 1.0000
50.0941 -1.0387 10.7386 1.0000
50.0940 -0.8887 10.7380 1.0000
50.0941 -0.5887 10.7370 1.0000
50.0941 -0.4387 10.7367 1.0000
50.0941 -0.2888 10.7364 1.0000
50.0940 0.0111 10.7363 1.0000
50.0940 0.1611 10.7363 1.0000
50.0941 0.7609 10.7375 1.0000
50.0941 0.9109 10.7381 1.0000
50.0940 1.0609 10.7387 1.0000
50.0940 1.2109 10.7394 1.0000
50.0940 1.3609 10.7402 1.0000
50.0941 1.5110 10.7412 1.0000
50.0940 1.8112 10.7433 1.0000
50.0940 2.1116 10.7458 1.0000
50.0940 2.2619 10.7472 1.0000
50.0941 2.4121 10.7487 1.0000
50.0941 2.5624 10.7503 1.0000
50.0941 2.7128 10.7520 1.0000
50.0940 2.8632 10.7538 1.0000
50.0940 3.0137 10.7557 1.0000
50.0941 3.1642 10.7577 1.0000
50.0940 3.3148 10.7598 1.0000
50.0941 3.4654 10.7619 1.0000
50.0941 3.7668 10.7666 1.0000
50.0940 3.9177 10.7690 1.0000
50.0940 4.0686 10.7716 1.0000
50.0941 4.2195 10.7743 1.0000
50.0941 4.8242 10.7859 1.0000
50.0940 4.9756 10.7891 1.0000
50.0941 5.2786 10.7957 1.0000
50.0940 5.5820 10.8027 1.0000
50.0940 5.7339 10.8064 1.0000
50.0941 5.8859 10.8101 1.0000
50.0940 6.0380 10.8140 1.0000
50.0941 6.4948 10.8261 1.0000
50.0940 6.6474 10.8304 1.0000
50.0940 7.2587 10.8484 1.0000
50.0940 7.7187 10.8630 1.0000
50.0940 8.0260 10.8732 1.0000
50.0940 8.3339 10.8838 1.0000
50.0941 8.7968 10.9006 1.0000
50.0940 9.2613 10.9182 1.0000
50.0941 9.4164 10.9243 1.0000
50.0941 9.5718 10.9305 1.0000
50.0941 10.1950 10.9564 1.0000
50.0940 10.3512 10.9631 1.0000
50.0940 10.5077 10.9699 1.0000
50.0941 10.6643 10.9769 1.0000
50.0941 10.9782 10.9911 1.0000
50.0940 11.1354 10.9983 1.0000
50.0940 11.7666 11.0285 1.0000
50.0941 11.9249 11.0363 1.0000
50.0941 12.0835 11.0442 1.0000
50.0940 12.2423 11.0522 1.0000
50.0941 12.4013 11.0604 1.0000
50.0941 12.5605 11.0686 1.0000
50.0940 12.8798 11.0855 1.0000
50.0941 13.0397 11.0940 1.0000
50.0940 13.2000 11.1028 1.0000
50.0941 13.3604 11.1116 1.0000
50.0941 -13.3242 11.1096 1.0000
50.0941 -13.1638 11.1008 1.0000
50.0941 -12.6840 11.0751 1.0000
50.0941 -12.3654 11.0585 1.0000
50.0941 -12.2064 11.0504 1.0000
50.0941 -11.7309 11.0267 1.0000
50.0941 -11.5729 11.0191 1.0000
50.0941 -10.7857 10.9823 1.0000
50.0941 -10.4723 10.9684 1.0000
50.0941 -10.1598 10.9549 1.0000
50.0941 -10.0037 10.9483 1.0000
50.0941 -9.5367 10.9291 1.0000
50.0941 -9.3814 10.9229 1.0000
50.0941 -9.2263 10.9169 1.0000
50.0941 -9.0714 10.9109 1.0000
50.0941 -8.6075 10.8936 1.0000
50.0941 -8.4532 10.8881 1.0000
50.0941 -8.2991 10.8826 1.0000
50.0941 -7.9913 10.8720 1.0000
50.0941 -7.5306 10.8569 1.0000
50.0941 -12.5492 10.1589 1.0000
50.0940 -12.2309 10.1439 1.0000
50.0940 -12.0721 10.1365 1.0000
50.0941 -11.9136 10.1293 1.0000
50.0940 -11.7553 10.1221 1.0000
50.0940 -11.5972 10.1150 1.0000
50.0940 -11.2817 10.1012 1.0000
50.0940 -11.1243 10.0945 1.0000
50.0940 -10.6531 10.0748 1.0000
50.0940 -10.4965 10.0684 1.0000
50.0941 -10.3401 10.0622 1.0000
50.0941 -10.0278 10.0499 1.0000
50.0940 -9.8719 10.0439 1.0000
50.0940 -9.7162 10.0381 1.0000
50.0940 -9.2503 10.0210 1.0000
50.0940 -8.9405 10.0101 1.0000
50.0941 -8.3230 9.9895 1.0000
50.0941 -8.1689 9.9846 1.0000
50.0941 -8.0151 9.9798 1.0000
50.0941 -7.5544 9.9658 1.0000
50.0939 -7.4011 9.9614 1.0000
50.0939 -7.0949 9.9528 1.0000
50.0939 -6.9420 9.9486 1.0000
50.0939 -6.6366 9.9405 1.0000
50.0939 -6.4841 9.9366 1.0000
50.0939 -6.1794 9.9291 1.0000
50.0939 -6.0272 9.9255 1.0000
50.0939 -5.4195 9.9119 1.0000
50.0939 -5.2679 9.9087 1.0000
50.0939 -5.1164 9.9057 1.0000
50.0939 -4.9649 9.9027 1.0000
50.0939 -4.8135 9.8998 1.0000
50.0939 -4.5110 9.8943 1.0000
50.0939 -4.3599 9.8917 1.0000
50.0939 -4.0579 9.8867 1.0000
50.0939 -3.9070 9.8843 1.0000
50.0939 -3.7562 9.8821 1.0000
50.0939 -3.4547 9.8778 1.0000
50.0939 -3.3041 9.8758 1.0000
50.0939 -3.1535 9.8739 1.0000
50.0940 -2.7021 9.8687 1.0000
50.0940 -2.5518 9.8672 1.0000
50.0940 -2.4014 9.8657 1.0000
50.0940 -1.9507 9.8619 1.0000
50.0940 -1.5004 9.8588 1.0000
50.0940 -1.2002 9.8572 1.0000
50.0940 -1.0502 9.8566 1.0000
50.0940 -0.9002 9.8560 1.0000
50.0940 -0.7502 9.8555 1.0000
50.0940 -0.3003 9.8546 1.0000
50.0940 -0.0005 9.8544 1.0000
50.0940 0.2995 9.8546 1.0000
50.0940 0.4494 9.8548 1.0000
50.0940 0.7494 9.8555 1.0000
50.0940 1.0494 9.8566 1.0000
50.0940 1.1994 9.8572 1.0000
50.0940 1.3494 9.8580 1.0000
50.0940 1.6496 9.8597 1.0000
50.0940 1.7997 9.8608 1.0000
50.0940 1.9498 9.8619 1.0000
50.0940 2.4005 9.8657 1.0000
50.0940 2.5509 9.8672 1.0000
50.0940 2.7012 9.8687 1.0000
50.0940 2.8516 9.8704 1.0000
50.0940 3.3031 9.8758 1.0000
50.0940 3.4537 9.8778 1.0000
50.0940 3.6045 9.8799 1.0000
50.0940 3.7552 9.8820 1.0000
50.0940 3.9061 9.8843 1.0000
50.0940 4.5101 9.8943 1.0000
50.0940 4.8126 9.8998 1.0000
50.0940 4.9640 9.9027 1.0000
50.0940 5.1154 9.9057 1.0000
50.0940 5.7222 9.9185 1.0000
50.0940 5.8742 9.9219 1.0000
50.0940 6.1784 9.9291 1.0000
50.0940 6.3307 9.9328 1.0000
50.0940 6.6356 9.9405 1.0000
50.0940 6.7883 9.9445 1.0000
50.0940 6.9410 9.9486 1.0000
50.0940 7.0939 9.9527 1.0000
50.0940 7.2470 9.9570 1.0000
50.0940 7.4001 9.9614 1.0000
50.0940 7.5534 9.9658 1.0000
50.0940 7.7068 9.9703 1.0000
50.0940 8.3220 9.9895 1.0000
50.0940 8.4761 9.9945 1.0000
50.0940 8.6305 9.9996 1.0000
50.0940 8.9395 10.0101 1.0000
50.0940 9.0944 10.0155 1.0000
50.0941 9.7153 10.0380 1.0000
50.0941 10.1829 10.0559 1.0000
50.0941 10.3391 10.0621 1.0000
50.0941 10.8090 10.0812 1.0000
50.0941 10.9660 10.0878 1.0000
50.0941 11.1232 10.0944 1.0000
50.0941 11.4384 10.1080 1.0000
50.0941 11.7543 10.1221 1.0000
50.0941 12.0712 10.1365 1.0000
50.0941 12.2300 10.1438 1.0000
50.0941 12.3890 10.1513 1.0000
50.0941 13.1876 10.1902 1.0000
50.0940 -12.8561 10.1738 1.0000
50.0940 -12.2187 10.1433 1.0000
50.0940 -11.9014 10.1287 1.0000
50.0940 -11.7431 10.1216 1.0000
50.0941 -11.5850 10.1145 1.0000
50.0941 -11.4272 10.1076 1.0000
50.0941 -11.2695 10.1007 1.0000
50.0940 -10.9549 10.0873 1.0000
50.0941 -10.1718 10.0555 1.0000
50.0940 -9.7042 10.0376 1.0000
50.0940 -9.3934 10.0262 1.0000
50.0940 -9.2384 10.0206 1.0000
50.0941 -8.4652 9.9941 1.0000
50.0941 -8.1570 9.9842 1.0000
50.0940 -8.0032 9.9794 1.0000
50.0940 -7.5425 9.9655 1.0000
50.0939 -7.3892 9.9610 1.0000
50.0939 -7.2360 9.9567 1.0000
50.0939 -7.0830 9.9524 1.0000
50.0939 -6.9302 9.9483 1.0000
50.0939 -6.7774 9.9442 1.0000
50.0939 -6.6248 9.9402 1.0000
50.0939 -6.4723 9.9363 1.0000
50.0939 -6.3199 9.9325 1.0000
50.0939 -5.8634 9.9217 1.0000
50.0939 -5.4078 9.9117 1.0000
50.0939 -5.2562 9.9085 1.0000
50.0939 -5.1047 9.9054 1.0000
50.0939 -4.8018 9.8996 1.0000
50.0939 -4.6505 9.8968 1.0000
50.0939 -3.8954 9.8842 1.0000
50.0939 -3.7445 9.8819 1.0000
50.0939 -3.5938 9.8797 1.0000
50.0939 -3.1419 9.8738 1.0000
50.0939 -2.8409 9.8702 1.0000
50.0939 -2.5402 9.8671 1.0000
50.0939 -2.2396 9.8642 1.0000
50.0940 -1.9391 9.8618 1.0000
50.0940 -1.4887 9.8588 1.0000
50.0940 -1.3387 9.8579 1.0000
50.0940 -1.1887 9.8572 1.0000
50.0940 -1.0387 9.8565 1.0000
50.0940 -0.8887 9.8560 1.0000
50.0940 -0.7386 9.8555 1.0000
50.0940 -0.2887 9.8546 1.0000
50.0940 -0.1388 9.8544 1.0000
50.0940 0.0112 9.8544 1.0000
50.0940 0.1611 9.8545 1.0000
50.0940 0.4610 9.8548 1.0000
50.0940 0.6110 9.8551 1.0000
50.0940 1.0609 9.8566 1.0000
50.0940 1.2110 9.8573 1.0000
50.0940 1.5111 9.8589 1.0000
50.0940 2.4122 9.8658 1.0000
50.0940 2.7129 9.8688 1.0000
50.0940 2.8632 9.8705 1.0000
50.0940 3.4654 9.8780 1.0000
50.0940 4.0686 9.8869 1.0000
50.0940 4.2196 9.8893 1.0000
50.0940 4.9756 9.9029 1.0000
50.0940 5.1271 9.9059 1.0000
50.0940 5.2787 9.9090 1.0000
50.0940 5.4304 9.9121 1.0000
50.0940 5.5821 9.9154 1.0000
50.0940 6.0380 9.9257 1.0000
50.0940 6.1902 9.9294 1.0000
50.0940 6.3425 9.9331 1.0000
50.0940 6.4949 9.9369 1.0000
50.0940 6.8001 9.9448 1.0000
50.0940 6.9528 9.9489 1.0000
50.0940 7.1057 9.9531 1.0000
50.0940 7.8722 9.9754 1.0000
50.0940 8.1798 9.9849 1.0000
50.0940 8.4880 9.9949 1.0000
50.0940 9.1063 10.0159 1.0000
50.0940 9.2613 10.0214 1.0000
50.0941 9.5718 10.0327 1.0000
50.0941 10.0389 10.0503 1.0000
50.0941 10.1949 10.0564 1.0000
50.0941 10.3512 10.0626 1.0000
50.0941 10.8211 10.0817 1.0000
50.0941 10.9782 10.0883 1.0000
50.0941 11.1354 10.0949 1.0000
50.0941 11.2929 10.1017 1.0000
50.0941 11.6084 10.1156 1.0000
50.0941 12.0834 10.1370 1.0000
50.0941 12.7200 10.1671 1.0000
50.0941 12.8798 10.1749 1.0000
50.0941 13.0398 10.1828 1.0000
50.0941 13.2000 10.1908 1.0000
50.0940 -13.3242 10.1971 1.0000
50.0940 -13.0036 10.1810 1.0000
50.0940 -12.8437 10.1732 1.0000
50.0940 -12.2064 10.1427 1.0000
50.0940 -12.0477 10.1354 1.0000
50.0941 -11.7309 10.1210 1.0000
50.0941 -11.5729 10.1140 1.0000
50.0941 -10.7857 10.0803 1.0000
50.0941 -10.4723 10.0674 1.0000
50.0941 -9.3815 10.0257 1.0000
50.0940 -9.2263 10.0202 1.0000
50.0941 -9.0714 10.0147 1.0000
50.0941 -8.6076 9.9988 1.0000
50.0940 -8.4533 9.9937 1.0000
50.0940 -8.2991 9.9887 1.0000
50.0940 -7.9913 9.9790 1.0000
50.0941 -7.8377 9.9743 1.0000
50.0941 -7.6841 9.9697 1.0000
50.0940 -7.5306 9.9652 1.0000
50.0941 -13.1886 9.2843 1.0000
50.0941 -13.0284 9.2771 1.0000
50.0941 -12.8684 9.2699 1.0000
50.0941 -12.5492 9.2558 1.0000
50.0941 -12.3900 9.2489 1.0000
50.0941 -11.9137 9.2288 1.0000
50.0941 -11.5972 9.2159 1.0000
50.0941 -11.4394 9.2095 1.0000
50.0940 -10.9670 9.1910 1.0000
50.0940 -10.6532 9.1792 1.0000
50.0940 -10.4966 9.1734 1.0000
50.0940 -10.3401 9.1677 1.0000
50.0940 -9.8720 9.1511 1.0000
50.0940 -9.5608 9.1405 1.0000
50.0940 -9.2503 9.1302 1.0000
50.0940 -9.0953 9.1252 1.0000
50.0940 -8.9405 9.1203 1.0000
50.0941 -8.6314 9.1107 1.0000
50.0940 -8.4771 9.1060 1.0000
50.0940 -8.3229 9.1015 1.0000
50.0940 -8.0150 9.0926 1.0000
50.0940 -7.7077 9.0841 1.0000
50.0939 -7.4011 9.0758 1.0000
50.0939 -7.2479 9.0719 1.0000
50.0939 -7.0949 9.0680 1.0000
50.0939 -6.9420 9.0642 1.0000
50.0939 -6.7892 9.0605 1.0000
50.0939 -6.1794 9.0464 1.0000
50.0939 -6.0272 9.0431 1.0000
50.0939 -5.7232 9.0368 1.0000
50.0939 -5.5714 9.0337 1.0000
50.0939 -5.4196 9.0308 1.0000
50.0939 -5.1164 9.0251 1.0000
50.0939 -4.5111 9.0147 1.0000
50.0939 -4.3599 9.0123 1.0000
50.0939 -3.7562 9.0036 1.0000
50.0939 -3.6054 9.0016 1.0000
50.0939 -3.1536 8.9962 1.0000
50.0939 -3.0030 8.9945 1.0000
50.0940 -2.2512 8.9875 1.0000
50.0939 -2.1010 8.9863 1.0000
50.0940 -1.9508 8.9852 1.0000
50.0940 -1.6505 8.9833 1.0000
50.0940 -0.9002 8.9798 1.0000
50.0940 -0.7502 8.9794 1.0000
50.0940 -0.4504 8.9787 1.0000
50.0940 -0.3004 8.9786 1.0000
50.0940 -0.1504 8.9784 1.0000
50.0940 -0.0005 8.9784 1.0000
50.0940 0.7493 8.9794 1.0000
50.0940 0.8993 8.9798 1.0000
50.0940 1.0493 8.9804 1.0000
50.0940 1.1993 8.9810 1.0000
50.0940 1.4994 8.9824 1.0000
50.0940 1.9499 8.9852 1.0000
50.0940 2.2503 8.9874 1.0000
50.0940 2.7012 8.9914 1.0000
50.0940 3.0021 8.9945 1.0000
50.0940 3.1526 8.9962 1.0000
50.0940 3.3031 8.9979 1.0000
50.0940 3.7552 9.0036 1.0000
50.0940 3.9061 9.0056 1.0000
50.0940 4.0569 9.0078 1.0000
50.0940 4.2079 9.0100 1.0000
50.0940 4.5100 9.0147 1.0000
50.0940 4.8125 9.0197 1.0000
50.0940 4.9639 9.0224 1.0000
50.0940 5.4186 9.0308 1.0000
50.0940 5.5704 9.0337 1.0000
50.0940 5.7222 9.0368 1.0000
50.0940 6.0262 9.0431 1.0000
50.0940 6.1784 9.0464 1.0000
50.0940 6.3307 9.0498 1.0000
50.0940 6.4831 9.0533 1.0000
50.0940 6.6356 9.0568 1.0000
50.0940 6.7882 9.0605 1.0000
50.0940 6.9410 9.0642 1.0000
50.0940 7.4001 9.0758 1.0000
50.0940 8.0141 9.0926 1.0000
50.0940 8.1679 9.0970 1.0000
50.0940 8.7849 9.1154 1.0000
50.0940 9.2493 9.1302 1.0000
50.0940 9.5598 9.1404 1.0000
50.0940 9.7153 9.1457 1.0000
50.0940 10.1829 9.1620 1.0000
50.0940 10.3391 9.1676 1.0000
50.0940 10.4955 9.1733 1.0000
50.0940 10.6521 9.1791 1.0000
50.0940 10.8089 9.1850 1.0000
50.0940 11.2807 9.2032 1.0000
50.0940 11.5962 9.2158 1.0000
50.0940 11.9127 9.2288 1.0000
50.0940 12.2300 9.2421 1.0000
50.0940 12.3890 9.2489 1.0000
50.0940 12.7077 9.2628 1.0000
50.0941 -13.3366 9.2911 1.0000
50.0941 -13.1762 9.2838 1.0000
50.0941 -13.0160 9.2765 1.0000
50.0941 -12.5369 9.2553 1.0000
50.0941 -12.0599 9.2349 1.0000
50.0941 -11.9014 9.2283 1.0000
50.0941 -11.7431 9.2218 1.0000
50.0941 -11.5851 9.2154 1.0000
50.0941 -11.2696 9.2028 1.0000
50.0940 -11.1121 9.1966 1.0000
50.0940 -10.4845 9.1729 1.0000
50.0940 -10.3280 9.1672 1.0000
50.0940 -10.1718 9.1616 1.0000
50.0941 -10.0158 9.1561 1.0000
50.0940 -9.8599 9.1507 1.0000
50.0940 -9.7043 9.1453 1.0000
50.0940 -9.3934 9.1349 1.0000
50.0940 -9.2383 9.1298 1.0000
50.0940 -9.0834 9.1248 1.0000
50.0940 -8.9285 9.1199 1.0000
50.0940 -8.6195 9.1103 1.0000
50.0940 -8.4652 9.1057 1.0000
50.0940 -8.3110 9.1011 1.0000
50.0940 -7.8495 9.0880 1.0000
50.0941 -7.6959 9.0837 1.0000
50.0939 -7.3893 9.0755 1.0000
50.0939 -7.2361 9.0716 1.0000
50.0939 -7.0831 9.0677 1.0000
50.0939 -6.9302 9.0639 1.0000
50.0939 -6.4723 9.0530 1.0000
50.0939 -6.0155 9.0429 1.0000
50.0939 -5.7114 9.0366 1.0000
50.0939 -5.4079 9.0305 1.0000
50.0939 -4.8018 9.0195 1.0000
50.0940 -4.4994 9.0145 1.0000
50.0939 -4.3482 9.0121 1.0000
50.0939 -3.8954 9.0055 1.0000
50.0939 -3.5938 9.0015 1.0000
50.0939 -3.2925 8.9978 1.0000
50.0939 -3.1419 8.9960 1.0000
50.0939 -2.6905 8.9913 1.0000
50.0939 -2.0894 8.9862 1.0000
50.0940 -1.9391 8.9851 1.0000
50.0940 -1.7890 8.9841 1.0000
50.0940 -1.3387 8.9816 1.0000
50.0940 -1.1887 8.9809 1.0000
50.0940 -0.7387 8.9794 1.0000
50.0940 -0.5887 8.9790 1.0000
50.0940 -0.2888 8.9785 1.0000
50.0940 -0.1388 8.9784 1.0000
50.0940 0.0111 8.9784 1.0000
50.0940 0.4610 8.9788 1.0000
50.0940 0.6109 8.9791 1.0000
50.0940 0.9109 8.9799 1.0000
50.0940 1.0609 8.9804 1.0000
50.0940 1.3610 8.9817 1.0000
50.0940 1.5111 8.9825 1.0000
50.0940 1.6611 8.9833 1.0000
50.0940 1.8112 8.9843 1.0000
50.0940 2.1116 8.9864 1.0000
50.0940 2.2619 8.9875 1.0000
50.0940 2.5625 8.9901 1.0000
50.0940 3.6161 9.0017 1.0000
50.0940 3.7668 9.0037 1.0000
50.0940 4.0686 9.0080 1.0000
50.0940 4.2196 9.0102 1.0000
50.0940 4.5218 9.0149 1.0000
50.0940 4.9756 9.0226 1.0000
50.0940 5.2786 9.0281 1.0000
50.0940 5.4303 9.0310 1.0000
50.0940 5.8859 9.0402 1.0000
50.0940 6.0380 9.0434 1.0000
50.0940 6.1901 9.0467 1.0000
50.0940 6.3425 9.0501 1.0000
50.0940 6.4949 9.0535 1.0000
50.0940 6.6474 9.0571 1.0000
50.0940 6.8000 9.0607 1.0000
50.0940 6.9529 9.0645 1.0000
50.0940 7.1057 9.0683 1.0000
50.0940 7.4119 9.0761 1.0000
50.0940 7.5652 9.0802 1.0000
50.0940 7.7186 9.0844 1.0000
50.0940 7.8722 9.0886 1.0000
50.0940 8.3338 9.1018 1.0000
50.0940 8.4880 9.1064 1.0000
50.0940 9.1063 9.1255 1.0000
50.0940 9.2613 9.1305 1.0000
50.0940 9.4164 9.1356 1.0000
50.0940 9.5718 9.1408 1.0000
50.0940 9.7273 9.1461 1.0000
50.0940 10.1949 9.1624 1.0000
50.0940 10.3512 9.1681 1.0000
50.0940 10.5076 9.1738 1.0000
50.0940 10.6643 9.1796 1.0000
50.0940 11.7666 9.2228 1.0000
50.0940 12.2423 9.2426 1.0000
50.0940 12.4013 9.2494 1.0000
50.0940 12.7200 9.2633 1.0000
50.0940 12.8798 9.2704 1.0000
50.0940 13.2000 9.2849 1.0000
50.0941 -13.3243 9.2906 1.0000
50.0941 -13.1638 9.2832 1.0000
50.0941 -12.8437 9.2688 1.0000
50.0941 -11.8892 9.2278 1.0000
50.0941 -11.7309 9.2213 1.0000
50.0941 -11.5729 9.2149 1.0000
50.0940 -11.2573 9.2023 1.0000
50.0940 -11.1000 9.1962 1.0000
50.0941 -10.7858 9.1842 1.0000
50.0940 -10.3159 9.1668 1.0000
50.0940 -9.3815 9.1345 1.0000
50.0940 -9.0714 9.1244 1.0000
50.0940 -8.7620 9.1147 1.0000
50.0940 -8.6075 9.1100 1.0000
50.0940 -8.2991 9.1008 1.0000
50.0940 -8.1452 9.0963 1.0000
50.0941 -7.8376 9.0876 1.0000
50.0940 -7.5306 9.0793 1.0000
50.0940 -13.1885 8.3839 1.0000
50.0940 -13.0284 8.3774 1.0000
50.0940 -12.8684 8.3709 1.0000
50.0940 -12.7087 8.3645 1.0000
50.0940 -12.5492 8.3582 1.0000
50.0940 -12.3900 8.3520 1.0000
50.0940 -11.5972 8.3221 1.0000
50.0940 -11.2817 8.3107 1.0000
50.0940 -10.9670 8.2997 1.0000
50.0940 -10.8100 8.2943 1.0000
50.0940 -10.4965 8.2837 1.0000
50.0940 -10.3401 8.2786 1.0000
50.0940 -10.1839 8.2735 1.0000
50.0940 -9.7162 8.2588 1.0000
50.0940 -9.2503 8.2447 1.0000
50.0940 -8.4771 8.2229 1.0000
50.0940 -8.3229 8.2188 1.0000
50.0940 -8.1689 8.2148 1.0000
50.0939 -7.4011 8.1957 1.0000
50.0939 -7.2479 8.1921 1.0000
50.0939 -7.0949 8.1886 1.0000
50.0939 -6.9420 8.1851 1.0000
50.0939 -6.6366 8.1785 1.0000
50.0939 -6.4840 8.1753 1.0000
50.0939 -6.1794 8.1691 1.0000
50.0939 -6.0271 8.1661 1.0000
50.0939 -5.8751 8.1632 1.0000
50.0939 -5.5713 8.1576 1.0000
50.0939 -5.4196 8.1550 1.0000
50.0939 -4.8135 8.1450 1.0000
50.0939 -4.5111 8.1405 1.0000
50.0939 -4.3599 8.1383 1.0000
50.0939 -3.7561 8.1304 1.0000
50.0939 -3.6054 8.1286 1.0000
50.0939 -3.4547 8.1269 1.0000
50.0939 -3.3041 8.1253 1.0000
50.0939 -3.0030 8.1222 1.0000
50.0939 -2.8525 8.1208 1.0000
50.0939 -2.7021 8.1194 1.0000
50.0939 -2.5518 8.1182 1.0000
50.0939 -2.4014 8.1170 1.0000
50.0939 -2.2512 8.1158 1.0000
50.0939 -2.1010 8.1148 1.0000
50.0939 -1.9508 8.1138 1.0000
50.0939 -1.6505 8.1121 1.0000
50.0939 -1.3503 8.1106 1.0000
50.0939 -0.9002 8.1090 1.0000
50.0939 -0.7502 8.1086 1.0000
50.0939 -0.1504 8.1077 1.0000
50.0939 0.2995 8.1078 1.0000
50.0939 0.5994 8.1082 1.0000
50.0939 0.7493 8.1086 1.0000
50.0939 1.0493 8.1094 1.0000
50.0939 1.3494 8.1106 1.0000
50.0939 1.4995 8.1113 1.0000
50.0939 2.1000 8.1148 1.0000
50.0939 2.5508 8.1182 1.0000
50.0939 2.8516 8.1208 1.0000
50.0939 3.0021 8.1222 1.0000
50.0940 3.3031 8.1253 1.0000
50.0939 3.4537 8.1269 1.0000
50.0939 3.9060 8.1323 1.0000
50.0940 4.2079 8.1362 1.0000
50.0940 4.5101 8.1404 1.0000
50.0940 4.6613 8.1427 1.0000
50.0939 5.2670 8.1523 1.0000
50.0940 5.4186 8.1550 1.0000
50.0940 5.5703 8.1576 1.0000
50.0940 6.1784 8.1691 1.0000
50.0940 6.4830 8.1753 1.0000
50.0939 6.6356 8.1785 1.0000
50.0940 7.0939 8.1886 1.0000
50.0940 7.2469 8.1921 1.0000
50.0940 7.4001 8.1956 1.0000
50.0940 8.6304 8.2271 1.0000
50.0940 9.0943 8.2402 1.0000
50.0940 9.7152 8.2587 1.0000
50.0940 10.1829 8.2735 1.0000
50.0940 10.3391 8.2786 1.0000
50.0940 10.6521 8.2889 1.0000
50.0940 10.8090 8.2943 1.0000
50.0939 11.2807 8.3107 1.0000
50.0939 11.7543 8.3279 1.0000
50.0939 11.9127 8.3338 1.0000
50.0939 12.0712 8.3397 1.0000
50.0939 12.2300 8.3458 1.0000
50.0939 12.5482 8.3582 1.0000
50.0939 12.7077 8.3645 1.0000
50.0939 13.0273 8.3773 1.0000
50.0940 13.3481 8.3906 1.0000
50.0940 -13.0160 8.3769 1.0000
50.0940 -12.8561 8.3704 1.0000
50.0940 -12.3777 8.3515 1.0000
50.0940 -12.2187 8.3454 1.0000
50.0940 -11.9014 8.3333 1.0000
50.0940 -11.7431 8.3275 1.0000
50.0940 -11.5850 8.3217 1.0000
50.0940 -11.4272 8.3159 1.0000
50.0940 -10.6411 8.2886 1.0000
50.0940 -10.1718 8.2731 1.0000
50.0940 -10.0157 8.2681 1.0000
50.0940 -9.8599 8.2632 1.0000
50.0940 -9.7043 8.2584 1.0000
50.0940 -9.5488 8.2536 1.0000
50.0940 -9.2383 8.2444 1.0000
50.0940 -8.9285 8.2354 1.0000
50.0940 -8.7739 8.2311 1.0000
50.0940 -8.6195 8.2268 1.0000
50.0940 -8.1570 8.2144 1.0000
50.0940 -7.8494 8.2066 1.0000
50.0939 -7.3892 8.1954 1.0000
50.0939 -7.0830 8.1883 1.0000
50.0939 -6.7774 8.1815 1.0000
50.0939 -6.3198 8.1719 1.0000
50.0939 -6.1676 8.1689 1.0000
50.0939 -6.0154 8.1659 1.0000
50.0939 -5.5596 8.1574 1.0000
50.0939 -5.2562 8.1522 1.0000
50.0939 -4.9532 8.1472 1.0000
50.0939 -4.8018 8.1448 1.0000
50.0939 -4.4993 8.1403 1.0000
50.0939 -4.3482 8.1381 1.0000
50.0939 -3.8954 8.1321 1.0000
50.0939 -3.7445 8.1303 1.0000
50.0939 -3.5937 8.1285 1.0000
50.0939 -2.9914 8.1221 1.0000
50.0939 -2.6905 8.1193 1.0000
50.0939 -2.5401 8.1181 1.0000
50.0939 -2.3898 8.1169 1.0000
50.0939 -2.2396 8.1158 1.0000
50.0940 -2.0894 8.1147 1.0000
50.0939 -1.6389 8.1120 1.0000
50.0939 -1.4888 8.1112 1.0000
50.0939 -1.1887 8.1099 1.0000
50.0939 -1.0387 8.1094 1.0000
50.0939 -0.8886 8.1089 1.0000
50.0939 -0.7387 8.1085 1.0000
50.0940 -0.4387 8.1080 1.0000
50.0939 -0.2887 8.1078 1.0000
50.0939 -0.1388 8.1077 1.0000
50.0939 0.0111 8.1077 1.0000
50.0939 0.3110 8.1078 1.0000
50.0939 0.7609 8.1086 1.0000
50.0939 0.9109 8.1090 1.0000
50.0939 1.5111 8.1113 1.0000
50.0939 1.6612 8.1121 1.0000
50.0939 1.9614 8.1139 1.0000
50.0939 2.1116 8.1149 1.0000
50.0940 2.5624 8.1183 1.0000
50.0940 2.7128 8.1195 1.0000
50.0939 2.8632 8.1209 1.0000
50.0940 3.3148 8.1254 1.0000
50.0940 3.4654 8.1270 1.0000
50.0940 3.6161 8.1288 1.0000
50.0940 3.9177 8.1324 1.0000
50.0940 4.3706 8.1385 1.0000
50.0940 4.6730 8.1429 1.0000
50.0940 4.9756 8.1476 1.0000
50.0939 5.1271 8.1500 1.0000
50.0940 5.2787 8.1525 1.0000
50.0940 5.4303 8.1552 1.0000
50.0940 5.7339 8.1606 1.0000
50.0940 6.0380 8.1663 1.0000
50.0939 6.3425 8.1724 1.0000
50.0939 6.9528 8.1854 1.0000
50.0939 7.1057 8.1888 1.0000
50.0939 7.4120 8.1959 1.0000
50.0940 7.5652 8.1996 1.0000
50.0940 7.7186 8.2033 1.0000
50.0940 8.0259 8.2111 1.0000
50.0940 8.1798 8.2150 1.0000
50.0940 8.3338 8.2191 1.0000
50.0940 8.4880 8.2232 1.0000
50.0940 8.7968 8.2317 1.0000
50.0939 9.1063 8.2405 1.0000
50.0940 9.4164 8.2497 1.0000
50.0940 9.7273 8.2591 1.0000
50.0939 10.1949 8.2739 1.0000
50.0939 10.5077 8.2841 1.0000
50.0939 11.1354 8.3056 1.0000
50.0939 11.2929 8.3111 1.0000
50.0939 11.6084 8.3225 1.0000
50.0939 11.9248 8.3342 1.0000
50.0939 12.0834 8.3402 1.0000
50.0939 12.5605 8.3586 1.0000
50.0939 12.7200 8.3650 1.0000
50.0939 12.8797 8.3714 1.0000
50.0940 13.3605 8.3911 1.0000
50.0941 -13.1637 8.3829 1.0000
50.0940 -12.8437 8.3699 1.0000
50.0940 -11.8892 8.3329 1.0000
50.0940 -11.5729 8.3212 1.0000
50.0940 -11.4150 8.3155 1.0000
50.0940 -11.2574 8.3099 1.0000
50.0940 -10.9427 8.2988 1.0000
50.0940 -10.7857 8.2935 1.0000
50.0940 -10.6289 8.2882 1.0000
50.0940 -10.4723 8.2829 1.0000
50.0940 -10.3159 8.2778 1.0000
50.0940 -10.1597 8.2727 1.0000
50.0940 -9.0714 8.2395 1.0000
50.0940 -8.6075 8.2265 1.0000
50.0940 -8.4532 8.2223 1.0000
50.0940 -7.6840 8.2025 1.0000
50.0940 -13.3491 7.4944 1.0000
50.0940 -13.1886 7.4885 1.0000
50.0940 -13.0284 7.4826 1.0000
50.0940 -12.7087 7.4711 1.0000
50.0940 -12.0722 7.4490 1.0000
50.0940 -11.1243 7.4181 1.0000
50.0940 -10.9670 7.4132 1.0000
50.0940 -10.8100 7.4084 1.0000
50.0940 -10.1839 7.3898 1.0000
50.0940 -10.0278 7.3854 1.0000
50.0940 -9.8720 7.3810 1.0000
50.0940 -9.7163 7.3766 1.0000
50.0940 -9.5608 7.3724 1.0000
50.0940 -9.4055 7.3682 1.0000
50.0940 -9.0953 7.3601 1.0000
50.0940 -8.7859 7.3522 1.0000
50.0940 -8.0151 7.3338 1.0000
50.0940 -7.5543 7.3236 1.0000
50.0939 -6.9420 7.3109 1.0000
50.0939 -6.7892 7.3079 1.0000
50.0939 -6.0272 7.2939 1.0000
50.0939 -5.8752 7.2913 1.0000
50.0939 -5.7232 7.2888 1.0000
50.0939 -5.2679 7.2816 1.0000
50.0939 -4.6623 7.2730 1.0000
50.0939 -4.5111 7.2710 1.0000
50.0939 -4.0579 7.2654 1.0000
50.0939 -3.7562 7.2620 1.0000
50.0939 -3.4547 7.2589 1.0000
50.0939 -2.8526 7.2534 1.0000
50.0939 -2.7021 7.2522 1.0000
50.0939 -2.5518 7.2511 1.0000
50.0939 -2.4015 7.2500 1.0000
50.0940 -2.1010 7.2480 1.0000
50.0940 -1.9508 7.2472 1.0000
50.0940 -1.8006 7.2464 1.0000
50.0940 -1.3504 7.2443 1.0000
50.0940 -0.9003 7.2428 1.0000
50.0940 -0.6003 7.2422 1.0000
50.0940 0.2994 7.2418 1.0000
50.0940 0.4493 7.2420 1.0000
50.0940 0.5993 7.2422 1.0000
50.0940 1.1993 7.2438 1.0000
50.0940 1.3493 7.2443 1.0000
50.0940 1.6495 7.2456 1.0000
50.0940 1.7996 7.2463 1.0000
50.0940 1.9498 7.2472 1.0000
50.0940 2.1000 7.2480 1.0000
50.0940 2.4005 7.2500 1.0000
50.0940 2.5508 7.2511 1.0000
50.0940 2.8516 7.2534 1.0000
50.0940 3.0020 7.2547 1.0000
50.0940 3.1525 7.2560 1.0000
50.0940 3.7552 7.2620 1.0000
50.0940 3.9060 7.2637 1.0000
50.0939 4.5101 7.2710 1.0000
50.0939 4.8125 7.2750 1.0000
50.0940 4.9639 7.2771 1.0000
50.0940 5.1154 7.2793 1.0000
50.0940 6.0262 7.2939 1.0000
50.0940 6.1784 7.2965 1.0000
50.0939 6.3307 7.2993 1.0000
50.0939 6.4831 7.3021 1.0000
50.0940 6.7882 7.3079 1.0000
50.0940 7.4000 7.3203 1.0000
50.0940 7.5533 7.3235 1.0000
50.0940 8.0140 7.3338 1.0000
50.0939 8.3219 7.3409 1.0000
50.0939 8.6304 7.3484 1.0000
50.0939 8.7849 7.3522 1.0000
50.0940 8.9395 7.3561 1.0000
50.0940 9.2493 7.3641 1.0000
50.0940 9.4044 7.3682 1.0000
50.0939 9.5598 7.3724 1.0000
50.0940 9.8709 7.3809 1.0000
50.0940 10.1829 7.3898 1.0000
50.0940 10.3391 7.3943 1.0000
50.0940 11.2807 7.4230 1.0000
50.0940 11.4383 7.4281 1.0000
50.0940 11.5962 7.4332 1.0000
50.0939 11.7543 7.4384 1.0000
50.0940 12.0711 7.4490 1.0000
50.0940 12.2300 7.4544 1.0000
50.0940 12.3889 7.4599 1.0000
50.0940 13.1875 7.4884 1.0000
50.0939 13.3480 7.4944 1.0000
50.0940 -13.3366 7.4939 1.0000
50.0940 -12.8561 7.4764 1.0000
50.0940 -12.5369 7.4650 1.0000
50.0940 -12.0599 7.4486 1.0000
50.0940 -11.7431 7.4380 1.0000
50.0940 -11.5851 7.4328 1.0000
50.0940 -11.4272 7.4277 1.0000
50.0940 -11.2695 7.4227 1.0000
50.0940 -11.1121 7.4177 1.0000
50.0940 -10.9549 7.4128 1.0000
50.0940 -10.7979 7.4080 1.0000
50.0940 -10.6411 7.4033 1.0000
50.0940 -10.3280 7.3940 1.0000
50.0940 -10.0158 7.3850 1.0000
50.0940 -9.7043 7.3763 1.0000
50.0940 -9.5487 7.3721 1.0000
50.0940 -8.7739 7.3519 1.0000
50.0940 -8.6195 7.3481 1.0000
50.0940 -8.1570 7.3371 1.0000
50.0940 -7.8495 7.3300 1.0000
50.0940 -7.5425 7.3233 1.0000
50.0939 -7.3892 7.3200 1.0000
50.0939 -7.2361 7.3168 1.0000
50.0939 -7.0830 7.3137 1.0000
50.0939 -6.9302 7.3106 1.0000
50.0939 -6.7774 7.3077 1.0000
50.0939 -6.1676 7.2964 1.0000
50.0939 -6.0155 7.2937 1.0000
50.0939 -5.8634 7.2911 1.0000
50.0939 -5.7114 7.2886 1.0000
50.0939 -5.5596 7.2861 1.0000
50.0939 -5.4079 7.2838 1.0000
50.0939 -5.2562 7.2814 1.0000
50.0939 -4.9532 7.2770 1.0000
50.0939 -4.3482 7.2689 1.0000
50.0939 -4.1972 7.2671 1.0000
50.0939 -4.0462 7.2653 1.0000
50.0939 -3.4431 7.2588 1.0000
50.0939 -3.2925 7.2573 1.0000
50.0939 -3.1419 7.2559 1.0000
50.0939 -2.8409 7.2533 1.0000
50.0939 -2.5402 7.2510 1.0000
50.0939 -2.3898 7.2499 1.0000
50.0940 -2.2396 7.2489 1.0000
50.0940 -1.9392 7.2471 1.0000
50.0940 -1.7890 7.2463 1.0000
50.0940 -1.4888 7.2449 1.0000
50.0940 -1.3387 7.2443 1.0000
50.0940 -1.0387 7.2432 1.0000
50.0940 -0.5887 7.2422 1.0000
50.0940 -0.2888 7.2418 1.0000
50.0940 0.1611 7.2417 1.0000
50.0940 0.3110 7.2418 1.0000
50.0940 0.4610 7.2420 1.0000
50.0940 1.2109 7.2438 1.0000
50.0940 1.3609 7.2443 1.0000
50.0940 1.6611 7.2457 1.0000
50.0940 1.9614 7.2472 1.0000
50.0940 2.2618 7.2491 1.0000
50.0940 2.4121 7.2501 1.0000
50.0940 2.8632 7.2535 1.0000
50.0940 3.0137 7.2548 1.0000
50.0940 3.1642 7.2561 1.0000
50.0940 3.3147 7.2575 1.0000
50.0940 3.4654 7.2590 1.0000
50.0940 3.6161 7.2605 1.0000
50.0940 3.9176 7.2638 1.0000
50.0940 4.0686 7.2655 1.0000
50.0939 4.2196 7.2673 1.0000
50.0940 4.3706 7.2692 1.0000
50.0940 4.5217 7.2711 1.0000
50.0940 4.6729 7.2731 1.0000
50.0940 4.8242 7.2752 1.0000
50.0940 4.9756 7.2773 1.0000
50.0940 5.8859 7.2915 1.0000
50.0940 6.1901 7.2968 1.0000
50.0940 6.3424 7.2995 1.0000
50.0939 6.4949 7.3023 1.0000
50.0939 6.9528 7.3111 1.0000
50.0940 7.2587 7.3173 1.0000
50.0940 7.7186 7.3271 1.0000
50.0940 7.8722 7.3306 1.0000
50.0940 8.0259 7.3340 1.0000
50.0940 8.3338 7.3412 1.0000
50.0940 8.4880 7.3449 1.0000
50.0939 8.6423 7.3487 1.0000
50.0940 8.9515 7.3564 1.0000
50.0940 9.2613 7.3644 1.0000
50.0939 9.4164 7.3685 1.0000
50.0940 9.5718 7.3727 1.0000
50.0940 9.7273 7.3769 1.0000
50.0940 9.8830 7.3813 1.0000
50.0940 10.0388 7.3857 1.0000
50.0940 10.5076 7.3993 1.0000
50.0940 10.6643 7.4040 1.0000
50.0940 10.8211 7.4087 1.0000
50.0940 11.4505 7.4285 1.0000
50.0939 11.9249 7.4440 1.0000
50.0939 12.0834 7.4494 1.0000
50.0939 12.8797 7.4772 1.0000
50.0940 -13.1638 7.4875 1.0000
50.0940 -13.0037 7.4817 1.0000
50.0940 -12.8438 7.4759 1.0000
50.0940 -12.6841 7.4702 1.0000
50.0940 -11.7309 7.4376 1.0000
50.0940 -11.5729 7.4324 1.0000
50.0940 -11.1000 7.4173 1.0000
50.0940 -10.6290 7.4029 1.0000
50.0940 -10.3160 7.3936 1.0000
50.0940 -9.6923 7.3760 1.0000
50.0940 -9.5368 7.3718 1.0000
50.0940 -9.3815 7.3676 1.0000
50.0940 -9.2264 7.3635 1.0000
50.0940 -9.0714 7.3595 1.0000
50.0940 -8.9166 7.3555 1.0000
50.0940 -8.7620 7.3516 1.0000
50.0940 -8.4533 7.3441 1.0000
50.0940 -7.8377 7.3298 1.0000
50.0940 -7.6841 7.3264 1.0000
50.0940 -7.5306 7.3231 1.0000
50.0940 -13.3491 6.6026 1.0000
50.0940 -13.1886 6.5973 1.0000
50.0940 -13.0284 6.5922 1.0000
50.0940 -12.5493 6.5771 1.0000
50.0940 -12.2310 6.5673 1.0000
50.0940 -11.7554 6.5532 1.0000
50.0940 -11.5973 6.5487 1.0000
50.0940 -10.9670 6.5310 1.0000
50.0940 -10.6532 6.5226 1.0000
50.0940 -10.3401 6.5144 1.0000
50.0940 -9.8720 6.5026 1.0000
50.0940 -9.4054 6.4914 1.0000
50.0940 -9.2503 6.4878 1.0000
50.0940 -9.0954 6.4842 1.0000
50.0940 -8.9405 6.4807 1.0000
50.0940 -8.7859 6.4773 1.0000
50.0940 -8.6314 6.4739 1.0000
50.0940 -8.1689 6.4642 1.0000
50.0940 -7.8614 6.4580 1.0000
50.0940 -7.5543 6.4521 1.0000
50.0939 -7.4011 6.4492 1.0000
50.0939 -7.2479 6.4463 1.0000
50.0939 -7.0949 6.4436 1.0000
50.0939 -6.4841 6.4331 1.0000
50.0939 -6.1794 6.4283 1.0000
50.0939 -5.8751 6.4236 1.0000
50.0939 -5.7232 6.4214 1.0000
50.0939 -5.1164 6.4131 1.0000
50.0939 -4.8135 6.4093 1.0000
50.0939 -4.6622 6.4075 1.0000
50.0939 -4.5110 6.4057 1.0000
50.0939 -4.0579 6.4008 1.0000
50.0939 -3.9070 6.3993 1.0000
50.0939 -3.3041 6.3938 1.0000
50.0939 -3.0030 6.3914 1.0000
50.0939 -2.8525 6.3902 1.0000
50.0939 -2.5518 6.3882 1.0000
50.0939 -2.4015 6.3872 1.0000
50.0939 -2.1009 6.3855 1.0000
50.0939 -1.9507 6.3847 1.0000
50.0939 -1.8006 6.3840 1.0000
50.0939 -1.5004 6.3828 1.0000
50.0939 -1.3503 6.3822 1.0000
50.0939 -0.6003 6.3804 1.0000
50.0939 -0.3004 6.3800 1.0000
50.0939 0.1495 6.3799 1.0000
50.0939 0.2995 6.3800 1.0000
50.0939 0.7493 6.3806 1.0000
50.0939 0.8993 6.3809 1.0000
50.0939 1.4995 6.3828 1.0000
50.0939 1.7997 6.3840 1.0000
50.0939 2.2503 6.3863 1.0000
50.0939 2.4005 6.3872 1.0000
50.0939 2.5508 6.3882 1.0000
50.0939 2.7012 6.3892 1.0000
50.0939 3.4538 6.3951 1.0000
50.0939 3.6045 6.3964 1.0000
50.0939 4.2079 6.4024 1.0000
50.0939 4.3589 6.4040 1.0000
50.0939 4.6613 6.4075 1.0000
50.0939 5.1154 6.4131 1.0000
50.0939 5.2670 6.4151 1.0000
50.0939 5.8742 6.4236 1.0000
50.0939 6.1784 6.4283 1.0000
50.0939 6.7883 6.4382 1.0000
50.0939 6.9410 6.4409 1.0000
50.0939 7.0939 6.4436 1.0000
50.0939 7.8604 6.4580 1.0000
50.0939 8.3219 6.4674 1.0000
50.0939 8.6304 6.4739 1.0000
50.0939 9.0943 6.4842 1.0000
50.0939 9.4045 6.4914 1.0000
50.0939 9.5598 6.4950 1.0000
50.0939 9.8709 6.5026 1.0000
50.0939 10.4956 6.5184 1.0000
50.0939 10.6521 6.5226 1.0000
50.0939 10.8090 6.5268 1.0000
50.0939 11.1232 6.5353 1.0000
50.0939 11.2807 6.5397 1.0000
50.0939 11.7543 6.5532 1.0000
50.0939 12.0712 6.5625 1.0000
50.0939 12.5482 6.5770 1.0000
50.0939 12.8674 6.5870 1.0000
50.0940 -13.3366 6.6021 1.0000
50.0940 -13.0160 6.5918 1.0000
50.0940 -12.5369 6.5767 1.0000
50.0940 -12.3777 6.5718 1.0000
50.0940 -11.9014 6.5575 1.0000
50.0940 -11.1121 6.5350 1.0000
50.0940 -10.9549 6.5307 1.0000
50.0940 -9.8600 6.5023 1.0000
50.0940 -9.7043 6.4985 1.0000
50.0940 -9.2383 6.4875 1.0000
50.0940 -9.0834 6.4840 1.0000
50.0940 -8.9286 6.4805 1.0000
50.0940 -8.6195 6.4737 1.0000
50.0940 -8.4652 6.4704 1.0000
50.0940 -8.3110 6.4671 1.0000
50.0940 -8.1570 6.4640 1.0000
50.0940 -8.0032 6.4608 1.0000
50.0939 -7.3892 6.4489 1.0000
50.0939 -7.2361 6.4461 1.0000
50.0939 -7.0830 6.4434 1.0000
50.0939 -6.9302 6.4407 1.0000
50.0939 -6.7774 6.4380 1.0000
50.0939 -6.6248 6.4355 1.0000
50.0939 -6.4723 6.4329 1.0000
50.0939 -6.3199 6.4305 1.0000
50.0939 -5.8634 6.4235 1.0000
50.0939 -5.5596 6.4191 1.0000
50.0939 -5.2562 6.4149 1.0000
50.0939 -5.1046 6.4129 1.0000
50.0939 -4.6505 6.4074 1.0000
50.0939 -4.4993 6.4056 1.0000
50.0939 -4.3482 6.4039 1.0000
50.0939 -4.0462 6.4007 1.0000
50.0939 -3.8954 6.3992 1.0000
50.0939 -3.7446 6.3977 1.0000
50.0939 -3.5938 6.3963 1.0000
50.0939 -3.2925 6.3937 1.0000
50.0939 -3.1419 6.3924 1.0000
50.0939 -2.9914 6.3913 1.0000
50.0939 -2.8409 6.3902 1.0000
50.0939 -2.6905 6.3891 1.0000
50.0939 -2.3899 6.3872 1.0000
50.0939 -2.0893 6.3855 1.0000
50.0939 -1.7889 6.3840 1.0000
50.0939 -1.6389 6.3833 1.0000
50.0939 -1.4888 6.3827 1.0000
50.0939 -1.3387 6.3822 1.0000
50.0939 -1.1887 6.3817 1.0000
50.0939 -1.0386 6.3813 1.0000
50.0939 -0.8886 6.3809 1.0000
50.0939 -0.5887 6.3804 1.0000
50.0939 -0.4387 6.3802 1.0000
50.0939 0.0111 6.3799 1.0000
50.0939 0.1611 6.3800 1.0000
50.0939 0.3111 6.3800 1.0000
50.0939 0.7609 6.3807 1.0000
50.0939 1.0609 6.3813 1.0000
50.0939 1.2110 6.3818 1.0000
50.0939 2.1117 6.3856 1.0000
50.0939 2.2619 6.3864 1.0000
50.0939 2.4121 6.3873 1.0000
50.0939 2.5625 6.3883 1.0000
50.0939 2.7129 6.3893 1.0000
50.0939 2.8632 6.3903 1.0000
50.0939 3.6161 6.3965 1.0000
50.0939 3.7669 6.3979 1.0000
50.0939 4.5218 6.4058 1.0000
50.0939 4.6730 6.4076 1.0000
50.0939 4.9757 6.4113 1.0000
50.0939 5.1271 6.4132 1.0000
50.0939 5.4304 6.4173 1.0000
50.0939 5.8859 6.4238 1.0000
50.0939 6.0380 6.4261 1.0000
50.0939 6.4949 6.4333 1.0000
50.0939 6.6474 6.4358 1.0000
50.0939 7.1057 6.4438 1.0000
50.0939 7.4119 6.4494 1.0000
50.0939 7.7186 6.4552 1.0000
50.0939 8.0260 6.4613 1.0000
50.0939 8.4880 6.4709 1.0000
50.0939 8.6424 6.4742 1.0000
50.0939 8.7968 6.4775 1.0000
50.0939 9.1063 6.4845 1.0000
50.0939 9.2613 6.4880 1.0000
50.0939 9.4165 6.4916 1.0000
50.0939 9.7273 6.4991 1.0000
50.0939 9.8830 6.5029 1.0000
50.0939 10.0389 6.5068 1.0000
50.0939 10.1949 6.5107 1.0000
50.0939 10.3512 6.5147 1.0000
50.0939 10.5076 6.5188 1.0000
50.0939 10.6643 6.5229 1.0000
50.0939 11.1354 6.5356 1.0000
50.0939 11.2929 6.5400 1.0000
50.0939 11.4505 6.5445 1.0000
50.0939 11.6085 6.5490 1.0000
50.0939 11.9249 6.5582 1.0000
50.0939 12.4012 6.5725 1.0000
50.0939 12.5605 6.5774 1.0000
50.0939 12.7200 6.5824 1.0000
50.0939 12.8797 6.5874 1.0000
50.0939 13.3604 6.6029 1.0000
50.0940 -13.3243 6.6017 1.0000
50.0940 -13.1639 6.5965 1.0000
50.0940 -12.8437 6.5863 1.0000
50.0940 -12.5246 6.5763 1.0000
50.0940 -12.2064 6.5666 1.0000
50.0940 -11.8892 6.5571 1.0000
50.0940 -11.7309 6.5525 1.0000
50.0940 -11.5729 6.5480 1.0000
50.0940 -11.2574 6.5390 1.0000
50.0940 -11.1000 6.5347 1.0000
50.0940 -10.7858 6.5261 1.0000
50.0940 -10.3160 6.5138 1.0000
50.0940 -10.1597 6.5098 1.0000
50.0940 -10.0037 6.5059 1.0000
50.0940 -9.8479 6.5020 1.0000
50.0940 -9.0714 6.4837 1.0000
50.0940 -8.9166 6.4802 1.0000
50.0940 -8.7620 6.4768 1.0000
50.0940 -8.6075 6.4734 1.0000
50.0940 -8.4532 6.4701 1.0000
50.0940 -8.2991 6.4669 1.0000
50.0940 -8.1451 6.4637 1.0000
50.0940 -7.9913 6.4606 1.0000
50.0940 -7.5306 6.4516 1.0000
50.0940 -12.8684 5.7011 1.0000
50.0939 -12.5492 5.6925 1.0000
50.0939 -12.3900 5.6882 1.0000
50.0940 -12.2310 5.6841 1.0000
50.0940 -11.9136 5.6759 1.0000
50.0940 -11.5972 5.6679 1.0000
50.0939 -11.4393 5.6640 1.0000
50.0940 -11.1243 5.6564 1.0000
50.0940 -10.9670 5.6526 1.0000
50.0940 -10.8100 5.6490 1.0000
50.0940 -10.6532 5.6453 1.0000
50.0939 -10.1839 5.6348 1.0000
50.0940 -9.8720 5.6281 1.0000
50.0939 -9.7162 5.6248 1.0000
50.0939 -9.4054 5.6183 1.0000
50.0939 -8.4771 5.6004 1.0000
50.0939 -8.0150 5.5921 1.0000
50.0940 -7.7078 5.5868 1.0000
50.0939 -7.4011 5.5818 1.0000
50.0939 -7.0948 5.5770 1.0000
50.0939 -6.9420 5.5746 1.0000
50.0939 -6.7892 5.5723 1.0000
50.0939 -6.4840 5.5679 1.0000
50.0939 -6.1794 5.5637 1.0000
50.0939 -6.0271 5.5617 1.0000
50.0939 -5.8751 5.5597 1.0000
50.0939 -5.7232 5.5578 1.0000
50.0939 -5.5713 5.5559 1.0000
50.0939 -5.4196 5.5541 1.0000
50.0939 -5.1163 5.5506 1.0000
50.0939 -4.9649 5.5489 1.0000
50.0939 -4.8135 5.5473 1.0000
50.0939 -4.6622 5.5457 1.0000
50.0939 -4.3599 5.5427 1.0000
50.0939 -3.9070 5.5386 1.0000
50.0939 -3.3041 5.5339 1.0000
50.0939 -3.0030 5.5318 1.0000
50.0939 -2.8525 5.5308 1.0000
50.0939 -2.5518 5.5290 1.0000
50.0939 -2.4015 5.5282 1.0000
50.0939 -2.2512 5.5274 1.0000
50.0939 -2.1009 5.5267 1.0000
50.0939 -1.9508 5.5260 1.0000
50.0939 -1.8006 5.5254 1.0000
50.0939 -1.5004 5.5243 1.0000
50.0939 -1.2003 5.5234 1.0000
50.0939 -1.0503 5.5231 1.0000
50.0939 -0.9002 5.5227 1.0000
50.0939 -0.4503 5.5221 1.0000
50.0939 -0.1504 5.5219 1.0000
50.0939 0.1495 5.5219 1.0000
50.0939 0.2994 5.5219 1.0000
50.0939 0.4494 5.5221 1.0000
50.0939 1.0493 5.5231 1.0000
50.0939 1.3493 5.5239 1.0000
50.0939 1.7996 5.5254 1.0000
50.0939 2.1000 5.5267 1.0000
50.0939 2.4005 5.5282 1.0000
50.0939 2.5509 5.5290 1.0000
50.0939 3.0020 5.5318 1.0000
50.0939 3.3031 5.5338 1.0000
50.0939 3.4537 5.5350 1.0000
50.0939 3.9060 5.5386 1.0000
50.0939 4.2079 5.5413 1.0000
50.0939 4.3589 5.5427 1.0000
50.0939 4.8126 5.5473 1.0000
50.0939 5.1154 5.5506 1.0000
50.0939 5.4186 5.5541 1.0000
50.0939 5.5704 5.5559 1.0000
50.0939 5.7222 5.5578 1.0000
50.0939 5.8741 5.5597 1.0000
50.0939 6.0262 5.5617 1.0000
50.0939 6.1784 5.5637 1.0000
50.0939 6.3307 5.5658 1.0000
50.0939 7.0939 5.5769 1.0000
50.0939 7.7068 5.5868 1.0000
50.0939 7.8603 5.5894 1.0000
50.0939 8.9395 5.6091 1.0000
50.0939 9.0943 5.6121 1.0000
50.0939 9.4045 5.6183 1.0000
50.0939 9.5598 5.6215 1.0000
50.0939 9.8709 5.6280 1.0000
50.0939 10.0268 5.6314 1.0000
50.0939 10.1829 5.6348 1.0000
50.0939 10.3391 5.6382 1.0000
50.0939 10.6522 5.6453 1.0000
50.0939 10.8090 5.6489 1.0000
50.0939 10.9660 5.6526 1.0000
50.0939 11.1232 5.6563 1.0000
50.0939 11.4384 5.6640 1.0000
50.0939 11.5962 5.6679 1.0000
50.0939 11.7543 5.6718 1.0000
50.0939 11.9126 5.6758 1.0000
50.0939 12.0712 5.6799 1.0000
50.0939 12.3889 5.6882 1.0000
50.0939 12.5482 5.6925 1.0000
50.0939 12.7077 5.6968 1.0000
50.0939 12.8674 5.7011 1.0000
50.0939 13.0273 5.7055 1.0000
50.0939 -13.0160 5.7052 1.0000
50.0940 -12.8561 5.7008 1.0000
50.0940 -12.6964 5.6965 1.0000
50.0940 -12.3777 5.6879 1.0000
50.0940 -12.0599 5.6796 1.0000
50.0939 -10.6411 5.6451 1.0000
50.0940 -10.4844 5.6415 1.0000
50.0939 -10.1718 5.6346 1.0000
50.0940 -10.0157 5.6311 1.0000
50.0939 -9.8599 5.6278 1.0000
50.0940 -9.7043 5.6245 1.0000
50.0939 -9.3934 5.6181 1.0000
50.0940 -8.9286 5.6089 1.0000
50.0940 -8.3110 5.5973 1.0000
50.0939 -8.0032 5.5919 1.0000
50.0940 -7.8495 5.5892 1.0000
50.0940 -7.6959 5.5866 1.0000
50.0940 -7.5425 5.5841 1.0000
50.0939 -7.2360 5.5792 1.0000
50.0939 -6.9302 5.5744 1.0000
50.0939 -6.7774 5.5722 1.0000
50.0939 -6.4723 5.5678 1.0000
50.0939 -6.3199 5.5656 1.0000
50.0939 -6.0154 5.5615 1.0000
50.0939 -5.8634 5.5595 1.0000
50.0939 -5.2562 5.5522 1.0000
50.0939 -5.1046 5.5505 1.0000
50.0939 -4.9532 5.5488 1.0000
50.0939 -4.8018 5.5472 1.0000
50.0939 -4.6505 5.5456 1.0000
50.0939 -3.7445 5.5373 1.0000
50.0939 -2.6905 5.5298 1.0000
50.0939 -2.2396 5.5274 1.0000
50.0939 -2.0893 5.5267 1.0000
50.0939 -1.9392 5.5260 1.0000
50.0939 -1.7890 5.5254 1.0000
50.0939 -1.6389 5.5248 1.0000
50.0939 -1.3388 5.5238 1.0000
50.0939 -0.8887 5.5227 1.0000
50.0939 -0.7387 5.5225 1.0000
50.0939 -0.2888 5.5219 1.0000
50.0939 0.0111 5.5219 1.0000
50.0939 0.1610 5.5219 1.0000
50.0939 0.4610 5.5221 1.0000
50.0939 0.7609 5.5225 1.0000
50.0939 1.2109 5.5235 1.0000
50.0939 1.3609 5.5239 1.0000
50.0939 1.5110 5.5244 1.0000
50.0939 1.6612 5.5249 1.0000
50.0939 2.1116 5.5268 1.0000
50.0939 2.4121 5.5283 1.0000
50.0939 2.5624 5.5291 1.0000
50.0939 2.7128 5.5299 1.0000
50.0939 3.1642 5.5329 1.0000
50.0939 3.3148 5.5339 1.0000
50.0939 3.9177 5.5387 1.0000
50.0939 4.2196 5.5414 1.0000
50.0939 5.1271 5.5507 1.0000
50.0939 5.2787 5.5524 1.0000
50.0939 5.4303 5.5542 1.0000
50.0939 5.8859 5.5598 1.0000
50.0939 6.0380 5.5618 1.0000
50.0939 6.1902 5.5639 1.0000
50.0939 6.3425 5.5659 1.0000
50.0939 6.6474 5.5703 1.0000
50.0939 6.8000 5.5725 1.0000
50.0939 6.9528 5.5748 1.0000
50.0939 7.1057 5.5771 1.0000
50.0939 7.2587 5.5795 1.0000
50.0939 7.5652 5.5845 1.0000
50.0939 7.8722 5.5896 1.0000
50.0939 8.0259 5.5923 1.0000
50.0939 8.1798 5.5950 1.0000
50.0939 8.3338 5.5977 1.0000
50.0939 8.4880 5.6006 1.0000
50.0939 8.6423 5.6034 1.0000
50.0939 8.7968 5.6063 1.0000
50.0939 9.1063 5.6124 1.0000
50.0939 9.2613 5.6154 1.0000
50.0939 9.5718 5.6218 1.0000
50.0939 9.7273 5.6250 1.0000
50.0939 9.8830 5.6283 1.0000
50.0939 10.0388 5.6316 1.0000
50.0939 10.5077 5.6420 1.0000
50.0939 10.6643 5.6456 1.0000
50.0939 10.8211 5.6492 1.0000
50.0939 10.9781 5.6529 1.0000
50.0939 11.1354 5.6566 1.0000
50.0939 11.2929 5.6604 1.0000
50.0939 11.7665 5.6721 1.0000
50.0939 12.0834 5.6802 1.0000
50.0939 12.5605 5.6928 1.0000
