ply
format ascii 1.0
element vertex 1606
property float32 x
property float32 y
property float32 z
property float32 I
end_header
50.1007 5.7940 9.9214 1.0000
50.1007 5.9458 9.9249 1.0000
50.1008 6.5540 9.9397 1.0000
50.1008 6.7063 9.9436 1.0000
50.1008 7.0113 9.9518 1.0000
50.1008 7.1640 9.9560 1.0000
50.1008 7.4698 9.9647 1.0000
50.1008 7.7762 9.9738 1.0000
50.1008 7.9296 9.9784 1.0000
50.1009 8.0831 9.9832 1.0000
50.1009 8.2368 9.9881 1.0000
50.1008 8.3906 9.9930 1.0000
50.1008 8.6987 10.0032 1.0000
50.1008 8.8531 10.0084 1.0000
50.1009 9.1621 10.0192 1.0000
50.1008 9.3169 10.0247 1.0000
50.1009 9.9379 10.0478 1.0000
50.1009 10.0937 10.0538 1.0000
50.1009 10.2495 10.0599 1.0000
50.1009 10.8749 10.0853 1.0000
50.1009 11.0318 10.0919 1.0000
50.1009 11.3462 10.1053 1.0000
50.1009 11.6614 10.1192 1.0000
50.1009 11.9775 10.1335 1.0000
50.1009 12.1359 10.1408 1.0000
50.1009 12.7717 10.1710 1.0000
50.1009 12.9313 10.1788 1.0000
50.1009 13.0911 10.1867 1.0000
50.1009 -13.2772 10.1960 1.0000
50.1010 -13.1171 10.1880 1.0000
50.1009 -12.9573 10.1800 1.0000
50.1009 -12.7977 10.1722 1.0000
50.1009 -12.4792 10.1569 1.0000
50.1009 -12.0033 10.1347 1.0000
50.1009 -11.8450 10.1275 1.0000
50.1009 -11.6871 10.1204 1.0000
50.1009 -11.0573 10.0929 1.0000
50.1009 -10.9004 10.0863 1.0000
50.1009 -10.5872 10.0734 1.0000
50.1009 -10.1190 10.0548 1.0000
50.1009 -9.8077 10.0428 1.0000
50.1009 -9.6523 10.0370 1.0000
50.1009 -9.4972 10.0313 1.0000
50.1009 -9.1873 10.0201 1.0000
50.1009 -8.8781 10.0093 1.0000
50.1009 -8.5697 9.9989 1.0000
50.1009 -8.2618 9.9889 1.0000
50.1009 -8.1081 9.9840 1.0000
50.1008 -7.6478 9.9699 1.0000
50.1007 -7.1888 9.9567 1.0000
50.1007 -7.0361 9.9524 1.0000
50.1007 -6.8835 9.9483 1.0000
50.1007 -6.7310 9.9443 1.0000
50.1007 -6.5787 9.9403 1.0000
50.1007 -6.4265 9.9365 1.0000
50.1007 -6.2743 9.9327 1.0000
50.1007 -6.1224 9.9290 1.0000
50.1007 -5.8187 9.9220 1.0000
50.1007 -5.6670 9.9186 1.0000
50.1007 -5.2125 9.9089 1.0000
50.1007 -4.7590 9.9001 1.0000
50.1007 -4.4570 9.8947 1.0000
50.1007 -4.3062 9.8921 1.0000
50.1007 -4.1554 9.8896 1.0000
50.1007 -3.7035 9.8826 1.0000
50.1007 -3.2522 9.8765 1.0000
50.1006 -2.9516 9.8728 1.0000
50.1007 -2.3510 9.8666 1.0000
50.1007 -2.0511 9.8640 1.0000
50.1007 -1.9011 9.8628 1.0000
50.1007 -1.7512 9.8617 1.0000
50.1007 -1.4515 9.8599 1.0000
50.1007 -1.3017 9.8591 1.0000
50.1007 -1.1519 9.8583 1.0000
50.1007 -0.8524 9.8572 1.0000
50.1007 -0.2534 9.8559 1.0000
50.1007 0.3454 9.8560 1.0000
50.1007 0.6449 9.8565 1.0000
50.1007 0.7946 9.8570 1.0000
50.1007 0.9444 9.8575 1.0000
50.1007 1.2439 9.8588 1.0000
50.1007 1.3938 9.8595 1.0000
50.1007 1.8434 9.8624 1.0000
50.1007 1.9933 9.8635 1.0000
50.1007 2.1433 9.8647 1.0000
50.1007 2.2933 9.8660 1.0000
50.1007 2.7436 9.8705 1.0000
50.1007 2.8938 9.8722 1.0000
50.1007 3.0440 9.8739 1.0000
50.1001 -4.8763 9.0219 1.0000
50.1001 -4.5742 9.0168 1.0000
50.1000 -4.4234 9.0144 1.0000
50.1000 -4.2725 9.0121 1.0000
50.1001 -4.1217 9.0098 1.0000
50.1001 -3.9711 9.0077 1.0000
50.1000 -3.6699 9.0035 1.0000
50.1001 -3.5194 9.0016 1.0000
50.1000 -3.0683 8.9963 1.0000
50.1001 -1.7178 8.9848 1.0000
50.1001 -1.5679 8.9839 1.0000
50.1001 -1.2683 8.9824 1.0000
50.1002 -1.1185 8.9817 1.0000
50.1001 -0.9687 8.9812 1.0000
50.1001 -0.8190 8.9807 1.0000
50.1001 -0.6692 8.9803 1.0000
50.1001 -0.3697 8.9797 1.0000
50.1001 -0.2201 8.9796 1.0000
50.1001 0.0793 8.9795 1.0000
50.1001 0.3788 8.9797 1.0000
50.1001 0.5285 8.9800 1.0000
50.1001 1.2773 8.9824 1.0000
50.1001 1.4271 8.9831 1.0000
50.1001 1.5770 8.9839 1.0000
50.1002 1.7268 8.9848 1.0000
50.1002 2.0267 8.9868 1.0000
50.1002 2.6268 8.9918 1.0000
50.1001 2.7770 8.9933 1.0000
50.1001 2.9271 8.9948 1.0000
50.1002 3.0774 8.9964 1.0000
50.1001 3.2277 8.9981 1.0000
50.1002 3.5285 9.0017 1.0000
50.1002 4.7344 9.0195 1.0000
50.1002 4.8854 9.0221 1.0000
50.1001 5.0366 9.0248 1.0000
50.1002 5.1879 9.0275 1.0000
50.1002 5.9457 9.0425 1.0000
50.1002 6.0976 9.0458 1.0000
50.1002 6.4017 9.0525 1.0000
50.1002 6.5539 9.0560 1.0000
50.1002 6.7062 9.0596 1.0000
50.1002 6.8587 9.0632 1.0000
50.1002 7.3168 9.0748 1.0000
50.1002 7.4697 9.0788 1.0000
50.1002 7.6228 9.0828 1.0000
50.1002 7.9294 9.0913 1.0000
50.1002 8.0830 9.0956 1.0000
50.1002 8.3905 9.1046 1.0000
50.1002 8.5445 9.1092 1.0000
50.1002 8.6986 9.1139 1.0000
50.1002 8.8530 9.1186 1.0000
50.1002 9.0074 9.1235 1.0000
50.1002 9.1621 9.1284 1.0000
50.1002 9.3169 9.1335 1.0000
50.1002 9.6270 9.1438 1.0000
50.1002 9.7823 9.1491 1.0000
50.1002 9.9378 9.1545 1.0000
50.1002 10.0935 9.1599 1.0000
50.1002 10.2494 9.1655 1.0000
50.1002 10.5617 9.1769 1.0000
50.1002 11.3461 9.2069 1.0000
50.1003 11.6612 9.2195 1.0000
50.1003 11.9773 9.2326 1.0000
50.1003 12.1357 9.2392 1.0000
50.1003 12.4532 9.2528 1.0000
50.1003 12.6122 9.2597 1.0000
50.1003 12.7716 9.2667 1.0000
50.1003 12.9312 9.2738 1.0000
50.1003 13.0910 9.2810 1.0000
50.1003 13.4113 9.2957 1.0000
50.1003 -13.2771 9.2895 1.0000
50.1003 -13.1170 9.2822 1.0000
50.1003 -12.7975 9.2678 1.0000
50.1003 -12.6381 9.2608 1.0000
50.1003 -12.3202 9.2470 1.0000
50.1003 -12.0031 9.2336 1.0000
50.1003 -11.6870 9.2206 1.0000
50.1003 -11.5292 9.2142 1.0000
50.1003 -11.0572 9.1956 1.0000
50.1002 -10.9004 9.1896 1.0000
50.1003 -10.7437 9.1837 1.0000
50.1003 -10.5872 9.1778 1.0000
50.1002 -10.2748 9.1664 1.0000
50.1002 -10.1188 9.1608 1.0000
50.1002 -9.8076 9.1500 1.0000
50.1002 -9.6522 9.1447 1.0000
50.1002 -9.1872 9.1292 1.0000
50.1002 -9.0325 9.1243 1.0000
50.1002 -8.8781 9.1194 1.0000
50.1002 -8.4155 9.1053 1.0000
50.1002 -8.2617 9.1008 1.0000
50.1002 -8.1079 9.0963 1.0000
50.1002 -7.8010 9.0877 1.0000
50.1001 -6.8834 9.0639 1.0000
50.1001 -6.7310 9.0602 1.0000
50.1002 -6.5787 9.0566 1.0000
50.1002 -6.1222 9.0463 1.0000
50.1001 -5.8186 9.0398 1.0000
50.1001 -5.5153 9.0337 1.0000
50.1001 -5.3639 9.0308 1.0000
50.1001 -5.0612 9.0252 1.0000
50.1001 -4.7589 9.0199 1.0000
50.1000 -4.4570 9.0150 1.0000
50.1000 -4.0046 9.0081 1.0000
50.1000 -3.7034 9.0040 1.0000
50.1001 -3.2521 8.9984 1.0000
50.1000 -3.1018 8.9967 1.0000
50.1001 -2.8013 8.9935 1.0000
50.1000 -2.6512 8.9921 1.0000
50.1001 -2.5011 8.9907 1.0000
50.1002 -2.2010 8.9881 1.0000
50.1001 -1.9011 8.9859 1.0000
50.1001 -1.3016 8.9825 1.0000
50.1001 -1.0021 8.9813 1.0000
50.1001 -0.8523 8.9808 1.0000
50.1001 -0.7026 8.9804 1.0000
50.1002 -0.5528 8.9800 1.0000
50.1001 -0.1037 8.9795 1.0000
50.1001 0.1957 8.9796 1.0000
50.1001 0.3454 8.9797 1.0000
50.1001 0.4952 8.9799 1.0000
50.1001 1.0942 8.9816 1.0000
50.1001 1.2440 8.9822 1.0000
50.1002 1.5436 8.9838 1.0000
50.1002 2.1432 8.9877 1.0000
50.1001 2.4433 8.9902 1.0000
50.1002 3.0439 8.9960 1.0000
50.0995 -5.0275 8.1493 1.0000
50.0995 -4.8763 8.1469 1.0000
50.0995 -4.7253 8.1445 1.0000
50.0995 -4.5742 8.1423 1.0000
50.0995 -4.4233 8.1401 1.0000
50.0995 -4.2725 8.1380 1.0000
50.0995 -4.1217 8.1359 1.0000
50.0995 -3.6699 8.1303 1.0000
50.0995 -3.2186 8.1253 1.0000
50.0995 -2.6177 8.1196 1.0000
50.0995 -2.1676 8.1161 1.0000
50.0995 -2.0176 8.1151 1.0000
50.0995 -1.8677 8.1142 1.0000
50.0995 -1.7178 8.1133 1.0000
50.0995 -1.5679 8.1125 1.0000
50.0995 -1.1185 8.1106 1.0000
50.0995 -0.5195 8.1090 1.0000
50.0995 -0.3697 8.1088 1.0000
50.0995 -0.0703 8.1086 1.0000
50.0995 0.0794 8.1086 1.0000
50.0995 0.3788 8.1088 1.0000
50.0995 0.5285 8.1090 1.0000
50.0995 0.9778 8.1101 1.0000
50.0995 1.2773 8.1112 1.0000
50.0995 1.7268 8.1134 1.0000
50.0995 2.0267 8.1152 1.0000
50.0995 2.3266 8.1173 1.0000
50.0995 2.4767 8.1185 1.0000
50.0995 2.6268 8.1197 1.0000
50.0995 2.7770 8.1210 1.0000
50.0995 2.9271 8.1224 1.0000
50.0995 3.0774 8.1238 1.0000
50.0995 3.3781 8.1270 1.0000
50.0995 3.6790 8.1304 1.0000
50.0995 3.8295 8.1322 1.0000
50.0995 4.1308 8.1361 1.0000
50.0995 4.7343 8.1447 1.0000
50.0995 5.0365 8.1494 1.0000
50.0995 5.1878 8.1519 1.0000
50.0995 5.3392 8.1545 1.0000
50.0996 6.0975 8.1684 1.0000
50.0995 6.4015 8.1745 1.0000
50.0995 6.7061 8.1809 1.0000
50.0995 6.8586 8.1842 1.0000
50.0996 7.3167 8.1946 1.0000
50.0996 7.4696 8.1982 1.0000
50.0996 7.6228 8.2019 1.0000
50.0996 7.7760 8.2057 1.0000
50.0996 8.2366 8.2174 1.0000
50.0996 8.5444 8.2257 1.0000
50.0996 8.8529 8.2342 1.0000
50.0996 9.0073 8.2386 1.0000
50.0996 9.3167 8.2476 1.0000
50.0996 9.4717 8.2522 1.0000
50.0996 9.9377 8.2666 1.0000
50.0996 10.7180 8.2921 1.0000
50.0996 11.1887 8.3083 1.0000
50.0996 11.3459 8.3139 1.0000
50.0996 11.5034 8.3196 1.0000
50.0997 11.8191 8.3312 1.0000
50.0997 12.1356 8.3431 1.0000
50.0997 12.2942 8.3492 1.0000
50.0997 12.7715 8.3679 1.0000
50.0997 12.9310 8.3743 1.0000
50.0997 13.4112 8.3941 1.0000
50.0997 -13.2769 8.3885 1.0000
50.0997 -12.9569 8.3754 1.0000
50.0998 -12.7974 8.3689 1.0000
50.0997 -12.3200 8.3502 1.0000
50.0997 -12.1614 8.3441 1.0000
50.0996 -12.0030 8.3381 1.0000
50.0997 -11.8448 8.3321 1.0000
50.0996 -11.5290 8.3205 1.0000
50.0997 -11.3715 8.3148 1.0000
50.0997 -11.2142 8.3092 1.0000
50.0997 -11.0571 8.3037 1.0000
50.0997 -10.9002 8.2983 1.0000
50.0997 -10.7435 8.2929 1.0000
50.0996 -10.2746 8.2774 1.0000
50.0996 -10.1187 8.2723 1.0000
50.0997 -9.9630 8.2674 1.0000
50.0996 -9.8074 8.2625 1.0000
50.0996 -8.2616 8.2181 1.0000
50.0996 -7.9543 8.2101 1.0000
50.0996 -7.8009 8.2063 1.0000
50.0996 -7.4945 8.1988 1.0000
50.0995 -7.3415 8.1952 1.0000
50.0995 -7.0359 8.1881 1.0000
50.0995 -6.2742 8.1719 1.0000
50.0995 -6.1222 8.1689 1.0000
50.0995 -5.9703 8.1659 1.0000
50.0995 -5.8185 8.1631 1.0000
50.0995 -5.5153 8.1575 1.0000
50.0995 -5.3638 8.1549 1.0000
50.0995 -5.2124 8.1523 1.0000
50.0995 -5.0612 8.1498 1.0000
50.0995 -4.9099 8.1474 1.0000
50.0995 -4.4569 8.1406 1.0000
50.0995 -4.3061 8.1385 1.0000
50.0995 -4.1553 8.1364 1.0000
50.0995 -4.0046 8.1344 1.0000
50.0995 -3.8540 8.1325 1.0000
50.0995 -3.7033 8.1307 1.0000
50.0995 -3.5529 8.1289 1.0000
50.0995 -3.4025 8.1272 1.0000
50.0995 -3.2521 8.1256 1.0000
50.0995 -3.1018 8.1241 1.0000
50.0995 -2.5011 8.1187 1.0000
50.0995 -2.3510 8.1175 1.0000
50.0995 -2.2010 8.1164 1.0000
50.0995 -2.0510 8.1154 1.0000
50.0995 -1.9010 8.1144 1.0000
50.0995 -1.6013 8.1127 1.0000
50.0995 -1.4515 8.1120 1.0000
50.0995 -0.5528 8.1091 1.0000
50.0995 -0.2534 8.1087 1.0000
50.0995 -0.1037 8.1086 1.0000
50.0995 0.0460 8.1086 1.0000
50.0995 0.6449 8.1092 1.0000
50.0995 1.2440 8.1111 1.0000
50.0995 1.3938 8.1117 1.0000
50.0995 1.5436 8.1124 1.0000
50.0995 1.6935 8.1132 1.0000
50.0995 1.8433 8.1140 1.0000
50.0995 1.9933 8.1150 1.0000
50.0995 2.2932 8.1170 1.0000
50.0995 2.4433 8.1182 1.0000
50.0995 2.5934 8.1194 1.0000
50.0995 3.0439 8.1235 1.0000
50.0989 -5.0274 7.2788 1.0000
50.0989 -4.8763 7.2766 1.0000
50.0989 -4.7252 7.2745 1.0000
50.0989 -4.5742 7.2725 1.0000
50.0989 -4.2724 7.2687 1.0000
50.0989 -3.5193 7.2602 1.0000
50.0989 -3.0683 7.2560 1.0000
50.0989 -2.4676 7.2512 1.0000
50.0989 -2.3176 7.2501 1.0000
50.0989 -1.5679 7.2459 1.0000
50.0989 -1.2683 7.2447 1.0000
50.0989 -0.9687 7.2437 1.0000
50.0989 -0.8190 7.2434 1.0000
50.0989 -0.5195 7.2428 1.0000
50.0989 -0.0704 7.2424 1.0000
50.0989 0.3788 7.2426 1.0000
50.0989 0.5285 7.2428 1.0000
50.0989 0.8279 7.2434 1.0000
50.0989 0.9777 7.2438 1.0000
50.0989 1.2773 7.2447 1.0000
50.0989 1.7268 7.2467 1.0000
50.0989 2.0266 7.2483 1.0000
50.0989 2.3266 7.2502 1.0000
50.0989 2.4767 7.2512 1.0000
50.0989 2.7769 7.2535 1.0000
50.0989 2.9271 7.2547 1.0000
50.0989 3.0773 7.2560 1.0000
50.0989 3.2276 7.2574 1.0000
50.0989 3.3780 7.2588 1.0000
50.0989 4.2815 7.2688 1.0000
50.0989 4.4323 7.2707 1.0000
50.0989 4.5832 7.2726 1.0000
50.0989 4.7342 7.2747 1.0000
50.0989 4.8853 7.2768 1.0000
50.0990 5.0365 7.2789 1.0000
50.0990 5.1878 7.2811 1.0000
50.0990 5.3392 7.2834 1.0000
50.0990 5.4906 7.2858 1.0000
50.0990 5.7938 7.2907 1.0000
50.0990 5.9456 7.2932 1.0000
50.0990 6.0974 7.2958 1.0000
50.0990 6.4015 7.3013 1.0000
50.0990 7.0110 7.3130 1.0000
50.0990 7.4695 7.3225 1.0000
50.0990 7.7759 7.3291 1.0000
50.0990 7.9293 7.3326 1.0000
50.0990 8.3903 7.3433 1.0000
50.0990 8.6985 7.3508 1.0000
50.0990 8.8528 7.3546 1.0000
50.0990 9.3166 7.3666 1.0000
50.0991 9.4716 7.3707 1.0000
50.0991 9.6267 7.3749 1.0000
50.0991 9.7821 7.3792 1.0000
50.0991 9.9375 7.3835 1.0000
50.0991 10.2491 7.3924 1.0000
50.0991 10.4052 7.3970 1.0000
50.0991 10.5615 7.4016 1.0000
50.0990 10.8746 7.4111 1.0000
50.0991 11.1885 7.4208 1.0000
50.0991 11.3458 7.4258 1.0000
50.0991 11.6610 7.4360 1.0000
50.0991 11.8190 7.4412 1.0000
50.0991 12.2940 7.4573 1.0000
50.0991 12.4529 7.4628 1.0000
50.0991 12.6119 7.4684 1.0000
50.0991 12.7712 7.4740 1.0000
50.0991 13.0906 7.4856 1.0000
50.0991 13.2507 7.4915 1.0000
50.0991 -13.2767 7.4924 1.0000
50.0991 -13.1167 7.4865 1.0000
50.0991 -12.4787 7.4637 1.0000
50.0991 -12.3199 7.4582 1.0000
50.0991 -12.1612 7.4527 1.0000
50.0991 -12.0028 7.4474 1.0000
50.0991 -11.8446 7.4421 1.0000
50.0991 -11.5289 7.4317 1.0000
50.0991 -11.3714 7.4266 1.0000
50.0991 -11.2141 7.4216 1.0000
50.0991 -11.0570 7.4167 1.0000
50.0991 -10.9001 7.4119 1.0000
50.0991 -10.7434 7.4071 1.0000
50.0991 -10.5869 7.4024 1.0000
50.0990 -9.4968 7.3714 1.0000
50.0991 -8.7235 7.3514 1.0000
50.0990 -8.5694 7.3476 1.0000
50.0990 -8.4154 7.3439 1.0000
50.0990 -7.8008 7.3297 1.0000
50.0990 -7.4944 7.3230 1.0000
50.0989 -7.1886 7.3166 1.0000
50.0989 -6.8833 7.3104 1.0000
50.0989 -6.7308 7.3075 1.0000
50.0989 -6.5784 7.3046 1.0000
50.0989 -6.4262 7.3017 1.0000
50.0989 -5.9703 7.2936 1.0000
50.0989 -5.6668 7.2886 1.0000
50.0989 -5.5153 7.2862 1.0000
50.0989 -5.3638 7.2838 1.0000
50.0989 -5.0611 7.2793 1.0000
50.0989 -4.6078 7.2730 1.0000
50.0989 -4.4569 7.2710 1.0000
50.0989 -4.1553 7.2673 1.0000
50.0989 -3.8539 7.2638 1.0000
50.0989 -3.5528 7.2606 1.0000
50.0989 -3.2521 7.2576 1.0000
50.0989 -2.8013 7.2537 1.0000
50.0989 -2.2010 7.2494 1.0000
50.0989 -2.0510 7.2485 1.0000
50.0989 -1.9011 7.2476 1.0000
50.0989 -1.7512 7.2468 1.0000
50.0989 -1.4515 7.2454 1.0000
50.0989 -1.3016 7.2448 1.0000
50.0989 -1.1519 7.2443 1.0000
50.0989 -1.0020 7.2439 1.0000
50.0989 -0.8522 7.2434 1.0000
50.0989 -0.5528 7.2428 1.0000
50.0989 -0.2534 7.2425 1.0000
50.0989 0.0460 7.2424 1.0000
50.0989 0.3454 7.2426 1.0000
50.0989 0.7946 7.2433 1.0000
50.0989 1.2439 7.2446 1.0000
50.0989 1.3937 7.2452 1.0000
50.0989 1.5435 7.2458 1.0000
50.0989 1.6934 7.2465 1.0000
50.0989 1.8433 7.2473 1.0000
50.0989 1.9932 7.2481 1.0000
50.0989 2.4432 7.2510 1.0000
50.0989 2.5933 7.2521 1.0000
50.0989 2.8936 7.2545 1.0000
50.0989 3.0438 7.2557 1.0000
50.0984 -5.0274 6.4125 1.0000
50.0984 -4.8762 6.4106 1.0000
50.0983 -4.7251 6.4088 1.0000
50.0983 -4.5741 6.4070 1.0000
50.0983 -4.4232 6.4053 1.0000
50.0983 -4.2724 6.4036 1.0000
50.0983 -4.1216 6.4020 1.0000
50.0983 -3.9709 6.4005 1.0000
50.0983 -3.5193 6.3962 1.0000
50.0983 -3.3689 6.3949 1.0000
50.0983 -3.0683 6.3924 1.0000
50.0983 -2.7678 6.3902 1.0000
50.0984 -2.3175 6.3873 1.0000
50.0984 -1.8676 6.3849 1.0000
50.0984 -1.7178 6.3842 1.0000
50.0984 -1.5679 6.3836 1.0000
50.0984 -1.4181 6.3830 1.0000
50.0984 -0.9687 6.3817 1.0000
50.0984 -0.8189 6.3813 1.0000
50.0984 -0.6692 6.3810 1.0000
50.0984 -0.2201 6.3805 1.0000
50.0984 -0.0703 6.3805 1.0000
50.0984 0.2290 6.3805 1.0000
50.0984 0.3787 6.3807 1.0000
50.0984 0.5285 6.3808 1.0000
50.0984 0.6782 6.3811 1.0000
50.0984 0.9777 6.3817 1.0000
50.0984 1.2772 6.3826 1.0000
50.0984 1.4271 6.3831 1.0000
50.0984 2.0266 6.3857 1.0000
50.0984 2.3265 6.3873 1.0000
50.0984 2.6267 6.3892 1.0000
50.0984 2.9270 6.3914 1.0000
50.0984 3.0772 6.3925 1.0000
50.0984 3.2275 6.3937 1.0000
50.0984 3.6788 6.3977 1.0000
50.0984 4.1306 6.4021 1.0000
50.0984 4.2814 6.4037 1.0000
50.0984 4.4322 6.4054 1.0000
50.0984 4.5832 6.4071 1.0000
50.0984 4.7342 6.4089 1.0000
50.0984 4.8853 6.4107 1.0000
50.0984 5.0364 6.4126 1.0000
50.0984 5.1877 6.4146 1.0000
50.0984 5.3391 6.4166 1.0000
50.0984 5.4905 6.4187 1.0000
50.0984 6.2493 6.4299 1.0000
50.0984 6.8584 6.4400 1.0000
50.0984 7.0110 6.4427 1.0000
50.0984 7.1637 6.4454 1.0000
50.0984 7.3165 6.4482 1.0000
50.0984 7.6226 6.4539 1.0000
50.0984 7.7758 6.4569 1.0000
50.0984 7.9292 6.4599 1.0000
50.0984 8.0827 6.4630 1.0000
50.0984 8.3902 6.4693 1.0000
50.0984 8.6983 6.4759 1.0000
50.0984 8.8526 6.4793 1.0000
50.0984 9.1617 6.4863 1.0000
50.0984 9.3165 6.4899 1.0000
50.0984 10.0931 6.5087 1.0000
50.0984 10.7178 6.5249 1.0000
50.0984 11.0313 6.5333 1.0000
50.0984 11.3456 6.5421 1.0000
50.0984 11.5031 6.5465 1.0000
50.0985 12.6118 6.5796 1.0000
50.0985 12.7711 6.5845 1.0000
50.0985 12.9307 6.5896 1.0000
50.0985 13.2505 6.5999 1.0000
50.0985 13.4108 6.6051 1.0000
50.0985 -13.2766 6.6007 1.0000
50.0985 -13.1165 6.5956 1.0000
50.0985 -12.9567 6.5904 1.0000
50.0985 -12.7971 6.5854 1.0000
50.0985 -12.6377 6.5804 1.0000
50.0985 -12.0027 6.5611 1.0000
50.0985 -11.8445 6.5564 1.0000
50.0985 -11.5288 6.5473 1.0000
50.0985 -11.3713 6.5428 1.0000
50.0984 -10.5867 6.5214 1.0000
50.0984 -10.2744 6.5133 1.0000
50.0984 -9.8072 6.5016 1.0000
50.0984 -9.6519 6.4978 1.0000
50.0984 -9.4967 6.4941 1.0000
50.0984 -9.3417 6.4905 1.0000
50.0984 -9.0322 6.4834 1.0000
50.0984 -8.7234 6.4765 1.0000
50.0984 -8.5693 6.4731 1.0000
50.0984 -8.4152 6.4699 1.0000
50.0984 -8.2614 6.4667 1.0000
50.0984 -7.8007 6.4574 1.0000
50.0984 -7.6474 6.4544 1.0000
50.0984 -7.4944 6.4515 1.0000
50.0984 -7.3414 6.4486 1.0000
50.0984 -7.1885 6.4458 1.0000
50.0984 -6.7307 6.4378 1.0000
50.0983 -6.4262 6.4328 1.0000
50.0983 -6.2740 6.4303 1.0000
50.0983 -5.9702 6.4256 1.0000
50.0983 -5.8183 6.4234 1.0000
50.0983 -5.6667 6.4212 1.0000
50.0984 -5.5151 6.4190 1.0000
50.0984 -4.9098 6.4110 1.0000
50.0983 -4.7587 6.4092 1.0000
50.0983 -4.4569 6.4057 1.0000
50.0983 -4.3060 6.4040 1.0000
50.0983 -3.8539 6.3993 1.0000
50.0983 -3.5528 6.3965 1.0000
50.0983 -3.4024 6.3952 1.0000
50.0983 -2.6512 6.3894 1.0000
50.0983 -2.5010 6.3884 1.0000
50.0984 -2.2010 6.3866 1.0000
50.0983 -2.0510 6.3858 1.0000
50.0984 -1.6013 6.3837 1.0000
50.0984 -1.4514 6.3832 1.0000
50.0984 -1.3016 6.3826 1.0000
50.0984 -1.1518 6.3822 1.0000
50.0984 -0.8523 6.3814 1.0000
50.0984 -0.7026 6.3811 1.0000
50.0984 -0.4031 6.3807 1.0000
50.0984 -0.2534 6.3806 1.0000
50.0984 -0.1037 6.3805 1.0000
50.0984 0.0460 6.3805 1.0000
50.0984 0.1957 6.3805 1.0000
50.0984 0.3454 6.3806 1.0000
50.0984 1.0941 6.3820 1.0000
50.0984 1.2439 6.3824 1.0000
50.0984 1.3937 6.3829 1.0000
50.0984 1.5435 6.3835 1.0000
50.0984 1.9932 6.3855 1.0000
50.0984 2.1431 6.3863 1.0000
50.0984 2.4432 6.3881 1.0000
50.0984 2.7434 6.3900 1.0000
50.0984 2.8936 6.3911 1.0000
50.0977 -4.8761 5.5484 1.0000
50.0977 -4.5740 5.5452 1.0000
50.0977 -4.2723 5.5423 1.0000
50.0977 -3.9709 5.5396 1.0000
50.0977 -3.6697 5.5371 1.0000
50.0977 -3.2185 5.5337 1.0000
50.0977 -3.0682 5.5326 1.0000
50.0977 -2.4676 5.5290 1.0000
50.0977 -1.7177 5.5255 1.0000
50.0977 -1.2682 5.5240 1.0000
50.0978 -0.9687 5.5233 1.0000
50.0978 -0.8189 5.5230 1.0000
50.0977 -0.3697 5.5224 1.0000
50.0978 0.2290 5.5223 1.0000
50.0978 0.5285 5.5226 1.0000
50.0978 0.6782 5.5228 1.0000
50.0978 0.8279 5.5230 1.0000
50.0977 0.9777 5.5233 1.0000
50.0977 1.1275 5.5237 1.0000
50.0977 1.7268 5.5256 1.0000
50.0977 2.1765 5.5275 1.0000
50.0978 2.3265 5.5282 1.0000
50.0978 2.4766 5.5290 1.0000
50.0977 2.7769 5.5308 1.0000
50.0977 2.9270 5.5317 1.0000
50.0978 3.0772 5.5327 1.0000
50.0978 3.2276 5.5337 1.0000
50.0978 3.5283 5.5360 1.0000
50.0978 3.6788 5.5371 1.0000
50.0978 4.1306 5.5410 1.0000
50.0978 4.5831 5.5453 1.0000
50.0978 4.7341 5.5469 1.0000
50.0978 4.8852 5.5485 1.0000
50.0978 5.9454 5.5610 1.0000
50.0978 6.2492 5.5651 1.0000
50.0978 6.5535 5.5693 1.0000
50.0978 6.8583 5.5738 1.0000
50.0978 7.0109 5.5761 1.0000
50.0978 7.4694 5.5833 1.0000
50.0978 7.9291 5.5910 1.0000
50.0978 8.0826 5.5937 1.0000
50.0979 8.3901 5.5992 1.0000
50.0978 8.5441 5.6020 1.0000
50.0978 8.6983 5.6049 1.0000
50.0978 9.0070 5.6108 1.0000
50.0978 9.3164 5.6170 1.0000
50.0978 9.6265 5.6233 1.0000
50.0978 9.7818 5.6266 1.0000
50.0978 10.0930 5.6332 1.0000
50.0979 10.5612 5.6437 1.0000
50.0979 10.7177 5.6472 1.0000
50.0979 10.8743 5.6509 1.0000
50.0978 11.0312 5.6546 1.0000
50.0979 11.1882 5.6583 1.0000
50.0979 11.6607 5.6699 1.0000
50.0979 11.8187 5.6739 1.0000
50.0979 12.1352 5.6820 1.0000
50.0979 12.2938 5.6861 1.0000
50.0979 12.4526 5.6903 1.0000
50.0979 12.6117 5.6946 1.0000
50.0979 12.9305 5.7033 1.0000
50.0979 13.2503 5.7122 1.0000
50.0979 -13.2764 5.7129 1.0000
50.0979 -12.7969 5.6996 1.0000
50.0979 -12.6376 5.6953 1.0000
50.0979 -12.4784 5.6910 1.0000
50.0979 -12.1609 5.6827 1.0000
50.0979 -12.0025 5.6786 1.0000
50.0979 -11.8444 5.6745 1.0000
50.0979 -11.6864 5.6706 1.0000
50.0979 -11.5286 5.6666 1.0000
50.0979 -11.0567 5.6552 1.0000
50.0978 -10.8998 5.6515 1.0000
50.0979 -10.5867 5.6442 1.0000
50.0979 -9.8071 5.6271 1.0000
50.0979 -9.6517 5.6238 1.0000
50.0979 -9.4965 5.6206 1.0000
50.0979 -9.0321 5.6113 1.0000
50.0979 -8.7233 5.6054 1.0000
50.0979 -8.5691 5.6025 1.0000
50.0979 -8.4151 5.5997 1.0000
50.0979 -7.9540 5.5915 1.0000
50.0978 -7.8006 5.5888 1.0000
50.0979 -7.4942 5.5837 1.0000
50.0978 -7.3413 5.5813 1.0000
50.0977 -7.1884 5.5788 1.0000
50.0978 -7.0357 5.5765 1.0000
50.0977 -6.7307 5.5719 1.0000
50.0977 -6.1220 5.5634 1.0000
50.0977 -5.9701 5.5614 1.0000
50.0977 -5.8183 5.5594 1.0000
50.0977 -5.5151 5.5556 1.0000
50.0977 -5.3636 5.5538 1.0000
50.0977 -5.2122 5.5521 1.0000
50.0977 -5.0610 5.5504 1.0000
50.0977 -4.7587 5.5471 1.0000
50.0977 -4.6076 5.5456 1.0000
50.0977 -4.4567 5.5441 1.0000
50.0977 -4.1552 5.5412 1.0000
50.0977 -4.0045 5.5399 1.0000
50.0977 -3.7033 5.5373 1.0000
50.0977 -3.5528 5.5361 1.0000
50.0977 -3.4024 5.5350 1.0000
50.0977 -3.2521 5.5339 1.0000
50.0977 -2.9514 5.5319 1.0000
50.0977 -2.6511 5.5300 1.0000
50.0978 -2.3510 5.5283 1.0000
50.0978 -1.9010 5.5263 1.0000
50.0978 -1.6012 5.5251 1.0000
50.0978 -1.4514 5.5246 1.0000
50.0978 -1.3016 5.5241 1.0000
50.0977 -1.0020 5.5234 1.0000
50.0978 -0.8523 5.5231 1.0000
50.0978 -0.5528 5.5226 1.0000
50.0978 -0.2534 5.5223 1.0000
50.0978 -0.1037 5.5223 1.0000
50.0978 0.0460 5.5223 1.0000
50.0978 0.1957 5.5223 1.0000
50.0978 0.3454 5.5224 1.0000
50.0978 0.4951 5.5225 1.0000
50.0978 0.7946 5.5230 1.0000
50.0978 1.3937 5.5244 1.0000
50.0978 1.5435 5.5249 1.0000
50.0978 1.6934 5.5254 1.0000
50.0978 1.8433 5.5260 1.0000
50.0978 1.9932 5.5266 1.0000
50.0977 2.1431 5.5273 1.0000
50.0978 2.5933 5.5297 1.0000
50.0978 2.7433 5.5306 1.0000
50.0971 -4.7250 4.6880 1.0000
50.0971 -4.5740 4.6867 1.0000
50.0971 -4.4231 4.6854 1.0000
50.0971 -4.2723 4.6842 1.0000
50.0971 -4.1215 4.6831 1.0000
50.0971 -3.9708 4.6819 1.0000
50.0971 -3.5192 4.6788 1.0000
50.0971 -3.2185 4.6769 1.0000
50.0971 -2.7677 4.6744 1.0000
50.0971 -2.4675 4.6729 1.0000
50.0971 -2.1675 4.6716 1.0000
50.0971 -1.8676 4.6705 1.0000
50.0972 -1.7177 4.6700 1.0000
50.0972 -1.2682 4.6688 1.0000
50.0971 -1.1184 4.6684 1.0000
50.0971 -0.9687 4.6682 1.0000
50.0971 -0.8189 4.6679 1.0000
50.0971 -0.5194 4.6675 1.0000
50.0971 -0.3697 4.6674 1.0000
50.0971 -0.2201 4.6673 1.0000
50.0971 -0.0703 4.6673 1.0000
50.0971 0.3788 4.6674 1.0000
50.0971 0.5285 4.6675 1.0000
50.0971 0.9777 4.6682 1.0000
50.0971 1.1274 4.6685 1.0000
50.0971 1.5769 4.6696 1.0000
50.0971 1.7267 4.6701 1.0000
50.0971 2.0266 4.6711 1.0000
50.0972 2.4766 4.6730 1.0000
50.0972 2.9270 4.6752 1.0000
50.0972 3.0772 4.6761 1.0000
50.0972 3.3779 4.6779 1.0000
50.0972 3.5283 4.6788 1.0000
50.0972 3.6788 4.6799 1.0000
50.0972 3.8293 4.6809 1.0000
50.0972 4.7341 4.6881 1.0000
50.0972 4.8851 4.6894 1.0000
50.0972 5.0363 4.6908 1.0000
50.0972 5.7936 4.6984 1.0000
50.0972 5.9454 4.7000 1.0000
50.0972 6.0972 4.7017 1.0000
50.0972 6.2492 4.7035 1.0000
50.0972 6.4012 4.7052 1.0000
50.0972 6.5534 4.7071 1.0000
50.0972 6.7058 4.7089 1.0000
50.0972 6.8582 4.7108 1.0000
50.0972 7.0108 4.7128 1.0000
50.0972 7.1635 4.7148 1.0000
50.0972 7.3163 4.7168 1.0000
50.0972 7.7756 4.7232 1.0000
50.0972 7.9290 4.7254 1.0000
50.0973 9.1615 4.7447 1.0000
50.0973 9.3163 4.7473 1.0000
50.0973 9.4713 4.7500 1.0000
50.0973 9.9372 4.7582 1.0000
50.0973 10.0929 4.7611 1.0000
50.0973 10.2487 4.7640 1.0000
50.0973 10.5611 4.7699 1.0000
50.0973 10.8741 4.7760 1.0000
50.0973 11.0310 4.7791 1.0000
50.0973 11.3454 4.7855 1.0000
50.0973 11.5029 4.7887 1.0000
50.0973 11.6606 4.7921 1.0000
50.0972 12.1350 4.8023 1.0000
50.0973 12.4524 4.8093 1.0000
50.0973 12.6115 4.8129 1.0000
50.0973 13.0901 4.8240 1.0000
50.0973 13.4106 4.8316 1.0000
50.0973 -13.2763 4.8284 1.0000
50.0973 -13.1162 4.8246 1.0000
50.0973 -12.9563 4.8209 1.0000
50.0973 -12.6374 4.8135 1.0000
50.0973 -12.4783 4.8099 1.0000
50.0973 -12.0024 4.7994 1.0000
50.0973 -11.8442 4.7960 1.0000
50.0973 -11.6863 4.7926 1.0000
50.0973 -11.5285 4.7893 1.0000
50.0973 -11.0566 4.7796 1.0000
50.0973 -10.8997 4.7765 1.0000
50.0973 -10.5865 4.7704 1.0000
50.0973 -10.4303 4.7674 1.0000
50.0973 -10.1182 4.7615 1.0000
50.0973 -9.9625 4.7587 1.0000
50.0973 -9.6516 4.7531 1.0000
50.0973 -9.3414 4.7477 1.0000
50.0973 -9.1866 4.7451 1.0000
50.0973 -9.0320 4.7425 1.0000
50.0972 -8.7232 4.7375 1.0000
50.0972 -8.5690 4.7351 1.0000
50.0972 -8.4151 4.7327 1.0000
50.0973 -7.6473 4.7214 1.0000
50.0972 -7.0356 4.7131 1.0000
50.0972 -6.8830 4.7111 1.0000
50.0971 -6.7306 4.7092 1.0000
50.0971 -6.2739 4.7037 1.0000
50.0971 -5.9700 4.7003 1.0000
50.0971 -5.6666 4.6970 1.0000
50.0971 -5.5150 4.6955 1.0000
50.0971 -5.3635 4.6940 1.0000
50.0971 -5.2122 4.6925 1.0000
50.0971 -5.0610 4.6910 1.0000
50.0971 -4.9097 4.6896 1.0000
50.0971 -4.7586 4.6883 1.0000
50.0971 -4.6076 4.6870 1.0000
50.0971 -4.4567 4.6857 1.0000
50.0971 -4.3058 4.6845 1.0000
50.0971 -4.1551 4.6833 1.0000
50.0971 -4.0044 4.6822 1.0000
50.0971 -3.8537 4.6811 1.0000
50.0971 -3.5527 4.6790 1.0000
50.0971 -3.4023 4.6780 1.0000
50.0971 -3.1017 4.6762 1.0000
50.0971 -2.6510 4.6738 1.0000
50.0971 -2.5010 4.6731 1.0000
50.0971 -2.3509 4.6724 1.0000
50.0971 -2.2009 4.6718 1.0000
50.0971 -2.0509 4.6712 1.0000
50.0971 -1.9010 4.6706 1.0000
50.0971 -1.7511 4.6701 1.0000
50.0971 -1.6012 4.6697 1.0000
50.0971 -1.4514 4.6692 1.0000
50.0971 -1.3015 4.6689 1.0000
50.0971 -0.8522 4.6680 1.0000
50.0971 -0.7025 4.6677 1.0000
50.0971 0.1957 4.6673 1.0000
50.0971 0.3454 4.6674 1.0000
50.0971 0.4951 4.6675 1.0000
50.0971 0.6449 4.6677 1.0000
50.0971 1.2439 4.6687 1.0000
50.0971 1.5435 4.6695 1.0000
50.0972 1.6933 4.6699 1.0000
50.0971 1.8432 4.6704 1.0000
50.0972 2.2931 4.6722 1.0000
50.0972 3.0438 4.6759 1.0000
50.0966 -5.0272 3.8342 1.0000
50.0966 -4.8760 3.8330 1.0000
50.0966 -4.7250 3.8319 1.0000
50.0966 -4.5740 3.8309 1.0000
50.0966 -4.4230 3.8298 1.0000
50.0966 -4.2722 3.8289 1.0000
50.0966 -3.9708 3.8270 1.0000
50.0966 -3.8202 3.8261 1.0000
50.0966 -3.6697 3.8252 1.0000
50.0966 -3.3688 3.8236 1.0000
50.0966 -3.2184 3.8229 1.0000
50.0966 -3.0681 3.8222 1.0000
50.0966 -1.4179 3.8165 1.0000
50.0966 -1.2682 3.8162 1.0000
50.0966 -1.1184 3.8160 1.0000
50.0966 -0.9686 3.8157 1.0000
50.0966 -0.8189 3.8155 1.0000
50.0966 -0.6692 3.8153 1.0000
50.0966 -0.5194 3.8152 1.0000
50.0966 -0.3697 3.8151 1.0000
50.0966 0.2291 3.8150 1.0000
50.0966 0.3788 3.8151 1.0000
50.0966 0.5285 3.8152 1.0000
50.0966 0.8279 3.8155 1.0000
50.0966 0.9777 3.8157 1.0000
50.0966 1.4270 3.8165 1.0000
50.0966 1.7267 3.8173 1.0000
50.0966 2.3265 3.8191 1.0000
50.0966 2.4765 3.8197 1.0000
50.0966 2.9269 3.8215 1.0000
50.0966 3.0772 3.8222 1.0000
50.0966 3.2274 3.8229 1.0000
50.0966 3.5282 3.8244 1.0000
50.0966 4.1305 3.8279 1.0000
50.0966 4.4321 3.8299 1.0000
50.0966 4.5830 3.8309 1.0000
50.0966 4.8851 3.8331 1.0000
50.0966 5.3389 3.8366 1.0000
50.0966 5.9453 3.8418 1.0000
50.0966 6.0972 3.8432 1.0000
50.0966 6.2491 3.8446 1.0000
50.0966 6.7058 3.8490 1.0000
50.0966 7.0107 3.8522 1.0000
50.0966 7.1634 3.8538 1.0000
50.0966 7.4692 3.8572 1.0000
50.0966 7.7755 3.8607 1.0000
50.0966 7.9289 3.8625 1.0000
50.0966 8.0824 3.8643 1.0000
50.0966 8.2361 3.8662 1.0000
50.0966 8.3899 3.8681 1.0000
50.0966 8.5439 3.8701 1.0000
50.0966 8.6980 3.8721 1.0000
50.0966 8.8523 3.8741 1.0000
50.0966 9.0068 3.8762 1.0000
50.0966 9.1614 3.8783 1.0000
50.0966 9.3162 3.8804 1.0000
50.0966 9.4712 3.8826 1.0000
50.0966 9.6263 3.8848 1.0000
50.0966 9.7816 3.8870 1.0000
50.0966 10.2486 3.8940 1.0000
50.0967 10.4047 3.8964 1.0000
50.0966 10.7174 3.9013 1.0000
50.0966 11.0309 3.9064 1.0000
50.0966 11.3453 3.9116 1.0000
50.0966 11.5027 3.9143 1.0000
50.0967 11.8183 3.9197 1.0000
50.0967 11.9765 3.9225 1.0000
50.0967 12.1349 3.9253 1.0000
50.0967 12.2934 3.9282 1.0000
50.0967 12.7706 3.9370 1.0000
50.0967 12.9302 3.9400 1.0000
50.0967 13.0900 3.9431 1.0000
50.0967 -13.2761 3.9467 1.0000
50.0967 -13.1160 3.9436 1.0000
50.0967 -12.9562 3.9405 1.0000
50.0967 -12.7966 3.9375 1.0000
50.0967 -12.4781 3.9316 1.0000
50.0967 -12.0022 3.9230 1.0000
50.0967 -11.8441 3.9202 1.0000
50.0967 -11.5284 3.9147 1.0000
50.0967 -11.2135 3.9094 1.0000
50.0967 -10.8996 3.9043 1.0000
50.0967 -10.7429 3.9017 1.0000
50.0966 -10.5864 3.8993 1.0000
50.0966 -10.4301 3.8968 1.0000
50.0967 -10.2740 3.8944 1.0000
50.0966 -9.9624 3.8897 1.0000
50.0967 -9.6515 3.8852 1.0000
50.0967 -9.3413 3.8808 1.0000
50.0966 -9.1865 3.8786 1.0000
50.0966 -9.0319 3.8765 1.0000
50.0966 -8.8774 3.8744 1.0000
50.0966 -8.7231 3.8724 1.0000
50.0966 -8.5689 3.8704 1.0000
50.0966 -8.4149 3.8685 1.0000
50.0966 -7.9538 3.8628 1.0000
50.0966 -7.4941 3.8575 1.0000
50.0966 -7.0356 3.8524 1.0000
50.0966 -6.8830 3.8508 1.0000
50.0966 -6.7305 3.8493 1.0000
50.0966 -6.2738 3.8448 1.0000
50.0966 -6.1219 3.8434 1.0000
50.0966 -5.9700 3.8420 1.0000
50.0966 -5.8182 3.8406 1.0000
50.0966 -5.5150 3.8380 1.0000
50.0966 -5.3635 3.8368 1.0000
50.0966 -4.4567 3.8301 1.0000
50.0966 -4.1551 3.8281 1.0000
50.0966 -4.0044 3.8272 1.0000
50.0966 -3.4023 3.8238 1.0000
50.0966 -3.2519 3.8230 1.0000
50.0966 -2.8012 3.8210 1.0000
50.0966 -2.6510 3.8203 1.0000
50.0966 -2.5009 3.8198 1.0000
50.0966 -2.2008 3.8187 1.0000
50.0966 -1.9010 3.8177 1.0000
50.0966 -1.4514 3.8166 1.0000
50.0966 -1.1518 3.8160 1.0000
50.0966 -0.8522 3.8156 1.0000
50.0966 -0.5528 3.8152 1.0000
50.0966 -0.4031 3.8151 1.0000
50.0966 -0.2533 3.8150 1.0000
50.0966 -0.1037 3.8150 1.0000
50.0966 0.0460 3.8150 1.0000
50.0966 0.6449 3.8153 1.0000
50.0966 0.7946 3.8155 1.0000
50.0966 1.0941 3.8159 1.0000
50.0966 1.2438 3.8162 1.0000
50.0966 1.8432 3.8176 1.0000
50.0966 2.2931 3.8190 1.0000
50.0966 2.4431 3.8195 1.0000
50.0966 3.0437 3.8220 1.0000
50.0959 -4.7249 2.9781 1.0000
50.0959 -4.5739 2.9773 1.0000
50.0959 -4.4229 2.9765 1.0000
50.0959 -3.9707 2.9742 1.0000
50.0959 -3.8201 2.9735 1.0000
50.0959 -3.6696 2.9729 1.0000
50.0959 -3.5191 2.9722 1.0000
50.0959 -2.9179 2.9700 1.0000
50.0959 -2.7676 2.9694 1.0000
50.0959 -2.4675 2.9685 1.0000
50.0960 -2.0175 2.9673 1.0000
50.0960 -1.5678 2.9664 1.0000
50.0960 -1.4180 2.9661 1.0000
50.0960 -1.1184 2.9657 1.0000
50.0960 -0.3698 2.9650 1.0000
50.0960 -0.2200 2.9650 1.0000
50.0960 -0.0703 2.9649 1.0000
50.0960 0.5285 2.9651 1.0000
50.0960 0.9776 2.9655 1.0000
50.0960 1.1274 2.9657 1.0000
50.0960 1.2772 2.9659 1.0000
50.0960 1.5769 2.9664 1.0000
50.0960 1.7267 2.9667 1.0000
50.0960 1.8766 2.9670 1.0000
50.0960 2.4765 2.9685 1.0000
50.0960 2.6266 2.9690 1.0000
50.0960 3.3778 2.9717 1.0000
50.0960 3.5282 2.9723 1.0000
50.0960 3.6787 2.9729 1.0000
50.0960 3.9798 2.9743 1.0000
50.0960 4.1305 2.9750 1.0000
50.0960 4.4321 2.9765 1.0000
50.0960 4.5830 2.9773 1.0000
50.0960 5.1875 2.9808 1.0000
50.0960 5.3388 2.9817 1.0000
50.0960 5.6418 2.9837 1.0000
50.0960 5.7935 2.9847 1.0000
50.0960 5.9452 2.9857 1.0000
50.0961 6.7056 2.9914 1.0000
50.0961 6.8581 2.9926 1.0000
50.0961 7.0106 2.9938 1.0000
50.0961 7.1633 2.9951 1.0000
50.0961 7.3162 2.9964 1.0000
50.0961 7.7754 3.0004 1.0000
50.0961 8.0823 3.0033 1.0000
50.0961 8.2360 3.0047 1.0000
50.0961 8.3898 3.0062 1.0000
50.0961 8.5438 3.0077 1.0000
50.0961 8.6979 3.0093 1.0000
50.0961 8.8522 3.0109 1.0000
50.0961 9.0067 3.0125 1.0000
50.0961 9.3161 3.0158 1.0000
50.0961 9.4710 3.0175 1.0000
50.0961 9.7815 3.0209 1.0000
50.0961 10.0926 3.0245 1.0000
50.0961 10.2485 3.0263 1.0000
50.0960 10.7172 3.0320 1.0000
50.0961 10.8739 3.0340 1.0000
50.0961 11.6603 3.0442 1.0000
50.0961 11.8182 3.0463 1.0000
50.0961 11.9763 3.0485 1.0000
50.0961 12.7705 3.0598 1.0000
50.0961 12.9301 3.0621 1.0000
50.0961 -13.2759 3.0673 1.0000
50.0961 -12.7965 3.0601 1.0000
50.0961 -12.6371 3.0578 1.0000
50.0961 -12.3191 3.0533 1.0000
50.0961 -12.1604 3.0510 1.0000
50.0961 -12.0021 3.0488 1.0000
50.0961 -11.8439 3.0467 1.0000
50.0961 -11.6860 3.0445 1.0000
50.0961 -11.5283 3.0424 1.0000
50.0961 -11.3707 3.0403 1.0000
50.0961 -11.2135 3.0383 1.0000
50.0961 -11.0563 3.0363 1.0000
50.0961 -10.8994 3.0343 1.0000
50.0961 -10.5863 3.0304 1.0000
50.0961 -10.4300 3.0285 1.0000
50.0961 -10.2739 3.0266 1.0000
50.0961 -10.1180 3.0248 1.0000
50.0961 -9.9623 3.0230 1.0000
50.0961 -9.8068 3.0212 1.0000
50.0961 -9.1864 3.0144 1.0000
50.0961 -8.5688 3.0080 1.0000
50.0961 -7.9537 3.0021 1.0000
50.0961 -7.6471 2.9993 1.0000
50.0960 -7.4940 2.9979 1.0000
50.0960 -7.3410 2.9966 1.0000
50.0960 -6.5781 2.9904 1.0000
50.0960 -6.4258 2.9892 1.0000
50.0960 -6.2737 2.9881 1.0000
50.0960 -6.1218 2.9870 1.0000
50.0960 -5.9699 2.9859 1.0000
50.0959 -5.6664 2.9838 1.0000
50.0959 -5.3634 2.9819 1.0000
50.0959 -5.2121 2.9809 1.0000
50.0959 -5.0608 2.9800 1.0000
50.0959 -4.7585 2.9783 1.0000
50.0959 -4.4566 2.9766 1.0000
50.0959 -4.3058 2.9759 1.0000
50.0959 -4.1550 2.9751 1.0000
50.0959 -4.0043 2.9744 1.0000
50.0959 -3.5526 2.9724 1.0000
50.0959 -3.4022 2.9718 1.0000
50.0959 -3.1015 2.9706 1.0000
50.0959 -2.9513 2.9701 1.0000
50.0960 -2.3508 2.9682 1.0000
50.0960 -2.2008 2.9678 1.0000
50.0960 -1.7511 2.9667 1.0000
50.0960 -1.6012 2.9664 1.0000
50.0960 -1.4514 2.9662 1.0000
50.0960 -1.3016 2.9659 1.0000
50.0960 -0.8522 2.9654 1.0000
50.0960 -0.2534 2.9650 1.0000
50.0960 -0.1037 2.9649 1.0000
50.0960 0.0460 2.9649 1.0000
50.0960 0.3454 2.9650 1.0000
50.0960 0.7946 2.9653 1.0000
50.0960 1.3937 2.9661 1.0000
50.0960 1.8432 2.9669 1.0000
50.0960 2.1431 2.9676 1.0000
50.0960 2.7433 2.9694 1.0000
50.0960 2.8935 2.9699 1.0000
50.0954 -5.0270 2.1272 1.0000
50.0954 -4.7248 2.1260 1.0000
50.0954 -4.1213 2.1237 1.0000
50.0954 -3.8201 2.1227 1.0000
50.0954 -3.5190 2.1218 1.0000
50.0954 -3.2183 2.1209 1.0000
50.0954 -3.0680 2.1205 1.0000
50.0954 -2.9178 2.1202 1.0000
50.0954 -2.7676 2.1198 1.0000
50.0954 -2.6175 2.1195 1.0000
50.0954 -2.4674 2.1191 1.0000
50.0955 -2.3174 2.1188 1.0000
50.0955 -2.0174 2.1183 1.0000
50.0955 -1.8676 2.1180 1.0000
50.0954 -1.7177 2.1178 1.0000
50.0954 -1.5678 2.1176 1.0000
50.0954 -0.9686 2.1170 1.0000
50.0954 -0.5194 2.1167 1.0000
50.0955 0.0794 2.1166 1.0000
50.0954 0.3787 2.1166 1.0000
50.0954 0.5285 2.1167 1.0000
50.0955 0.6782 2.1168 1.0000
50.0954 0.8279 2.1169 1.0000
50.0955 0.9776 2.1170 1.0000
50.0954 1.1274 2.1171 1.0000
50.0954 1.2772 2.1173 1.0000
50.0954 1.4270 2.1174 1.0000
50.0954 1.5769 2.1176 1.0000
50.0954 1.7267 2.1178 1.0000
50.0955 2.1764 2.1186 1.0000
50.0954 2.3265 2.1189 1.0000
50.0955 2.7767 2.1198 1.0000
50.0954 2.9269 2.1202 1.0000
50.0954 3.0771 2.1206 1.0000
50.0954 3.2274 2.1210 1.0000
50.0954 3.3777 2.1214 1.0000
50.0954 3.5281 2.1218 1.0000
50.0954 3.6786 2.1223 1.0000
50.0954 3.8291 2.1227 1.0000
50.0954 3.9797 2.1232 1.0000
50.0954 4.1304 2.1238 1.0000
50.0955 4.4320 2.1248 1.0000
50.0954 4.5829 2.1254 1.0000
50.0954 4.7339 2.1260 1.0000
50.0954 4.8850 2.1266 1.0000
50.0954 5.1874 2.1279 1.0000
50.0954 5.4902 2.1292 1.0000
50.0954 5.6417 2.1300 1.0000
50.0955 5.7934 2.1307 1.0000
50.0955 5.9452 2.1314 1.0000
50.0955 6.2490 2.1330 1.0000
50.0955 6.4010 2.1338 1.0000
50.0955 6.5532 2.1346 1.0000
50.0955 7.1632 2.1381 1.0000
50.0955 7.3161 2.1390 1.0000
50.0955 7.6221 2.1409 1.0000
50.0955 7.7753 2.1419 1.0000
50.0955 7.9287 2.1429 1.0000
50.0955 8.2359 2.1450 1.0000
50.0955 8.5437 2.1471 1.0000
50.0955 8.8521 2.1494 1.0000
50.0955 9.0066 2.1505 1.0000
50.0955 9.1612 2.1517 1.0000
50.0955 9.3160 2.1529 1.0000
50.0955 9.4710 2.1541 1.0000
50.0955 10.0926 2.1591 1.0000
50.0955 10.2484 2.1604 1.0000
50.0955 10.7172 2.1645 1.0000
50.0955 11.1877 2.1687 1.0000
50.0955 11.6601 2.1732 1.0000
50.0955 11.9762 2.1762 1.0000
50.0955 12.1346 2.1778 1.0000
50.0955 12.4519 2.1810 1.0000
50.0955 12.7704 2.1843 1.0000
50.0955 13.0897 2.1876 1.0000
50.0955 13.4100 2.1911 1.0000
50.0955 -13.2758 2.1896 1.0000
50.0955 -12.9559 2.1862 1.0000
50.0955 -12.7963 2.1845 1.0000
50.0955 -12.6369 2.1829 1.0000
50.0955 -12.3190 2.1796 1.0000
50.0955 -12.1603 2.1780 1.0000
50.0955 -12.0020 2.1765 1.0000
50.0955 -11.3706 2.1704 1.0000
50.0955 -10.8993 2.1661 1.0000
50.0955 -10.5861 2.1633 1.0000
50.0955 -10.4299 2.1620 1.0000
50.0955 -10.2738 2.1606 1.0000
50.0955 -9.9622 2.1580 1.0000
50.0955 -9.4961 2.1543 1.0000
50.0955 -9.3412 2.1531 1.0000
50.0955 -9.1863 2.1519 1.0000
50.0955 -8.5687 2.1473 1.0000
50.0955 -8.2609 2.1452 1.0000
50.0955 -8.1072 2.1441 1.0000
50.0954 -7.3409 2.1392 1.0000
50.0954 -7.0354 2.1373 1.0000
50.0954 -6.8828 2.1365 1.0000
50.0954 -6.7303 2.1356 1.0000
50.0954 -6.5780 2.1347 1.0000
50.0954 -5.9698 2.1315 1.0000
50.0954 -5.8180 2.1308 1.0000
50.0954 -5.6664 2.1301 1.0000
50.0954 -5.5148 2.1294 1.0000
50.0954 -5.3633 2.1287 1.0000
50.0954 -4.7584 2.1261 1.0000
50.0954 -4.6074 2.1255 1.0000
50.0954 -4.4565 2.1249 1.0000
50.0954 -4.3057 2.1244 1.0000
50.0954 -4.1549 2.1238 1.0000
50.0954 -4.0042 2.1233 1.0000
50.0954 -3.7031 2.1223 1.0000
50.0954 -3.5526 2.1219 1.0000
50.0954 -3.4022 2.1214 1.0000
50.0954 -3.2518 2.1210 1.0000
50.0954 -3.1015 2.1206 1.0000
50.0954 -2.6509 2.1195 1.0000
50.0954 -2.2008 2.1186 1.0000
50.0954 -2.0508 2.1183 1.0000
50.0954 -1.9009 2.1181 1.0000
50.0954 -1.4513 2.1175 1.0000
50.0954 -1.0020 2.1170 1.0000
50.0954 -0.5528 2.1167 1.0000
50.0954 -0.1037 2.1166 1.0000
50.0955 0.0460 2.1166 1.0000
50.0955 0.3454 2.1166 1.0000
50.0954 1.5434 2.1176 1.0000
50.0954 1.8432 2.1180 1.0000
50.0954 1.9931 2.1182 1.0000
50.0954 2.1430 2.1185 1.0000
50.0954 2.4431 2.1191 1.0000
50.0955 2.5931 2.1194 1.0000
50.0954 2.7433 2.1197 1.0000
50.0955 3.0437 2.1205 1.0000
50.0948 -4.8759 1.2754 1.0000
50.0948 -4.7248 1.2751 1.0000
50.0948 -4.5738 1.2747 1.0000
50.0948 -4.4229 1.2744 1.0000
50.0948 -4.2721 1.2741 1.0000
50.0948 -4.1213 1.2737 1.0000
50.0948 -3.5191 1.2726 1.0000
50.0948 -3.3687 1.2723 1.0000
50.0948 -3.0681 1.2718 1.0000
50.0948 -2.7676 1.2714 1.0000
45.0163 -2.2172 1.1421 1.0000
45.0182 -2.0826 1.1420 1.0000
45.0205 -1.9479 1.1419 1.0000
45.0252 -1.6786 1.1418 1.0000
45.0295 -1.4093 1.1416 1.0000
45.0328 -0.8708 1.1414 1.0000
45.0352 -0.7362 1.1414 1.0000
45.0399 -0.4671 1.1414 1.0000
45.0495 0.0713 1.1416 1.0000
45.0519 0.2060 1.1417 1.0000
45.0536 0.3406 1.1417 1.0000
45.0543 0.4753 1.1418 1.0000
45.0557 0.7446 1.1419 1.0000
45.2487 0.8830 1.1469 1.0000
45.2428 1.1535 1.1469 1.0000
45.2449 1.2888 1.1470 1.0000
45.2431 1.4241 1.1471 1.0000
45.2468 1.5596 1.1473 1.0000
45.2508 1.6951 1.1475 1.0000
45.2546 1.8306 1.1477 1.0000
45.2714 2.1024 1.1485 1.0000
50.0948 3.0771 1.2718 1.0000
50.0948 3.2274 1.2721 1.0000
50.0949 3.3777 1.2723 1.0000
50.0948 3.5281 1.2726 1.0000
50.0949 3.6786 1.2729 1.0000
50.0948 3.9797 1.2734 1.0000
50.0948 4.1304 1.2738 1.0000
50.0949 4.2812 1.2741 1.0000
50.0948 4.5829 1.2747 1.0000
50.0949 4.7338 1.2751 1.0000
50.0948 5.0361 1.2758 1.0000
50.0949 5.1873 1.2762 1.0000
50.0948 5.4901 1.2770 1.0000
50.0948 5.6417 1.2775 1.0000
50.0948 5.7933 1.2779 1.0000
50.0948 5.9451 1.2783 1.0000
50.0948 6.4010 1.2798 1.0000
50.0948 6.5532 1.2803 1.0000
50.0948 6.7054 1.2808 1.0000
50.0948 7.0104 1.2818 1.0000
50.0948 7.3160 1.2829 1.0000
50.0948 7.4689 1.2835 1.0000
50.0948 7.9286 1.2852 1.0000
50.0948 8.3896 1.2871 1.0000
50.0948 8.5436 1.2878 1.0000
50.0949 8.6978 1.2884 1.0000
50.0949 8.8521 1.2891 1.0000
50.0949 9.0065 1.2898 1.0000
50.0949 9.1611 1.2905 1.0000
50.0949 9.3159 1.2912 1.0000
50.0949 9.4708 1.2919 1.0000
50.0949 10.0924 1.2949 1.0000
50.0949 10.7171 1.2982 1.0000
50.0949 10.8737 1.2990 1.0000
50.0949 11.1876 1.3007 1.0000
50.0948 11.3449 1.3016 1.0000
50.0948 11.5024 1.3025 1.0000
50.0948 11.8179 1.3043 1.0000
50.0948 11.9761 1.3052 1.0000
50.0948 12.1344 1.3062 1.0000
50.0949 12.2930 1.3071 1.0000
50.0949 12.4518 1.3081 1.0000
50.0949 12.7702 1.3100 1.0000
50.0949 13.0896 1.3121 1.0000
50.0949 13.2496 1.3131 1.0000
50.0949 13.4099 1.3141 1.0000
50.0949 -12.9557 1.3112 1.0000
50.0949 -12.4777 1.3082 1.0000
50.0949 -12.1602 1.3063 1.0000
50.0949 -12.0018 1.3054 1.0000
50.0949 -11.6857 1.3035 1.0000
50.0949 -11.2131 1.3009 1.0000
50.0949 -11.0560 1.3000 1.0000
50.0949 -10.8992 1.2991 1.0000
50.0949 -10.2736 1.2959 1.0000
50.0949 -9.8065 1.2935 1.0000
50.0949 -9.6512 1.2928 1.0000
50.0949 -9.4960 1.2921 1.0000
50.0949 -9.0316 1.2899 1.0000
50.0948 -8.8771 1.2892 1.0000
50.0948 -8.7228 1.2886 1.0000
50.0948 -8.4146 1.2872 1.0000
50.0948 -8.2608 1.2866 1.0000
50.0948 -8.1071 1.2860 1.0000
50.0949 -7.9536 1.2853 1.0000
50.0949 -7.6469 1.2841 1.0000
50.0948 -7.1880 1.2824 1.0000
50.0948 -7.0353 1.2819 1.0000
50.0948 -6.8828 1.2814 1.0000
50.0948 -6.7303 1.2808 1.0000
50.0948 -6.5779 1.2803 1.0000
50.0948 -6.4257 1.2798 1.0000
50.0948 -6.1216 1.2789 1.0000
50.0948 -5.9698 1.2784 1.0000
50.0948 -5.6663 1.2775 1.0000
50.0948 -5.2120 1.2763 1.0000
50.0948 -5.0607 1.2759 1.0000
50.0948 -4.9096 1.2755 1.0000
50.0948 -4.7585 1.2752 1.0000
50.0948 -4.3056 1.2741 1.0000
50.0948 -4.1549 1.2738 1.0000
50.0948 -4.0042 1.2735 1.0000
50.0948 -3.8536 1.2732 1.0000
50.0948 -3.2518 1.2721 1.0000
50.0948 -3.1015 1.2719 1.0000
50.0948 -2.8011 1.2714 1.0000
45.0169 -2.3822 1.1424 1.0000
45.0164 -2.2473 1.1422 1.0000
45.0201 -1.9779 1.1419 1.0000
45.0248 -1.7085 1.1418 1.0000
45.0271 -1.5738 1.1417 1.0000
45.0302 -1.1699 1.1415 1.0000
45.0324 -0.9007 1.1414 1.0000
45.0346 -0.7662 1.1414 1.0000
45.0442 -0.2278 1.1415 1.0000
45.0489 0.0413 1.1416 1.0000
45.0513 0.1760 1.1416 1.0000
45.0534 0.3106 1.1417 1.0000
45.2488 0.8529 1.1468 1.0000
45.2451 0.9881 1.1468 1.0000
45.2434 1.3939 1.1470 1.0000
45.2459 1.5294 1.1472 1.0000
45.2983 2.3448 1.1494 1.0000
50.0948 2.8934 1.2716 1.0000
50.0942 -4.7247 0.4249 1.0000
50.0942 -4.5737 0.4248 1.0000
50.0942 -4.2720 0.4246 1.0000
50.0942 -4.1212 0.4245 1.0000
50.0942 -3.9706 0.4244 1.0000
50.0942 -3.8200 0.4243 1.0000
50.0942 -3.6695 0.4242 1.0000
50.0942 -3.5190 0.4241 1.0000
50.0942 -3.3686 0.4240 1.0000
50.0942 -2.9178 0.4238 1.0000
50.0942 -2.7676 0.4237 1.0000
44.9511 -2.3487 0.3801 1.0000
44.9658 -1.9454 0.3801 1.0000
44.9706 -1.8111 0.3801 1.0000
44.9792 -1.5423 0.3801 1.0000
44.9832 -1.4078 0.3801 1.0000
44.8924 -1.2707 0.3793 1.0000
44.9960 -1.0045 0.3801 1.0000
45.0004 -0.8701 0.3801 1.0000
45.0088 -0.6012 0.3802 1.0000
45.0130 -0.4667 0.3802 1.0000
45.0213 -0.1978 0.3802 1.0000
45.0255 -0.0632 0.3803 1.0000
45.0296 0.0713 0.3803 1.0000
45.0422 0.4751 0.3804 1.0000
45.0456 0.6098 0.3805 1.0000
45.1993 1.0172 0.3818 1.0000
45.1944 1.2874 0.3818 1.0000
45.1946 1.6930 0.3820 1.0000
45.1975 1.8283 0.3820 1.0000
45.2012 1.9638 0.3821 1.0000
50.0943 3.3777 0.4240 1.0000
50.0943 3.5281 0.4241 1.0000
50.0943 3.6785 0.4242 1.0000
50.0943 3.8291 0.4243 1.0000
50.0943 3.9797 0.4244 1.0000
50.0943 4.1303 0.4245 1.0000
50.0943 4.2810 0.4246 1.0000
50.0943 4.4319 0.4247 1.0000
50.0943 5.0360 0.4252 1.0000
50.0943 5.1872 0.4253 1.0000
50.0943 6.0968 0.4262 1.0000
50.0943 6.7054 0.4268 1.0000
50.0943 6.8578 0.4270 1.0000
50.0943 7.0103 0.4272 1.0000
50.0943 7.4688 0.4277 1.0000
50.0943 7.6219 0.4279 1.0000
50.0943 7.9285 0.4283 1.0000
50.0943 8.2357 0.4287 1.0000
50.0943 8.8519 0.4296 1.0000
50.0943 9.0063 0.4298 1.0000
50.0943 9.1610 0.4301 1.0000
50.0943 9.3158 0.4303 1.0000
50.0943 9.7812 0.4311 1.0000
50.0943 10.0923 0.4316 1.0000
50.0943 10.2482 0.4318 1.0000
50.0943 10.4042 0.4321 1.0000
50.0943 10.8736 0.4329 1.0000
50.0943 11.1875 0.4335 1.0000
50.0943 11.3447 0.4338 1.0000
50.0943 11.8178 0.4347 1.0000
50.0943 11.9759 0.4350 1.0000
50.0943 12.2929 0.4356 1.0000
50.0943 12.4517 0.4359 1.0000
50.0943 13.2494 0.4376 1.0000
50.0943 -13.1153 0.4373 1.0000
50.0943 -12.7960 0.4366 1.0000
50.0943 -12.6367 0.4363 1.0000
50.0943 -12.0017 0.4350 1.0000
50.0943 -11.6855 0.4344 1.0000
50.0943 -11.0559 0.4332 1.0000
50.0943 -10.8990 0.4330 1.0000
50.0943 -10.7424 0.4327 1.0000
50.0943 -10.2735 0.4319 1.0000
50.0943 -9.4959 0.4306 1.0000
50.0943 -9.3409 0.4304 1.0000
50.0943 -9.0315 0.4299 1.0000
50.0943 -8.8770 0.4297 1.0000
50.0943 -8.5685 0.4292 1.0000
50.0943 -8.4146 0.4290 1.0000
50.0943 -8.2607 0.4288 1.0000
50.0943 -7.8001 0.4282 1.0000
50.0943 -7.6468 0.4280 1.0000
50.0942 -7.3407 0.4276 1.0000
50.0942 -6.8826 0.4270 1.0000
50.0942 -6.4256 0.4265 1.0000
50.0943 -5.8179 0.4259 1.0000
50.0942 -5.5147 0.4256 1.0000
50.0943 -5.3632 0.4255 1.0000
50.0943 -5.2119 0.4253 1.0000
50.0942 -5.0606 0.4252 1.0000
50.0942 -4.6073 0.4248 1.0000
50.0942 -4.4564 0.4247 1.0000
50.0942 -4.1549 0.4245 1.0000
50.0942 -4.0042 0.4244 1.0000
50.0942 -3.4021 0.4240 1.0000
50.0942 -3.1015 0.4239 1.0000
50.0942 -2.9512 0.4238 1.0000
44.9504 -2.3787 0.3802 1.0000
44.9598 -2.1098 0.3801 1.0000
44.9696 -1.8410 0.3801 1.0000
44.9783 -1.5722 0.3801 1.0000
44.9152 -1.3012 0.3795 1.0000
44.9950 -1.0345 0.3801 1.0000
44.9995 -0.9001 0.3801 1.0000
45.0037 -0.7656 0.3801 1.0000
45.0078 -0.6312 0.3801 1.0000
45.0120 -0.4967 0.3802 1.0000
45.0162 -0.3622 0.3802 1.0000
45.0204 -0.2277 0.3802 1.0000
45.0287 0.0413 0.3803 1.0000
45.0329 0.1760 0.3803 1.0000
45.0370 0.3105 0.3804 1.0000
45.0474 0.7145 0.3805 1.0000
45.2001 0.9871 0.3818 1.0000
45.1947 1.2572 0.3818 1.0000
45.0841 1.3890 0.3809 1.0000
45.0734 1.5235 0.3809 1.0000
45.1966 1.7981 0.3820 1.0000
45.2188 2.3407 0.3824 1.0000
45.2249 2.4765 0.3825 1.0000
50.0943 2.8933 0.4238 1.0000
50.0936 -4.7247 -0.4249 1.0000
50.0936 -4.5737 -0.4248 1.0000
50.0936 -4.4228 -0.4247 1.0000
50.0936 -4.2720 -0.4246 1.0000
50.0936 -4.1212 -0.4245 1.0000
50.0937 -3.9706 -0.4244 1.0000
50.0936 -3.8200 -0.4243 1.0000
50.0936 -3.6694 -0.4242 1.0000
50.0936 -3.2183 -0.4239 1.0000
50.0936 -2.7676 -0.4237 1.0000
50.0937 -2.0174 -0.4234 1.0000
50.0938 -1.8675 -0.4234 1.0000
44.8248 -1.5369 -0.3788 1.0000
44.8284 -1.4030 -0.3788 1.0000
44.8314 -1.2690 -0.3788 1.0000
44.8312 -1.1349 -0.3787 1.0000
44.8282 -1.0008 -0.3787 1.0000
44.8246 -0.8668 -0.3786 1.0000
50.0937 -0.5194 -0.4231 1.0000
50.0937 0.0794 -0.4231 1.0000
50.0937 0.2291 -0.4231 1.0000
50.0937 0.3788 -0.4231 1.0000
50.0937 0.5285 -0.4231 1.0000
50.0937 0.6781 -0.4231 1.0000
50.0937 0.9776 -0.4231 1.0000
44.9684 1.1465 -0.3799 1.0000
44.9719 1.2810 -0.3800 1.0000
44.9746 1.4156 -0.3800 1.0000
44.9739 1.5501 -0.3800 1.0000
44.9670 1.8190 -0.3801 1.0000
50.0937 2.1764 -0.4235 1.0000
50.0937 2.3264 -0.4235 1.0000
50.0937 2.4764 -0.4236 1.0000
50.0937 2.6265 -0.4236 1.0000
50.0937 2.7766 -0.4237 1.0000
50.0937 2.9268 -0.4238 1.0000
50.0937 3.2273 -0.4239 1.0000
50.0937 3.5281 -0.4241 1.0000
50.0937 3.6785 -0.4242 1.0000
50.0937 4.2810 -0.4246 1.0000
50.0937 4.4319 -0.4247 1.0000
50.0937 4.7337 -0.4249 1.0000
50.0937 4.8848 -0.4251 1.0000
50.0937 5.0360 -0.4252 1.0000
50.0937 5.6416 -0.4257 1.0000
50.0937 5.7931 -0.4259 1.0000
50.0937 5.9449 -0.4260 1.0000
50.0937 6.4008 -0.4265 1.0000
50.0937 6.5530 -0.4267 1.0000
50.0937 6.8578 -0.4270 1.0000
50.0937 7.0103 -0.4272 1.0000
50.0937 7.1630 -0.4274 1.0000
50.0937 7.6219 -0.4279 1.0000
50.0937 7.7751 -0.4281 1.0000
50.0937 7.9285 -0.4283 1.0000
50.0937 8.0820 -0.4285 1.0000
50.0937 8.2356 -0.4287 1.0000
50.0937 8.5434 -0.4292 1.0000
50.0937 8.6975 -0.4294 1.0000
50.0937 8.8518 -0.4296 1.0000
50.0937 9.0062 -0.4298 1.0000
50.0937 9.3156 -0.4303 1.0000
50.0937 9.4706 -0.4306 1.0000
50.0937 10.0922 -0.4316 1.0000
50.0937 10.2481 -0.4318 1.0000
50.0937 10.4041 -0.4321 1.0000
50.0937 10.7168 -0.4326 1.0000
50.0937 10.8734 -0.4329 1.0000
50.0937 11.0303 -0.4332 1.0000
50.0937 11.3446 -0.4338 1.0000
50.0937 11.5021 -0.4341 1.0000
50.0937 11.6597 -0.4344 1.0000
50.0937 11.8176 -0.4347 1.0000
50.0937 11.9758 -0.4350 1.0000
50.0937 12.1341 -0.4353 1.0000
50.0937 12.2927 -0.4356 1.0000
50.0937 12.6106 -0.4363 1.0000
50.0937 13.0892 -0.4373 1.0000
50.0937 13.2492 -0.4376 1.0000
50.0937 13.4096 -0.4379 1.0000
50.0938 -13.1152 -0.4373 1.0000
50.0938 -12.9554 -0.4370 1.0000
50.0938 -12.7958 -0.4366 1.0000
50.0937 -12.6365 -0.4363 1.0000
50.0938 -12.4774 -0.4360 1.0000
50.0937 -12.3185 -0.4357 1.0000
50.0938 -12.1599 -0.4353 1.0000
50.0938 -12.0015 -0.4350 1.0000
50.0938 -11.6854 -0.4344 1.0000
