ply
format ascii 1.0
element vertex 1607
property float32 x
property float32 y
property float32 z
property float32 I
end_header
50.0939 2.0461 6.3852 1.0000
50.0939 2.1961 6.3860 1.0000
50.0939 2.3464 6.3869 1.0000
50.0939 2.7971 6.3899 1.0000
50.0939 2.9475 6.3909 1.0000
50.0939 4.1525 6.4018 1.0000
50.0939 4.4545 6.4051 1.0000
50.0939 4.6056 6.4068 1.0000
50.0939 4.7568 6.4086 1.0000
50.0939 4.9080 6.4105 1.0000
50.0939 5.2108 6.4143 1.0000
50.0939 5.3623 6.4164 1.0000
50.0939 5.8175 6.4228 1.0000
50.0939 5.9695 6.4251 1.0000
50.0939 6.2737 6.4298 1.0000
50.0939 6.5784 6.4347 1.0000
50.0939 6.7309 6.4373 1.0000
50.0939 6.8836 6.4399 1.0000
50.0939 7.1893 6.4453 1.0000
50.0939 7.4954 6.4509 1.0000
50.0939 7.9557 6.4599 1.0000
50.0939 8.1094 6.4630 1.0000
50.0939 8.2633 6.4661 1.0000
50.0939 8.4173 6.4694 1.0000
50.0939 8.5715 6.4726 1.0000
50.0939 8.8803 6.4794 1.0000
50.0939 9.0350 6.4829 1.0000
50.0939 9.5000 6.4936 1.0000
50.0939 9.6553 6.4974 1.0000
50.0939 9.8109 6.5011 1.0000
50.0939 9.9666 6.5050 1.0000
50.0939 10.1225 6.5089 1.0000
50.0939 10.2786 6.5128 1.0000
50.0939 10.4348 6.5169 1.0000
50.0939 10.5913 6.5210 1.0000
50.0939 10.7480 6.5251 1.0000
50.0939 10.9049 6.5293 1.0000
50.0939 11.3767 6.5424 1.0000
50.0939 11.6923 6.5514 1.0000
50.0939 12.0088 6.5607 1.0000
50.0939 12.1674 6.5654 1.0000
50.0939 12.3263 6.5702 1.0000
50.0939 12.6446 6.5800 1.0000
50.0939 12.9639 6.5901 1.0000
50.0939 13.1240 6.5952 1.0000
50.0939 13.2843 6.6004 1.0000
50.0940 -13.4005 6.6042 1.0000
50.0940 -12.6007 6.5787 1.0000
50.0940 -12.2825 6.5689 1.0000
50.0940 -12.1237 6.5641 1.0000
50.0940 -11.9652 6.5594 1.0000
50.0940 -11.8068 6.5547 1.0000
50.0940 -11.6488 6.5501 1.0000
50.0940 -11.4909 6.5456 1.0000
50.0940 -11.1758 6.5368 1.0000
50.0940 -11.0186 6.5324 1.0000
50.0940 -10.5482 6.5198 1.0000
50.0940 -10.0795 6.5078 1.0000
50.0940 -9.9236 6.5039 1.0000
50.0940 -9.7680 6.5001 1.0000
50.0940 -9.6125 6.4963 1.0000
50.0940 -9.4572 6.4926 1.0000
50.0940 -9.3021 6.4890 1.0000
50.0940 -8.9923 6.4819 1.0000
50.0940 -8.6833 6.4751 1.0000
50.0940 -7.9134 6.4590 1.0000
50.0940 -7.7598 6.4560 1.0000
50.0939 -7.3000 6.4473 1.0000
50.0939 -7.1470 6.4445 1.0000
50.0939 -6.8414 6.4391 1.0000
50.0939 -6.6889 6.4365 1.0000
50.0939 -6.3840 6.4315 1.0000
50.0939 -6.2318 6.4291 1.0000
50.0939 -6.0796 6.4267 1.0000
50.0939 -5.7757 6.4222 1.0000
50.0939 -5.4721 6.4179 1.0000
50.0939 -5.1691 6.4138 1.0000
50.0939 -5.0176 6.4118 1.0000
50.0939 -4.7151 6.4081 1.0000
50.0939 -4.4129 6.4046 1.0000
50.0939 -4.1109 6.4014 1.0000
50.0939 -3.9601 6.3998 1.0000
50.0939 -3.8093 6.3983 1.0000
50.0939 -3.5080 6.3955 1.0000
50.0939 -3.0564 6.3918 1.0000
50.0939 -2.7557 6.3896 1.0000
50.0939 -2.6054 6.3885 1.0000
50.0939 -2.4552 6.3876 1.0000
50.0939 -2.1547 6.3858 1.0000
50.0939 -1.5544 6.3830 1.0000
50.0939 -1.4044 6.3824 1.0000
50.0939 -0.8046 6.3807 1.0000
50.0939 -0.5048 6.3802 1.0000
50.0939 -0.3550 6.3801 1.0000
50.0939 0.5443 6.3803 1.0000
50.0939 0.6942 6.3805 1.0000
50.0939 1.4439 6.3826 1.0000
50.0939 1.5939 6.3831 1.0000
50.0939 1.8940 6.3845 1.0000
50.0939 2.0441 6.3852 1.0000
50.0939 2.1942 6.3860 1.0000
50.0939 2.4946 6.3878 1.0000
50.0939 2.6449 6.3888 1.0000
50.0939 2.9455 6.3909 1.0000
50.0939 3.0960 6.3921 1.0000
50.0939 3.2464 6.3933 1.0000
50.0939 3.3969 6.3946 1.0000
50.0939 3.9997 6.4002 1.0000
50.0939 4.1506 6.4018 1.0000
50.0939 4.4525 6.4051 1.0000
50.0939 4.6036 6.4068 1.0000
50.0939 5.0574 6.4123 1.0000
50.0939 5.2089 6.4143 1.0000
50.0939 5.8156 6.4228 1.0000
50.0939 6.1196 6.4273 1.0000
50.0939 6.4240 6.4322 1.0000
50.0939 6.7289 6.4372 1.0000
50.0939 6.8816 6.4398 1.0000
50.0939 7.4934 6.4509 1.0000
50.0939 7.6467 6.4538 1.0000
50.0939 7.8001 6.4568 1.0000
50.0939 8.1075 6.4629 1.0000
50.0939 8.5695 6.4726 1.0000
50.0939 8.8783 6.4793 1.0000
50.0939 7.1912 5.5785 1.0000
50.0939 7.3442 5.5809 1.0000
50.0939 7.4973 5.5834 1.0000
50.0939 7.6506 5.5859 1.0000
50.0939 7.9577 5.5911 1.0000
50.0939 8.2653 5.5965 1.0000
50.0939 8.5735 5.6021 1.0000
50.0939 8.8823 5.6080 1.0000
50.0939 9.8129 5.6268 1.0000
50.0939 10.1245 5.6335 1.0000
50.0939 10.2806 5.6369 1.0000
50.0939 10.4368 5.6404 1.0000
50.0939 10.7500 5.6476 1.0000
50.0939 10.9069 5.6512 1.0000
50.0939 11.0639 5.6549 1.0000
50.0939 12.1695 5.6825 1.0000
50.0939 12.3283 5.6866 1.0000
50.0939 12.4874 5.6908 1.0000
50.0939 12.6467 5.6951 1.0000
50.0939 12.8062 5.6994 1.0000
50.0939 12.9660 5.7038 1.0000
50.0940 -13.0778 5.7069 1.0000
50.0940 -12.9178 5.7025 1.0000
50.0939 -12.2804 5.6854 1.0000
50.0940 -11.6468 5.6691 1.0000
50.0940 -11.4889 5.6652 1.0000
50.0939 -11.3312 5.6614 1.0000
50.0940 -10.7028 5.6465 1.0000
50.0940 -10.5461 5.6429 1.0000
50.0939 -10.3897 5.6394 1.0000
50.0940 -10.2335 5.6359 1.0000
50.0940 -10.0775 5.6325 1.0000
50.0940 -9.6105 5.6226 1.0000
50.0940 -9.4552 5.6194 1.0000
50.0940 -9.3000 5.6162 1.0000
50.0939 -9.1451 5.6131 1.0000
50.0939 -8.8357 5.6071 1.0000
50.0940 -8.2189 5.5957 1.0000
50.0939 -8.0650 5.5930 1.0000
50.0939 -7.9113 5.5903 1.0000
50.0940 -7.6044 5.5851 1.0000
50.0939 -7.4511 5.5826 1.0000
50.0939 -7.2980 5.5801 1.0000
50.0939 -6.9922 5.5754 1.0000
50.0939 -6.0776 5.5623 1.0000
50.0939 -5.9256 5.5604 1.0000
50.0939 -5.7737 5.5584 1.0000
50.0939 -5.6219 5.5565 1.0000
50.0939 -5.4702 5.5547 1.0000
50.0939 -4.5619 5.5447 1.0000
50.0939 -4.1089 5.5404 1.0000
50.0939 -3.5060 5.5354 1.0000
50.0939 -3.2050 5.5331 1.0000
50.0939 -3.0545 5.5321 1.0000
50.0939 -2.7537 5.5302 1.0000
50.0939 -2.4532 5.5285 1.0000
50.0939 -2.0027 5.5263 1.0000
50.0939 -1.8526 5.5256 1.0000
50.0939 -1.7025 5.5250 1.0000
50.0939 -1.4025 5.5240 1.0000
50.0939 -1.2525 5.5236 1.0000
50.0939 -1.1026 5.5232 1.0000
50.0939 -0.9527 5.5229 1.0000
50.0939 -0.6528 5.5223 1.0000
50.0939 -0.5030 5.5221 1.0000
50.0939 -0.3530 5.5220 1.0000
50.0939 0.0966 5.5219 1.0000
50.0939 0.2464 5.5219 1.0000
50.0939 0.3963 5.5220 1.0000
50.0939 0.6961 5.5224 1.0000
50.0939 0.9959 5.5229 1.0000
50.0939 1.1459 5.5233 1.0000
50.0939 1.7458 5.5252 1.0000
50.0939 2.0460 5.5265 1.0000
50.0939 2.3463 5.5279 1.0000
50.0939 2.6468 5.5296 1.0000
50.0939 2.7971 5.5305 1.0000
50.0939 2.9475 5.5314 1.0000
50.0939 3.0979 5.5324 1.0000
50.0939 3.2484 5.5335 1.0000
50.0939 3.5495 5.5357 1.0000
50.0939 3.7002 5.5369 1.0000
50.0939 3.8509 5.5381 1.0000
50.0939 4.9080 5.5483 1.0000
50.0939 5.0594 5.5499 1.0000
50.0939 5.2108 5.5517 1.0000
50.0939 5.6657 5.5571 1.0000
50.0939 5.9695 5.5609 1.0000
50.0939 6.1216 5.5629 1.0000
50.0939 6.2737 5.5650 1.0000
50.0939 6.8835 5.5737 1.0000
50.0939 7.3422 5.5809 1.0000
50.0939 7.4954 5.5833 1.0000
50.0939 7.9557 5.5911 1.0000
50.0939 8.1094 5.5937 1.0000
50.0939 8.4173 5.5993 1.0000
50.0939 8.5715 5.6021 1.0000
50.0939 8.7258 5.6050 1.0000
50.0939 8.8803 5.6079 1.0000
50.0939 9.5000 5.6203 1.0000
50.0939 9.9666 5.6301 1.0000
50.0939 10.7480 5.6475 1.0000
50.0939 11.0619 5.6549 1.0000
50.0939 11.5344 5.6663 1.0000
50.0939 11.8505 5.6743 1.0000
50.0939 12.0088 5.6783 1.0000
50.0939 12.3263 5.6866 1.0000
50.0939 12.4853 5.6908 1.0000
50.0939 12.6446 5.6951 1.0000
50.0939 12.9639 5.7038 1.0000
50.0939 13.1240 5.7082 1.0000
50.0940 -12.7602 5.6982 1.0000
50.0940 -12.4414 5.6896 1.0000
50.0939 -11.9652 5.6772 1.0000
50.0940 -11.8068 5.6732 1.0000
50.0939 -11.6487 5.6692 1.0000
50.0940 -11.4909 5.6653 1.0000
50.0940 -11.1758 5.6576 1.0000
50.0940 -11.0186 5.6539 1.0000
50.0940 -10.8616 5.6502 1.0000
50.0939 -10.5482 5.6429 1.0000
50.0939 -10.0795 5.6325 1.0000
50.0940 -9.7680 5.6259 1.0000
50.0940 -9.6125 5.6226 1.0000
50.0939 -9.4572 5.6194 1.0000
50.0939 -9.1471 5.6132 1.0000
50.0939 -8.9923 5.6101 1.0000
50.0940 -8.8377 5.6071 1.0000
50.0940 -8.0670 5.5930 1.0000
50.0939 -7.9133 5.5903 1.0000
50.0940 -7.7598 5.5877 1.0000
50.0940 -7.6064 5.5852 1.0000
50.0939 -7.4532 5.5826 1.0000
50.0939 -7.3000 5.5802 1.0000
50.0939 -7.1471 5.5778 1.0000
50.0939 -6.9942 5.5754 1.0000
50.0939 -5.9276 5.5604 1.0000
50.0939 -5.7757 5.5584 1.0000
50.0939 -5.6239 5.5565 1.0000
50.0939 -5.4721 5.5547 1.0000
50.0939 -5.3205 5.5529 1.0000
50.0939 -5.0176 5.5495 1.0000
50.0939 -4.7150 5.5463 1.0000
50.0939 -4.5639 5.5447 1.0000
50.0939 -4.4128 5.5432 1.0000
50.0939 -3.5080 5.5354 1.0000
50.0939 -3.3574 5.5342 1.0000
50.0939 -3.2069 5.5332 1.0000
50.0939 -3.0564 5.5321 1.0000
50.0939 -2.9061 5.5311 1.0000
50.0939 -2.4551 5.5285 1.0000
50.0939 -2.3049 5.5277 1.0000
50.0939 -2.1548 5.5270 1.0000
50.0939 -2.0046 5.5263 1.0000
50.0939 -1.8545 5.5256 1.0000
50.0939 -1.7045 5.5250 1.0000
50.0939 -1.2545 5.5236 1.0000
50.0939 -1.1045 5.5232 1.0000
50.0939 -0.9546 5.5229 1.0000
50.0939 -0.6548 5.5223 1.0000
50.0939 -0.3550 5.5220 1.0000
50.0939 -0.2051 5.5219 1.0000
50.0939 -0.0552 5.5219 1.0000
50.0939 0.0946 5.5219 1.0000
50.0939 0.2445 5.5219 1.0000
50.0939 0.6941 5.5224 1.0000
50.0939 1.1439 5.5233 1.0000
50.0939 2.0441 5.5265 1.0000
50.0939 2.1942 5.5271 1.0000
50.0939 2.9455 5.5314 1.0000
50.0939 3.0959 5.5324 1.0000
50.0939 3.6982 5.5369 1.0000
50.0939 4.1505 5.5408 1.0000
50.0939 4.4525 5.5436 1.0000
50.0939 5.0574 5.5499 1.0000
50.0939 5.5120 5.5552 1.0000
50.0939 5.6637 5.5570 1.0000
50.0939 5.9675 5.5609 1.0000
50.0939 6.1196 5.5629 1.0000
50.0939 6.2717 5.5650 1.0000
50.0939 6.5764 5.5692 1.0000
50.0939 7.0343 5.5760 1.0000
50.0939 7.3402 5.5808 1.0000
50.0939 7.6467 5.5858 1.0000
50.0939 7.8001 5.5884 1.0000
50.0939 8.1074 5.5937 1.0000
50.0939 8.4153 5.5992 1.0000
50.0939 8.8783 5.6079 1.0000
50.0939 7.3442 4.7169 1.0000
50.0939 7.4973 4.7190 1.0000
50.0939 7.8041 4.7233 1.0000
50.0939 7.9577 4.7255 1.0000
50.0939 8.4193 4.7324 1.0000
50.0939 8.5735 4.7348 1.0000
50.0939 8.8823 4.7398 1.0000
50.0939 9.3468 4.7475 1.0000
50.0939 9.5020 4.7502 1.0000
50.0939 9.6573 4.7529 1.0000
50.0939 9.8129 4.7557 1.0000
50.0939 10.2805 4.7642 1.0000
50.0939 10.4368 4.7672 1.0000
50.0939 10.5933 4.7702 1.0000
50.0939 10.9068 4.7763 1.0000
50.0939 11.2212 4.7826 1.0000
50.0939 12.1695 4.8027 1.0000
50.0939 12.4874 4.8098 1.0000
50.0939 12.6467 4.8134 1.0000
50.0939 12.8062 4.8171 1.0000
50.0939 12.9660 4.8208 1.0000
50.0939 13.1261 4.8245 1.0000
50.0939 13.2863 4.8283 1.0000
50.0939 -13.3984 4.8310 1.0000
50.0939 -13.2380 4.8272 1.0000
50.0939 -13.0777 4.8234 1.0000
50.0939 -12.9178 4.8197 1.0000
50.0939 -12.5986 4.8123 1.0000
50.0939 -12.4394 4.8087 1.0000
50.0939 -12.2804 4.8052 1.0000
50.0939 -12.1216 4.8017 1.0000
50.0939 -11.4889 4.7882 1.0000
50.0939 -11.0166 4.7785 1.0000
50.0939 -10.8595 4.7754 1.0000
50.0939 -10.7027 4.7723 1.0000
50.0939 -10.5461 4.7693 1.0000
50.0939 -10.2335 4.7634 1.0000
50.0939 -10.0774 4.7605 1.0000
50.0939 -9.9216 4.7576 1.0000
50.0939 -9.7659 4.7548 1.0000
50.0939 -8.8357 4.7390 1.0000
50.0939 -8.6813 4.7365 1.0000
50.0939 -8.3728 4.7317 1.0000
50.0938 -7.4512 4.7183 1.0000
50.0938 -7.2980 4.7162 1.0000
50.0938 -6.9922 4.7122 1.0000
50.0938 -6.8395 4.7103 1.0000
50.0938 -6.5344 4.7065 1.0000
50.0938 -5.9256 4.6995 1.0000
50.0938 -5.4702 4.6947 1.0000
50.0938 -5.3186 4.6932 1.0000
50.0938 -4.8643 4.6889 1.0000
50.0938 -4.5620 4.6863 1.0000
50.0938 -4.1089 4.6827 1.0000
50.0938 -3.6566 4.6794 1.0000
50.0938 -3.0545 4.6757 1.0000
50.0938 -2.9041 4.6748 1.0000
50.0938 -2.7537 4.6740 1.0000
50.0938 -2.4532 4.6726 1.0000
50.0938 -2.3030 4.6719 1.0000
50.0939 -1.4025 4.6688 1.0000
50.0939 -0.9526 4.6678 1.0000
50.0939 -0.8027 4.6676 1.0000
50.0939 -0.6528 4.6674 1.0000
50.0939 -0.5029 4.6672 1.0000
50.0939 -0.3530 4.6671 1.0000
50.0939 -0.2032 4.6670 1.0000
50.0939 -0.0532 4.6670 1.0000
50.0939 0.3963 4.6671 1.0000
50.0939 0.6961 4.6674 1.0000
50.0939 0.8460 4.6676 1.0000
50.0939 0.9959 4.6679 1.0000
50.0939 1.2958 4.6685 1.0000
50.0939 1.4458 4.6689 1.0000
50.0939 1.5958 4.6693 1.0000
50.0939 1.8959 4.6703 1.0000
50.0939 2.0460 4.6709 1.0000
50.0939 2.1961 4.6715 1.0000
50.0939 2.3463 4.6721 1.0000
50.0939 2.4965 4.6728 1.0000
50.0939 2.7971 4.6742 1.0000
50.0939 3.3989 4.6777 1.0000
50.0939 3.5495 4.6787 1.0000
50.0939 4.0016 4.6818 1.0000
50.0939 4.4545 4.6854 1.0000
50.0939 4.6055 4.6867 1.0000
50.0939 4.7567 4.6880 1.0000
50.0939 4.9080 4.6893 1.0000
50.0939 5.2108 4.6922 1.0000
50.0939 5.3623 4.6936 1.0000
50.0939 5.6657 4.6967 1.0000
50.0939 5.8175 4.6983 1.0000
50.0939 6.1215 4.7017 1.0000
50.0939 6.2737 4.7034 1.0000
50.0939 6.4260 4.7052 1.0000
50.0939 6.8836 4.7108 1.0000
50.0939 7.0363 4.7128 1.0000
50.0939 7.1892 4.7148 1.0000
50.0939 7.3422 4.7168 1.0000
50.0939 7.8021 4.7232 1.0000
50.0939 8.1094 4.7277 1.0000
50.0939 8.2632 4.7300 1.0000
50.0939 8.5714 4.7348 1.0000
50.0939 8.8803 4.7397 1.0000
50.0939 9.0350 4.7423 1.0000
50.0939 9.1898 4.7449 1.0000
50.0939 10.2786 4.7642 1.0000
50.0939 10.4348 4.7672 1.0000
50.0939 10.9048 4.7763 1.0000
50.0939 11.2192 4.7826 1.0000
50.0939 11.3767 4.7858 1.0000
50.0939 11.5344 4.7891 1.0000
50.0939 11.6923 4.7924 1.0000
50.0939 12.1674 4.8027 1.0000
50.0939 12.3263 4.8062 1.0000
50.0939 12.8041 4.8170 1.0000
50.0939 13.2842 4.8283 1.0000
50.0939 -13.4005 4.8311 1.0000
50.0939 -13.2400 4.8272 1.0000
50.0939 -13.0798 4.8234 1.0000
50.0939 -12.7602 4.8160 1.0000
50.0939 -12.6006 4.8124 1.0000
50.0939 -12.4414 4.8088 1.0000
50.0939 -12.2824 4.8052 1.0000
50.0939 -12.1237 4.8017 1.0000
50.0939 -11.9652 4.7983 1.0000
50.0939 -11.8068 4.7949 1.0000
50.0939 -11.1758 4.7817 1.0000
50.0939 -10.8616 4.7754 1.0000
50.0939 -10.2355 4.7634 1.0000
50.0939 -9.7680 4.7549 1.0000
50.0939 -9.6125 4.7521 1.0000
50.0939 -9.4572 4.7494 1.0000
50.0939 -9.1471 4.7442 1.0000
50.0939 -8.3748 4.7318 1.0000
50.0939 -8.2209 4.7294 1.0000
50.0939 -8.0670 4.7271 1.0000
50.0939 -7.6064 4.7205 1.0000
50.0938 -7.3000 4.7163 1.0000
50.0938 -6.9942 4.7122 1.0000
50.0938 -6.6888 4.7084 1.0000
50.0938 -6.5363 4.7065 1.0000
50.0938 -6.3840 4.7047 1.0000
50.0938 -6.2317 4.7030 1.0000
50.0938 -5.9276 4.6995 1.0000
50.0938 -5.6239 4.6963 1.0000
50.0938 -5.4722 4.6947 1.0000
50.0938 -5.3205 4.6932 1.0000
50.0938 -5.0176 4.6903 1.0000
50.0938 -4.5639 4.6863 1.0000
50.0938 -4.1109 4.6827 1.0000
50.0938 -3.5080 4.6784 1.0000
50.0938 -3.3574 4.6774 1.0000
50.0938 -3.2069 4.6765 1.0000
50.0938 -3.0564 4.6757 1.0000
50.0938 -2.9060 4.6748 1.0000
50.0938 -2.7557 4.6740 1.0000
50.0938 -2.6054 4.6733 1.0000
50.0939 -2.0046 4.6707 1.0000
50.0939 -1.8545 4.6702 1.0000
50.0939 -1.7045 4.6697 1.0000
50.0939 -1.4044 4.6688 1.0000
50.0939 -1.1045 4.6681 1.0000
50.0939 -0.9546 4.6678 1.0000
50.0939 -0.8046 4.6676 1.0000
50.0939 -0.0553 4.6670 1.0000
50.0939 0.2445 4.6670 1.0000
50.0939 0.3944 4.6671 1.0000
50.0939 0.5443 4.6673 1.0000
50.0939 0.6941 4.6674 1.0000
50.0939 0.8440 4.6676 1.0000
50.0939 1.1439 4.6682 1.0000
50.0939 1.2939 4.6685 1.0000
50.0939 1.4439 4.6689 1.0000
50.0939 2.0441 4.6709 1.0000
50.0939 2.3443 4.6721 1.0000
50.0939 2.4946 4.6728 1.0000
50.0939 2.6448 4.6735 1.0000
50.0939 2.7952 4.6742 1.0000
50.0939 2.9455 4.6750 1.0000
50.0939 3.0959 4.6759 1.0000
50.0939 3.2464 4.6768 1.0000
50.0939 3.3969 4.6777 1.0000
50.0939 3.6982 4.6797 1.0000
50.0939 3.8489 4.6807 1.0000
50.0939 3.9997 4.6818 1.0000
50.0939 4.1505 4.6830 1.0000
50.0939 4.9061 4.6893 1.0000
50.0939 5.3604 4.6936 1.0000
50.0939 5.5120 4.6951 1.0000
50.0939 5.6637 4.6967 1.0000
50.0939 5.8156 4.6983 1.0000
50.0939 6.1196 4.7017 1.0000
50.0939 6.2718 4.7034 1.0000
50.0939 6.4240 4.7052 1.0000
50.0939 6.5764 4.7070 1.0000
50.0939 6.7289 4.7089 1.0000
50.0939 6.8816 4.7108 1.0000
50.0939 7.3402 4.7168 1.0000
50.0939 7.4934 4.7189 1.0000
50.0939 7.9537 4.7254 1.0000
50.0939 8.1074 4.7277 1.0000
50.0939 8.2613 4.7300 1.0000
50.0939 8.5695 4.7348 1.0000
50.0939 8.8783 4.7397 1.0000
50.0939 7.3443 3.8556 1.0000
50.0939 7.4974 3.8573 1.0000
50.0939 7.6507 3.8590 1.0000
50.0939 7.8041 3.8608 1.0000
50.0939 8.2653 3.8664 1.0000
50.0939 8.4193 3.8683 1.0000
50.0939 8.7279 3.8723 1.0000
50.0939 9.8129 3.8873 1.0000
50.0939 9.9686 3.8896 1.0000
50.0939 10.1245 3.8919 1.0000
50.0939 10.4368 3.8967 1.0000
50.0939 10.5933 3.8992 1.0000
50.0939 10.7500 3.9016 1.0000
50.0939 10.9068 3.9042 1.0000
50.0939 11.0639 3.9067 1.0000
50.0939 11.2212 3.9093 1.0000
50.0939 11.3787 3.9120 1.0000
50.0939 11.6943 3.9174 1.0000
50.0939 12.6467 3.9345 1.0000
50.0939 12.9660 3.9405 1.0000
50.0939 13.1261 3.9436 1.0000
50.0939 13.2863 3.9467 1.0000
50.0939 -13.3984 3.9489 1.0000
50.0939 -12.5986 3.9336 1.0000
50.0939 -12.4394 3.9307 1.0000
50.0939 -12.2804 3.9278 1.0000
50.0939 -11.9631 3.9221 1.0000
50.0939 -11.8048 3.9193 1.0000
50.0939 -11.3312 3.9112 1.0000
50.0939 -11.0165 3.9060 1.0000
50.0939 -10.3897 3.8960 1.0000
50.0939 -10.2335 3.8936 1.0000
50.0939 -10.0774 3.8912 1.0000
50.0939 -9.9216 3.8889 1.0000
50.0939 -9.7659 3.8866 1.0000
50.0939 -9.6105 3.8844 1.0000
50.0939 -9.3000 3.8800 1.0000
50.0939 -9.1451 3.8778 1.0000
50.0939 -8.9904 3.8758 1.0000
50.0939 -8.6813 3.8717 1.0000
50.0939 -8.5270 3.8697 1.0000
50.0939 -8.2189 3.8658 1.0000
50.0939 -7.9113 3.8621 1.0000
50.0939 -7.6044 3.8585 1.0000
50.0938 -7.4511 3.8568 1.0000
50.0938 -7.2980 3.8551 1.0000
50.0938 -7.1450 3.8534 1.0000
50.0938 -6.9921 3.8518 1.0000
50.0938 -6.8395 3.8502 1.0000
50.0938 -6.2298 3.8442 1.0000
50.0938 -5.6219 3.8387 1.0000
50.0938 -4.8643 3.8327 1.0000
50.0938 -4.7131 3.8316 1.0000
50.0938 -4.5619 3.8306 1.0000
50.0938 -4.4109 3.8296 1.0000
50.0938 -4.2599 3.8286 1.0000
50.0938 -3.2049 3.8226 1.0000
50.0938 -3.0545 3.8219 1.0000
50.0938 -2.7537 3.8206 1.0000
50.0938 -2.6034 3.8199 1.0000
50.0939 -2.4532 3.8194 1.0000
50.0939 -2.1528 3.8183 1.0000
50.0939 -1.2525 3.8160 1.0000
50.0939 -0.9526 3.8155 1.0000
50.0939 -0.8027 3.8153 1.0000
50.0939 -0.5029 3.8150 1.0000
50.0939 -0.3530 3.8149 1.0000
50.0939 -0.2032 3.8148 1.0000
50.0939 -0.0532 3.8148 1.0000
50.0939 0.0966 3.8148 1.0000
50.0939 0.2465 3.8148 1.0000
50.0939 0.3963 3.8149 1.0000
50.0939 0.5462 3.8150 1.0000
50.0939 0.6961 3.8152 1.0000
50.0939 0.9960 3.8156 1.0000
50.0939 1.1459 3.8158 1.0000
50.0939 1.5958 3.8167 1.0000
50.0939 1.7459 3.8171 1.0000
50.0939 2.0461 3.8180 1.0000
50.0939 2.3464 3.8190 1.0000
50.0939 2.4966 3.8195 1.0000
50.0939 2.7971 3.8207 1.0000
50.0939 2.9475 3.8214 1.0000
50.0939 3.2484 3.8228 1.0000
50.0939 3.5495 3.8244 1.0000
50.0939 3.8509 3.8260 1.0000
50.0939 4.0016 3.8269 1.0000
50.0939 4.1525 3.8279 1.0000
50.0939 4.4545 3.8298 1.0000
50.0939 4.6056 3.8309 1.0000
50.0939 5.0594 3.8342 1.0000
50.0939 5.3624 3.8366 1.0000
50.0939 5.9695 3.8418 1.0000
50.0939 6.1216 3.8432 1.0000
50.0939 6.4261 3.8461 1.0000
50.0939 6.5784 3.8475 1.0000
50.0939 6.8836 3.8506 1.0000
50.0939 7.6487 3.8590 1.0000
50.0939 7.8021 3.8608 1.0000
50.0939 7.9557 3.8626 1.0000
50.0939 8.1094 3.8645 1.0000
50.0939 8.2633 3.8663 1.0000
50.0939 8.4173 3.8683 1.0000
50.0939 8.7259 3.8722 1.0000
50.0939 9.0350 3.8763 1.0000
50.0939 9.1898 3.8785 1.0000
50.0939 9.5000 3.8828 1.0000
50.0939 10.1225 3.8919 1.0000
50.0939 10.2786 3.8943 1.0000
50.0939 10.4348 3.8967 1.0000
50.0939 10.7480 3.9016 1.0000
50.0939 11.0619 3.9067 1.0000
50.0939 11.2192 3.9093 1.0000
50.0939 11.3767 3.9119 1.0000
50.0939 11.5344 3.9146 1.0000
50.0939 11.6923 3.9173 1.0000
50.0939 12.1675 3.9257 1.0000
50.0939 12.4854 3.9315 1.0000
50.0939 12.6446 3.9344 1.0000
50.0939 12.9639 3.9405 1.0000
50.0939 13.1239 3.9435 1.0000
50.0939 13.2843 3.9467 1.0000
50.0939 -13.2400 3.9458 1.0000
50.0939 -13.0798 3.9427 1.0000
50.0939 -12.9199 3.9396 1.0000
50.0939 -12.2825 3.9278 1.0000
50.0939 -11.9652 3.9221 1.0000
50.0939 -11.8068 3.9193 1.0000
50.0939 -11.6487 3.9166 1.0000
50.0939 -10.8616 3.9034 1.0000
50.0939 -10.5482 3.8985 1.0000
50.0939 -10.3917 3.8960 1.0000
50.0939 -9.6125 3.8844 1.0000
50.0939 -9.4572 3.8822 1.0000
50.0939 -8.9923 3.8758 1.0000
50.0939 -8.8377 3.8737 1.0000
50.0939 -8.6832 3.8717 1.0000
50.0939 -8.5289 3.8697 1.0000
50.0939 -8.3748 3.8677 1.0000
50.0939 -8.2209 3.8658 1.0000
50.0939 -8.0670 3.8639 1.0000
50.0939 -7.9133 3.8621 1.0000
50.0939 -7.7598 3.8603 1.0000
50.0938 -7.1470 3.8534 1.0000
50.0938 -6.6888 3.8487 1.0000
50.0938 -6.5364 3.8471 1.0000
50.0938 -6.3840 3.8456 1.0000
50.0938 -6.0796 3.8428 1.0000
50.0938 -5.7757 3.8401 1.0000
50.0938 -4.8663 3.8328 1.0000
50.0938 -4.7150 3.8316 1.0000
50.0938 -4.4129 3.8296 1.0000
50.0938 -4.2618 3.8286 1.0000
50.0938 -4.1109 3.8276 1.0000
50.0938 -3.9600 3.8267 1.0000
50.0938 -3.8093 3.8258 1.0000
50.0938 -3.6586 3.8249 1.0000
50.0938 -3.5080 3.8241 1.0000
50.0938 -3.3574 3.8234 1.0000
50.0938 -3.2069 3.8226 1.0000
50.0938 -3.0564 3.8219 1.0000
50.0938 -2.9061 3.8212 1.0000
50.0938 -2.7557 3.8206 1.0000
50.0938 -2.6054 3.8199 1.0000
50.0939 -2.3049 3.8188 1.0000
50.0939 -2.0046 3.8178 1.0000
50.0939 -1.8545 3.8174 1.0000
50.0939 -1.5544 3.8166 1.0000
50.0939 -1.2544 3.8160 1.0000
50.0939 -1.1045 3.8157 1.0000
50.0939 -0.6547 3.8151 1.0000
50.0939 -0.5048 3.8150 1.0000
50.0939 -0.3550 3.8149 1.0000
50.0939 -0.2051 3.8148 1.0000
50.0939 -0.0552 3.8148 1.0000
50.0939 0.2446 3.8148 1.0000
50.0939 0.3944 3.8149 1.0000
50.0939 0.6942 3.8152 1.0000
50.0939 1.2939 3.8161 1.0000
50.0939 1.8940 3.8175 1.0000
50.0939 2.0441 3.8180 1.0000
50.0939 2.1943 3.8184 1.0000
50.0939 2.4946 3.8195 1.0000
50.0939 2.7952 3.8207 1.0000
50.0939 2.9456 3.8214 1.0000
50.0939 3.0960 3.8221 1.0000
50.0939 3.2464 3.8228 1.0000
50.0939 3.3970 3.8236 1.0000
50.0939 3.5475 3.8244 1.0000
50.0939 3.6982 3.8252 1.0000
50.0939 3.8489 3.8260 1.0000
50.0939 4.3015 3.8288 1.0000
50.0939 4.4525 3.8298 1.0000
50.0939 4.6036 3.8309 1.0000
50.0939 4.9061 3.8330 1.0000
50.0939 5.0575 3.8342 1.0000
50.0939 5.2089 3.8354 1.0000
50.0939 5.3604 3.8366 1.0000
50.0939 5.8156 3.8404 1.0000
50.0939 6.4240 3.8460 1.0000
50.0939 6.8816 3.8506 1.0000
50.0939 7.1872 3.8539 1.0000
50.0939 7.3402 3.8555 1.0000
50.0939 7.6467 3.8590 1.0000
50.0939 7.8001 3.8608 1.0000
50.0939 8.1074 3.8644 1.0000
50.0939 8.2613 3.8663 1.0000
50.0939 8.5695 3.8702 1.0000
50.0939 8.7238 3.8722 1.0000
50.0939 8.8783 3.8742 1.0000
50.0939 7.1912 2.9952 1.0000
50.0939 7.4973 2.9978 1.0000
50.0939 7.6506 2.9992 1.0000
50.0939 7.8041 3.0006 1.0000
50.0939 8.1114 3.0034 1.0000
50.0939 9.0370 3.0127 1.0000
50.0939 9.1918 3.0143 1.0000
50.0939 9.3468 3.0160 1.0000
50.0939 9.6573 3.0194 1.0000
50.0939 9.9686 3.0229 1.0000
50.0939 10.1245 3.0248 1.0000
50.0939 10.4368 3.0285 1.0000
50.0939 10.5933 3.0304 1.0000
50.0939 10.7500 3.0323 1.0000
50.0939 11.0639 3.0362 1.0000
50.0939 11.2212 3.0383 1.0000
50.0939 11.3787 3.0403 1.0000
50.0939 11.8525 3.0467 1.0000
50.0939 12.3283 3.0533 1.0000
50.0939 12.4873 3.0555 1.0000
50.0939 12.6466 3.0578 1.0000
50.0939 12.8062 3.0601 1.0000
50.0939 13.2863 3.0673 1.0000
50.0939 -13.2379 3.0666 1.0000
50.0939 -13.0777 3.0642 1.0000
50.0939 -12.9178 3.0618 1.0000
50.0939 -12.7581 3.0594 1.0000
50.0939 -12.4393 3.0548 1.0000
50.0939 -12.1216 3.0504 1.0000
50.0939 -11.8047 3.0460 1.0000
50.0939 -11.6467 3.0439 1.0000
50.0939 -11.4889 3.0418 1.0000
50.0939 -10.7027 3.0317 1.0000
50.0939 -10.0774 3.0242 1.0000
50.0939 -9.7659 3.0206 1.0000
50.0939 -9.6104 3.0189 1.0000
50.0939 -9.4552 3.0172 1.0000
50.0939 -9.3000 3.0155 1.0000
50.0939 -9.1451 3.0138 1.0000
50.0939 -8.9903 3.0122 1.0000
50.0939 -8.8357 3.0106 1.0000
50.0939 -8.6812 3.0090 1.0000
50.0939 -8.3729 3.0059 1.0000
50.0939 -8.2189 3.0044 1.0000
50.0939 -7.6044 2.9988 1.0000
50.0938 -7.2980 2.9961 1.0000
50.0938 -7.1450 2.9948 1.0000
50.0938 -6.6868 2.9911 1.0000
50.0938 -6.5343 2.9899 1.0000
50.0938 -6.3820 2.9888 1.0000
50.0938 -5.9256 2.9855 1.0000
50.0938 -5.6219 2.9834 1.0000
50.0938 -5.1670 2.9805 1.0000
50.0938 -5.0156 2.9796 1.0000
50.0938 -4.8643 2.9787 1.0000
50.0938 -4.7131 2.9779 1.0000
50.0938 -4.4108 2.9763 1.0000
50.0938 -4.2599 2.9755 1.0000
50.0938 -3.9581 2.9740 1.0000
50.0938 -3.8073 2.9733 1.0000
50.0938 -3.6566 2.9727 1.0000
50.0938 -3.5060 2.9721 1.0000
50.0938 -2.7537 2.9693 1.0000
50.0938 -2.4532 2.9684 1.0000
50.0938 -2.1528 2.9675 1.0000
50.0939 -1.8526 2.9668 1.0000
50.0939 -1.7025 2.9665 1.0000
50.0939 -1.4025 2.9660 1.0000
50.0939 -0.5029 2.9649 1.0000
50.0939 -0.3530 2.9649 1.0000
50.0939 -0.2032 2.9648 1.0000
50.0939 -0.0533 2.9648 1.0000
50.0939 0.0966 2.9648 1.0000
50.0939 0.5462 2.9650 1.0000
50.0939 0.9959 2.9654 1.0000
50.0939 1.2958 2.9658 1.0000
50.0939 1.4458 2.9660 1.0000
50.0939 1.5958 2.9663 1.0000
50.0939 1.7459 2.9666 1.0000
50.0939 2.0460 2.9673 1.0000
50.0939 2.1962 2.9676 1.0000
50.0939 2.3463 2.9681 1.0000
50.0939 2.4966 2.9685 1.0000
50.0939 2.6468 2.9689 1.0000
50.0939 2.9475 2.9699 1.0000
50.0939 3.0979 2.9705 1.0000
50.0939 3.2484 2.9710 1.0000
50.0939 3.5495 2.9722 1.0000
50.0939 3.7002 2.9729 1.0000
50.0939 4.0016 2.9742 1.0000
50.0939 4.4545 2.9765 1.0000
50.0939 4.9080 2.9790 1.0000
50.0939 5.3623 2.9817 1.0000
50.0939 6.1215 2.9869 1.0000
50.0939 6.2737 2.9880 1.0000
50.0939 6.7309 2.9914 1.0000
50.0939 7.0363 2.9939 1.0000
50.0939 7.6487 2.9992 1.0000
50.0939 7.8021 3.0005 1.0000
50.0939 8.2633 3.0049 1.0000
50.0939 8.4173 3.0064 1.0000
50.0939 8.5715 3.0079 1.0000
50.0939 8.7258 3.0094 1.0000
50.0939 8.8803 3.0110 1.0000
50.0939 9.0350 3.0126 1.0000
50.0939 9.1898 3.0143 1.0000
50.0939 9.5000 3.0176 1.0000
50.0939 9.6553 3.0194 1.0000
50.0939 9.8109 3.0211 1.0000
50.0939 9.9666 3.0229 1.0000
50.0939 10.1225 3.0247 1.0000
50.0939 10.2786 3.0266 1.0000
50.0939 10.5913 3.0303 1.0000
50.0939 10.7480 3.0323 1.0000
50.0939 11.3767 3.0403 1.0000
50.0939 11.5344 3.0424 1.0000
50.0939 12.4853 3.0555 1.0000
50.0939 12.6446 3.0578 1.0000
50.0939 12.8041 3.0601 1.0000
50.0939 12.9639 3.0625 1.0000
50.0939 13.1240 3.0649 1.0000
50.0939 -13.4005 3.0690 1.0000
50.0939 -13.2400 3.0666 1.0000
50.0939 -13.0798 3.0642 1.0000
50.0939 -12.9198 3.0618 1.0000
50.0939 -12.7602 3.0595 1.0000
50.0939 -12.6007 3.0572 1.0000
50.0939 -12.4414 3.0549 1.0000
50.0939 -12.2824 3.0526 1.0000
50.0939 -11.9652 3.0482 1.0000
50.0939 -11.6487 3.0439 1.0000
50.0939 -11.4909 3.0418 1.0000
50.0939 -11.3332 3.0397 1.0000
50.0939 -11.1758 3.0377 1.0000
50.0939 -10.8615 3.0337 1.0000
50.0939 -10.3917 3.0279 1.0000
50.0939 -10.2355 3.0261 1.0000
50.0939 -9.9236 3.0224 1.0000
50.0939 -9.3021 3.0155 1.0000
50.0939 -8.6832 3.0090 1.0000
50.0939 -8.3748 3.0060 1.0000
50.0939 -8.0670 3.0030 1.0000
50.0939 -7.7598 3.0002 1.0000
50.0938 -7.4531 2.9974 1.0000
50.0938 -7.1470 2.9948 1.0000
50.0938 -6.6888 2.9911 1.0000
50.0938 -6.5364 2.9899 1.0000
50.0938 -6.3840 2.9888 1.0000
50.0938 -6.2318 2.9877 1.0000
50.0938 -6.0796 2.9866 1.0000
50.0938 -5.9276 2.9855 1.0000
50.0938 -5.7757 2.9844 1.0000
50.0938 -5.1691 2.9805 1.0000
50.0938 -4.8663 2.9788 1.0000
50.0938 -4.4128 2.9763 1.0000
50.0938 -3.9600 2.9740 1.0000
50.0938 -3.8093 2.9734 1.0000
50.0938 -3.2068 2.9709 1.0000
50.0938 -3.0564 2.9703 1.0000
50.0938 -2.9060 2.9698 1.0000
50.0938 -2.7557 2.9693 1.0000
50.0938 -2.6054 2.9688 1.0000
50.0939 -2.1547 2.9675 1.0000
50.0939 -2.0046 2.9672 1.0000
50.0939 -1.8545 2.9668 1.0000
50.0939 -1.7045 2.9665 1.0000
50.0939 -1.5545 2.9662 1.0000
50.0939 -1.1045 2.9655 1.0000
50.0939 -0.9546 2.9653 1.0000
50.0939 -0.6548 2.9651 1.0000
50.0939 -0.5048 2.9650 1.0000
50.0939 -0.2051 2.9648 1.0000
50.0939 -0.0552 2.9648 1.0000
50.0939 0.0946 2.9648 1.0000
50.0939 0.2445 2.9648 1.0000
50.0938 1.1439 2.9656 1.0000
50.0939 1.2939 2.9658 1.0000
50.0939 2.1942 2.9676 1.0000
50.0939 2.3444 2.9680 1.0000
50.0939 2.4946 2.9685 1.0000
50.0939 2.6449 2.9689 1.0000
50.0939 2.9455 2.9699 1.0000
50.0939 3.2464 2.9710 1.0000
50.0939 3.5475 2.9722 1.0000
50.0939 3.9997 2.9742 1.0000
50.0939 4.3015 2.9757 1.0000
50.0939 4.4525 2.9765 1.0000
50.0939 5.2088 2.9808 1.0000
50.0939 5.5120 2.9827 1.0000
50.0939 5.6637 2.9837 1.0000
50.0939 5.8156 2.9847 1.0000
50.0939 5.9675 2.9858 1.0000
50.0939 6.2717 2.9879 1.0000
50.0939 6.4240 2.9891 1.0000
50.0939 6.5764 2.9902 1.0000
50.0939 7.0343 2.9939 1.0000
50.0939 7.1872 2.9952 1.0000
50.0939 7.8001 3.0005 1.0000
50.0939 7.9537 3.0019 1.0000
50.0939 8.2612 3.0049 1.0000
50.0939 8.4153 3.0063 1.0000
50.0939 8.5695 3.0079 1.0000
50.0938 7.3442 2.1391 1.0000
50.0938 7.4974 2.1401 1.0000
50.0938 7.6507 2.1410 1.0000
50.0938 7.8041 2.1420 1.0000
50.0938 8.4193 2.1462 1.0000
50.0938 8.5735 2.1473 1.0000
50.0938 8.7279 2.1484 1.0000
50.0938 8.8823 2.1495 1.0000
50.0938 9.0370 2.1507 1.0000
50.0938 9.1918 2.1518 1.0000
50.0938 9.3468 2.1530 1.0000
50.0938 9.5020 2.1542 1.0000
50.0938 9.6573 2.1555 1.0000
50.0938 9.9686 2.1580 1.0000
50.0938 10.1245 2.1593 1.0000
50.0938 10.4368 2.1620 1.0000
50.0938 10.7500 2.1647 1.0000
50.0938 11.3787 2.1704 1.0000
50.0938 11.6943 2.1734 1.0000
50.0938 11.8525 2.1749 1.0000
50.0938 12.1695 2.1781 1.0000
50.0938 12.6467 2.1829 1.0000
50.0938 12.9660 2.1863 1.0000
50.0938 13.1261 2.1880 1.0000
50.0938 13.2863 2.1897 1.0000
50.0939 -13.3984 2.1909 1.0000
50.0939 -13.2379 2.1892 1.0000
50.0939 -13.0777 2.1874 1.0000
50.0939 -12.5986 2.1824 1.0000
50.0939 -12.2804 2.1792 1.0000
50.0939 -12.1216 2.1776 1.0000
50.0939 -11.8048 2.1745 1.0000
50.0939 -11.4888 2.1715 1.0000
50.0939 -11.3312 2.1700 1.0000
50.0939 -11.0166 2.1671 1.0000
50.0939 -10.8595 2.1657 1.0000
50.0939 -10.2335 2.1602 1.0000
50.0939 -10.0774 2.1589 1.0000
50.0939 -9.9216 2.1576 1.0000
50.0939 -9.7659 2.1564 1.0000
50.0939 -9.4552 2.1539 1.0000
50.0939 -9.3000 2.1527 1.0000
50.0939 -9.1451 2.1515 1.0000
50.0939 -8.9903 2.1503 1.0000
50.0939 -8.5269 2.1469 1.0000
50.0939 -8.3728 2.1459 1.0000
50.0939 -8.0650 2.1438 1.0000
50.0939 -7.9113 2.1427 1.0000
50.0939 -7.6044 2.1408 1.0000
50.0938 -7.2980 2.1388 1.0000
50.0938 -6.8395 2.1361 1.0000
50.0938 -6.5344 2.1344 1.0000
50.0938 -6.2298 2.1328 1.0000
50.0938 -6.0776 2.1320 1.0000
50.0938 -5.1670 2.1277 1.0000
50.0938 -4.8643 2.1265 1.0000
50.0938 -4.5619 2.1253 1.0000
50.0938 -4.2598 2.1241 1.0000
50.0938 -4.1089 2.1236 1.0000
50.0938 -3.9581 2.1231 1.0000
50.0938 -3.8073 2.1226 1.0000
50.0938 -3.5060 2.1217 1.0000
50.0938 -2.9041 2.1201 1.0000
50.0938 -2.3030 2.1187 1.0000
50.0938 -1.7025 2.1177 1.0000
50.0938 -1.2525 2.1172 1.0000
50.0938 -0.8027 2.1168 1.0000
50.0938 -0.2032 2.1165 1.0000
50.0938 -0.0533 2.1165 1.0000
50.0938 0.2464 2.1165 1.0000
50.0938 0.8460 2.1168 1.0000
50.0938 0.9959 2.1169 1.0000
50.0938 1.1459 2.1171 1.0000
50.0938 1.2958 2.1172 1.0000
50.0938 1.4458 2.1174 1.0000
50.0938 2.0460 2.1183 1.0000
50.0938 2.3463 2.1188 1.0000
50.0938 2.4965 2.1191 1.0000
50.0938 2.6468 2.1195 1.0000
50.0938 2.7971 2.1198 1.0000
50.0938 3.0979 2.1205 1.0000
50.0938 3.5495 2.1218 1.0000
50.0938 3.7001 2.1223 1.0000
50.0938 3.8509 2.1227 1.0000
50.0938 4.1525 2.1238 1.0000
50.0938 4.3035 2.1243 1.0000
50.0938 4.4545 2.1248 1.0000
50.0938 4.7568 2.1260 1.0000
50.0938 5.0593 2.1273 1.0000
50.0938 5.3623 2.1286 1.0000
50.0938 5.5139 2.1293 1.0000
50.0938 5.6657 2.1300 1.0000
50.0938 5.9695 2.1315 1.0000
50.0938 6.1215 2.1322 1.0000
50.0938 6.4260 2.1338 1.0000
50.0938 6.7309 2.1355 1.0000
50.0938 6.8836 2.1364 1.0000
50.0938 7.1892 2.1382 1.0000
50.0938 7.6487 2.1410 1.0000
50.0938 7.9557 2.1430 1.0000
50.0938 8.2633 2.1451 1.0000
50.0938 8.4173 2.1462 1.0000
50.0938 8.7258 2.1484 1.0000
50.0938 8.8803 2.1495 1.0000
50.0938 9.0350 2.1507 1.0000
50.0938 9.1898 2.1518 1.0000
50.0938 9.3448 2.1530 1.0000
50.0938 9.8109 2.1567 1.0000
50.0938 10.4348 2.1619 1.0000
50.0938 10.7480 2.1647 1.0000
50.0938 10.9048 2.1661 1.0000
50.0938 11.0618 2.1675 1.0000
50.0938 11.2192 2.1689 1.0000
50.0938 11.6923 2.1734 1.0000
50.0938 11.8505 2.1749 1.0000
50.0938 12.0088 2.1765 1.0000
50.0938 12.3262 2.1796 1.0000
50.0938 12.8041 2.1845 1.0000
50.0938 12.9639 2.1862 1.0000
50.0939 -13.0798 2.1875 1.0000
50.0939 -12.2824 2.1792 1.0000
50.0939 -11.3332 2.1700 1.0000
50.0939 -11.1758 2.1685 1.0000
50.0939 -11.0186 2.1671 1.0000
50.0939 -10.7048 2.1643 1.0000
50.0939 -10.5481 2.1629 1.0000
50.0939 -10.3917 2.1616 1.0000
50.0939 -10.2355 2.1602 1.0000
50.0939 -10.0795 2.1589 1.0000
50.0939 -9.7679 2.1564 1.0000
50.0939 -9.6125 2.1551 1.0000
50.0939 -9.3020 2.1527 1.0000
50.0939 -9.1471 2.1515 1.0000
50.0939 -8.8377 2.1492 1.0000
50.0939 -8.6832 2.1481 1.0000
50.0939 -8.3748 2.1459 1.0000
50.0939 -8.0670 2.1438 1.0000
50.0939 -7.9133 2.1427 1.0000
50.0938 -7.1470 2.1379 1.0000
50.0938 -6.8414 2.1362 1.0000
50.0938 -6.5363 2.1344 1.0000
50.0938 -6.2317 2.1328 1.0000
50.0938 -5.9275 2.1313 1.0000
50.0938 -5.7757 2.1305 1.0000
50.0938 -5.6238 2.1298 1.0000
50.0938 -5.4722 2.1291 1.0000
50.0938 -5.1691 2.1277 1.0000
50.0938 -4.8663 2.1265 1.0000
50.0938 -4.4128 2.1247 1.0000
50.0938 -3.9601 2.1231 1.0000
50.0938 -3.8093 2.1226 1.0000
50.0938 -3.6586 2.1221 1.0000
50.0938 -3.3574 2.1213 1.0000
50.0938 -2.7557 2.1197 1.0000
50.0938 -2.6054 2.1194 1.0000
50.0938 -2.3049 2.1187 1.0000
50.0938 -2.1547 2.1185 1.0000
50.0938 -2.0046 2.1182 1.0000
50.0938 -1.7045 2.1177 1.0000
50.0938 -1.4044 2.1173 1.0000
50.0938 -1.1045 2.1170 1.0000
50.0938 -0.9546 2.1169 1.0000
50.0938 -0.8046 2.1168 1.0000
50.0938 -0.6547 2.1167 1.0000
50.0938 -0.3550 2.1166 1.0000
50.0938 -0.2051 2.1165 1.0000
50.0938 -0.0553 2.1165 1.0000
50.0938 0.0946 2.1165 1.0000
50.0938 0.3944 2.1166 1.0000
50.0938 0.5443 2.1166 1.0000
50.0938 0.8441 2.1168 1.0000
50.0938 1.4439 2.1174 1.0000
50.0938 1.5939 2.1176 1.0000
50.0938 1.8939 2.1180 1.0000
50.0938 2.0441 2.1183 1.0000
50.0938 2.1942 2.1185 1.0000
50.0938 2.3444 2.1188 1.0000
50.0938 2.6448 2.1195 1.0000
50.0938 2.7952 2.1198 1.0000
50.0938 3.0959 2.1205 1.0000
50.0938 3.2464 2.1209 1.0000
50.0938 3.3970 2.1214 1.0000
50.0938 3.9997 2.1232 1.0000
50.0938 4.4525 2.1248 1.0000
50.0938 4.7548 2.1260 1.0000
50.0938 5.0574 2.1273 1.0000
50.0938 5.5120 2.1293 1.0000
50.0938 5.8156 2.1307 1.0000
50.0938 5.9675 2.1315 1.0000
50.0938 6.2718 2.1330 1.0000
50.0938 6.4240 2.1338 1.0000
50.0938 7.0343 2.1373 1.0000
50.0938 7.3402 2.1391 1.0000
50.0938 7.4934 2.1401 1.0000
50.0938 7.8001 2.1420 1.0000
50.0938 7.9537 2.1430 1.0000
50.0938 8.1074 2.1440 1.0000
50.0938 8.2613 2.1451 1.0000
50.0938 8.5695 2.1473 1.0000
50.0938 8.7238 2.1484 1.0000
50.0938 7.3442 1.2830 1.0000
50.0938 7.6507 1.2841 1.0000
50.0938 7.8041 1.2847 1.0000
50.0938 7.9577 1.2853 1.0000
50.0938 8.2653 1.2866 1.0000
50.0938 8.4193 1.2872 1.0000
50.0938 9.1918 1.2906 1.0000
50.0938 9.3468 1.2913 1.0000
50.0938 9.6573 1.2928 1.0000
50.0938 10.1245 1.2951 1.0000
50.0938 10.2806 1.2959 1.0000
50.0938 10.4369 1.2967 1.0000
50.0938 10.7500 1.2983 1.0000
50.0938 10.9069 1.2992 1.0000
50.0938 11.0639 1.3000 1.0000
50.0938 11.2212 1.3009 1.0000
50.0938 11.3787 1.3018 1.0000
50.0938 11.5364 1.3026 1.0000
50.0938 11.6944 1.3035 1.0000
50.0938 12.3283 1.3073 1.0000
50.0938 12.4874 1.3083 1.0000
50.0938 13.1261 1.3123 1.0000
50.0938 13.2863 1.3133 1.0000
50.0939 -13.2379 1.3130 1.0000
50.0938 -12.9178 1.3109 1.0000
50.0938 -12.4394 1.3080 1.0000
50.0939 -12.2804 1.3070 1.0000
50.0939 -11.9631 1.3051 1.0000
50.0939 -11.6467 1.3033 1.0000
50.0938 -11.1738 1.3006 1.0000
50.0939 -11.0165 1.2998 1.0000
50.0938 -10.8595 1.2989 1.0000
50.0938 -10.7027 1.2981 1.0000
50.0938 -10.5461 1.2972 1.0000
50.0939 -10.2335 1.2956 1.0000
50.0938 -9.7659 1.2933 1.0000
50.0939 -9.6105 1.2926 1.0000
50.0939 -9.4552 1.2918 1.0000
50.0939 -9.1451 1.2904 1.0000
50.0938 -8.2188 1.2864 1.0000
50.0938 -7.9113 1.2852 1.0000
50.0938 -7.6044 1.2840 1.0000
50.0938 -7.1450 1.2823 1.0000
50.0938 -6.6869 1.2807 1.0000
50.0938 -6.5344 1.2802 1.0000
50.0938 -6.3821 1.2797 1.0000
50.0938 -6.0777 1.2787 1.0000
50.0938 -5.7737 1.2778 1.0000
50.0938 -5.6219 1.2774 1.0000
50.0938 -5.3186 1.2766 1.0000
50.0938 -4.7131 1.2750 1.0000
50.0938 -4.4109 1.2743 1.0000
50.0938 -4.2599 1.2740 1.0000
50.0938 -3.8073 1.2731 1.0000
50.0938 -3.6567 1.2728 1.0000
50.0938 -3.3555 1.2723 1.0000
50.0938 -3.0545 1.2718 1.0000
45.0155 -2.3395 1.1423 1.0000
45.0174 -2.0696 1.1420 1.0000
45.0198 -1.9348 1.1419 1.0000
45.0286 -1.3955 1.1416 1.0000
45.0298 -1.2607 1.1415 1.0000
45.0321 -0.8564 1.1414 1.0000
45.0345 -0.7217 1.1414 1.0000
45.0416 -0.3174 1.1414 1.0000
45.0440 -0.1827 1.1415 1.0000
45.0487 0.0868 1.1416 1.0000
45.0542 0.6261 1.1418 1.0000
45.2463 0.8996 1.1468 1.0000
45.2423 1.0348 1.1468 1.0000
45.2415 1.1703 1.1468 1.0000
45.2427 1.3058 1.1470 1.0000
45.2453 1.5768 1.1473 1.0000
45.2532 1.8483 1.1477 1.0000
45.2565 1.9840 1.1479 1.0000
45.2866 2.2570 1.1490 1.0000
45.3080 2.5299 1.1499 1.0000
50.0939 2.9475 1.2716 1.0000
50.0938 3.3989 1.2723 1.0000
50.0938 4.0017 1.2735 1.0000
50.0938 4.1525 1.2738 1.0000
50.0938 4.3035 1.2741 1.0000
50.0938 4.6056 1.2748 1.0000
50.0938 4.9080 1.2755 1.0000
50.0938 5.5140 1.2771 1.0000
50.0938 6.1216 1.2789 1.0000
50.0938 6.4260 1.2798 1.0000
50.0938 6.5784 1.2803 1.0000
50.0938 6.7309 1.2808 1.0000
50.0938 6.8836 1.2813 1.0000
50.0938 7.1893 1.2824 1.0000
50.0938 7.3422 1.2830 1.0000
50.0938 7.6487 1.2841 1.0000
50.0938 7.8021 1.2847 1.0000
50.0938 7.9557 1.2853 1.0000
50.0938 8.7258 1.2885 1.0000
50.0938 8.8804 1.2892 1.0000
50.0938 9.0350 1.2899 1.0000
50.0938 9.3448 1.2913 1.0000
50.0938 9.5000 1.2920 1.0000
50.0938 9.6554 1.2928 1.0000
50.0938 9.9666 1.2943 1.0000
50.0938 10.1225 1.2951 1.0000
50.0938 10.2786 1.2959 1.0000
50.0938 10.4348 1.2967 1.0000
50.0938 10.9048 1.2992 1.0000
50.0938 11.0619 1.3000 1.0000
50.0938 11.3767 1.3017 1.0000
50.0938 11.5344 1.3026 1.0000
50.0938 11.6923 1.3035 1.0000
50.0938 12.0089 1.3054 1.0000
50.0938 12.1674 1.3063 1.0000
50.0938 12.4853 1.3083 1.0000
50.0938 12.6446 1.3092 1.0000
50.0938 12.8042 1.3102 1.0000
50.0938 13.1239 1.3123 1.0000
50.0938 13.2843 1.3133 1.0000
50.0939 -13.2400 1.3130 1.0000
50.0938 -13.0798 1.3120 1.0000
50.0938 -12.7601 1.3100 1.0000
50.0939 -12.6007 1.3090 1.0000
50.0939 -12.2825 1.3070 1.0000
50.0939 -12.1237 1.3061 1.0000
50.0939 -11.9651 1.3051 1.0000
50.0939 -11.8068 1.3042 1.0000
50.0938 -11.3332 1.3015 1.0000
50.0938 -10.8616 1.2989 1.0000
50.0939 -10.7048 1.2981 1.0000
50.0938 -10.5482 1.2973 1.0000
50.0938 -10.3917 1.2964 1.0000
50.0939 -10.0795 1.2949 1.0000
50.0938 -9.9236 1.2941 1.0000
50.0938 -9.7679 1.2933 1.0000
50.0939 -9.6125 1.2926 1.0000
50.0939 -9.4572 1.2918 1.0000
50.0939 -9.3021 1.2911 1.0000
50.0938 -8.6832 1.2883 1.0000
50.0938 -8.5289 1.2877 1.0000
50.0939 -8.2209 1.2864 1.0000
50.0939 -8.0670 1.2858 1.0000
50.0938 -7.4532 1.2834 1.0000
50.0938 -7.1470 1.2823 1.0000
50.0938 -6.8414 1.2812 1.0000
50.0938 -6.2318 1.2792 1.0000
50.0938 -6.0796 1.2787 1.0000
50.0938 -5.6239 1.2774 1.0000
50.0938 -5.4721 1.2770 1.0000
50.0938 -5.3205 1.2766 1.0000
50.0938 -5.1690 1.2762 1.0000
50.0938 -5.0176 1.2758 1.0000
50.0938 -4.8663 1.2754 1.0000
50.0938 -4.7150 1.2750 1.0000
50.0938 -4.5639 1.2747 1.0000
50.0938 -4.4129 1.2743 1.0000
50.0938 -4.2618 1.2740 1.0000
50.0938 -3.9600 1.2734 1.0000
50.0938 -3.6586 1.2728 1.0000
50.0938 -3.5079 1.2725 1.0000
50.0938 -3.2069 1.2720 1.0000
50.0938 -3.0564 1.2718 1.0000
50.0938 -2.7557 1.2713 1.0000
45.0155 -2.3412 1.1423 1.0000
45.0198 -1.9365 1.1419 1.0000
45.0221 -1.8017 1.1418 1.0000
45.0245 -1.6668 1.1417 1.0000
45.0268 -1.5320 1.1417 1.0000
45.0302 -0.9929 1.1414 1.0000
45.0392 -0.4539 1.1414 1.0000
45.0416 -0.3192 1.1414 1.0000
45.0487 0.0851 1.1416 1.0000
45.0511 0.2198 1.1416 1.0000
45.0542 0.6243 1.1418 1.0000
45.0549 0.7591 1.1419 1.0000
45.2464 0.8978 1.1468 1.0000
45.2423 1.0332 1.1468 1.0000
45.2415 1.1685 1.1468 1.0000
45.2427 1.3040 1.1470 1.0000
45.2530 1.8465 1.1477 1.0000
45.2563 1.9823 1.1479 1.0000
45.2714 2.1187 1.1485 1.0000
45.2864 2.2552 1.1490 1.0000
50.0939 2.9455 1.2716 1.0000
50.0939 3.0960 1.2718 1.0000
50.0938 3.3970 1.2723 1.0000
50.0938 3.5475 1.2726 1.0000
50.0938 3.6982 1.2729 1.0000
50.0938 4.1506 1.2738 1.0000
50.0938 4.3015 1.2741 1.0000
50.0938 4.4525 1.2744 1.0000
50.0938 4.6036 1.2748 1.0000
50.0938 4.9061 1.2755 1.0000
50.0938 5.2089 1.2763 1.0000
50.0938 5.3604 1.2767 1.0000
50.0938 6.5764 1.2803 1.0000
50.0938 6.7289 1.2808 1.0000
50.0938 7.0343 1.2819 1.0000
50.0938 7.3402 1.2830 1.0000
50.0938 7.6467 1.2841 1.0000
50.0938 8.1074 1.2859 1.0000
50.0938 8.2613 1.2866 1.0000
50.0938 8.7238 1.2885 1.0000
50.0938 8.8783 1.2892 1.0000
50.0938 7.1912 0.4274 1.0000
50.0938 7.4973 0.4278 1.0000
50.0938 7.6507 0.4280 1.0000
50.0938 7.8041 0.4282 1.0000
50.0938 8.1114 0.4286 1.0000
50.0938 8.5735 0.4292 1.0000
50.0938 8.7278 0.4294 1.0000
50.0938 8.8823 0.4297 1.0000
50.0938 9.1918 0.4301 1.0000
50.0938 9.3468 0.4304 1.0000
50.0938 9.5020 0.4306 1.0000
50.0938 9.9686 0.4314 1.0000
50.0938 10.1245 0.4316 1.0000
50.0938 10.2805 0.4319 1.0000
50.0938 10.5933 0.4324 1.0000
50.0938 10.7500 0.4327 1.0000
50.0938 10.9069 0.4330 1.0000
50.0938 11.0639 0.4333 1.0000
50.0938 11.2212 0.4335 1.0000
50.0938 11.5364 0.4341 1.0000
50.0938 11.6944 0.4344 1.0000
50.0938 12.0109 0.4350 1.0000
50.0938 12.6466 0.4363 1.0000
50.0938 12.8062 0.4367 1.0000
50.0938 12.9660 0.4370 1.0000
50.0938 13.1260 0.4373 1.0000
50.0939 -13.2379 0.4376 1.0000
50.0938 -13.0777 0.4372 1.0000
50.0939 -12.7580 0.4366 1.0000
50.0938 -12.4393 0.4359 1.0000
50.0938 -12.2804 0.4356 1.0000
50.0939 -11.9630 0.4350 1.0000
50.0939 -11.8047 0.4347 1.0000
50.0938 -11.6466 0.4343 1.0000
50.0939 -11.4888 0.4340 1.0000
50.0938 -11.3311 0.4337 1.0000
50.0938 -11.1737 0.4335 1.0000
50.0939 -10.8595 0.4329 1.0000
50.0938 -10.7027 0.4326 1.0000
50.0938 -10.5461 0.4323 1.0000
50.0938 -10.3896 0.4321 1.0000
50.0938 -10.2334 0.4318 1.0000
50.0939 -9.6104 0.4308 1.0000
50.0939 -9.4551 0.4305 1.0000
50.0938 -8.6812 0.4294 1.0000
50.0939 -8.3728 0.4289 1.0000
50.0938 -8.2188 0.4287 1.0000
50.0938 -8.0650 0.4285 1.0000
50.0939 -7.9113 0.4283 1.0000
50.0938 -7.6043 0.4279 1.0000
50.0938 -7.4511 0.4277 1.0000
50.0938 -6.6869 0.4268 1.0000
50.0938 -6.5344 0.4266 1.0000
50.0938 -6.3820 0.4265 1.0000
50.0938 -6.2298 0.4263 1.0000
50.0938 -5.9256 0.4260 1.0000
50.0938 -5.7737 0.4259 1.0000
50.0938 -5.3186 0.4254 1.0000
50.0938 -5.0156 0.4252 1.0000
50.0938 -4.7131 0.4249 1.0000
50.0938 -4.5619 0.4248 1.0000
50.0938 -4.1089 0.4245 1.0000
50.0938 -3.9581 0.4244 1.0000
50.0938 -3.8073 0.4243 1.0000
50.0938 -3.3555 0.4240 1.0000
50.0938 -3.0545 0.4238 1.0000
50.0938 -2.9041 0.4238 1.0000
44.9601 -2.0669 0.3801 1.0000
44.9650 -1.9324 0.3801 1.0000
44.9747 -1.6632 0.3801 1.0000
44.9793 -1.5287 0.3801 1.0000
44.9328 -1.3925 0.3797 1.0000
44.8438 -1.2555 0.3789 1.0000
45.0006 -0.8557 0.3801 1.0000
45.0048 -0.7212 0.3801 1.0000
45.0131 -0.4519 0.3802 1.0000
45.0173 -0.3172 0.3802 1.0000
45.0215 -0.1826 0.3802 1.0000
45.0340 0.2215 0.3803 1.0000
45.2015 0.8987 0.3818 1.0000
45.1953 1.1691 0.3818 1.0000
45.0661 1.5707 0.3808 1.0000
45.2017 1.9817 0.3821 1.0000
45.2080 2.1175 0.3822 1.0000
45.2144 2.2534 0.3823 1.0000
50.0938 2.9475 0.4238 1.0000
50.0938 3.2484 0.4239 1.0000
50.0938 3.7002 0.4242 1.0000
50.0938 4.0016 0.4244 1.0000
50.0938 4.1525 0.4245 1.0000
50.0938 4.3034 0.4246 1.0000
50.0938 4.4545 0.4247 1.0000
50.0938 4.6055 0.4248 1.0000
50.0938 4.9080 0.4251 1.0000
50.0938 5.9695 0.4261 1.0000
50.0938 6.7309 0.4269 1.0000
50.0938 6.8835 0.4270 1.0000
50.0938 7.0363 0.4272 1.0000
50.0938 7.4954 0.4278 1.0000
50.0938 7.8021 0.4282 1.0000
50.0938 8.1094 0.4286 1.0000
50.0938 8.7259 0.4294 1.0000
50.0938 8.8803 0.4297 1.0000
50.0938 9.1898 0.4301 1.0000
50.0938 9.3448 0.4304 1.0000
50.0938 9.5000 0.4306 1.0000
50.0938 9.6553 0.4309 1.0000
50.0938 10.5913 0.4324 1.0000
50.0938 11.5344 0.4341 1.0000
50.0938 11.6923 0.4344 1.0000
50.0938 11.8505 0.4347 1.0000
50.0938 12.0088 0.4350 1.0000
50.0938 12.1674 0.4354 1.0000
50.0938 12.3263 0.4357 1.0000
50.0938 12.4853 0.4360 1.0000
50.0938 12.8041 0.4367 1.0000
50.0938 13.1240 0.4373 1.0000
50.0938 -13.4004 0.4379 1.0000
50.0939 -13.0798 0.4372 1.0000
50.0939 -12.7601 0.4366 1.0000
50.0938 -12.4414 0.4359 1.0000
50.0939 -12.2824 0.4356 1.0000
50.0938 -12.1236 0.4353 1.0000
50.0939 -11.8068 0.4347 1.0000
50.0938 -11.6487 0.4344 1.0000
50.0939 -11.1757 0.4335 1.0000
50.0939 -11.0186 0.4332 1.0000
50.0939 -10.8615 0.4329 1.0000
50.0939 -10.7047 0.4326 1.0000
50.0938 -10.3917 0.4321 1.0000
50.0939 -10.0794 0.4315 1.0000
50.0939 -9.7679 0.4310 1.0000
50.0938 -9.6125 0.4308 1.0000
50.0938 -9.4571 0.4305 1.0000
50.0939 -9.3020 0.4303 1.0000
50.0938 -8.9923 0.4298 1.0000
50.0938 -8.8377 0.4296 1.0000
50.0938 -8.3748 0.4289 1.0000
50.0939 -8.2208 0.4287 1.0000
50.0939 -7.6064 0.4279 1.0000
50.0938 -7.4531 0.4277 1.0000
50.0938 -7.3000 0.4275 1.0000
50.0938 -6.8414 0.4270 1.0000
50.0938 -6.3840 0.4265 1.0000
50.0938 -6.2318 0.4263 1.0000
50.0938 -6.0796 0.4262 1.0000
50.0938 -5.7757 0.4259 1.0000
50.0938 -5.4721 0.4256 1.0000
50.0938 -5.3205 0.4254 1.0000
50.0938 -5.1691 0.4253 1.0000
50.0938 -4.5639 0.4248 1.0000
50.0938 -4.4128 0.4247 1.0000
50.0938 -4.1109 0.4245 1.0000
50.0938 -3.6586 0.4242 1.0000
50.0938 -3.3574 0.4240 1.0000
50.0938 -2.9060 0.4238 1.0000
50.0938 -2.7557 0.4237 1.0000
44.9552 -2.2033 0.3801 1.0000
44.9600 -2.0687 0.3801 1.0000
44.9649 -1.9341 0.3801 1.0000
44.9698 -1.7995 0.3801 1.0000
44.9340 -1.3943 0.3797 1.0000
44.8450 -1.2573 0.3789 1.0000
44.8957 -1.1243 0.3793 1.0000
45.0005 -0.8575 0.3801 1.0000
45.0047 -0.7229 0.3801 1.0000
45.0214 -0.1843 0.3802 1.0000
45.0256 -0.0496 0.3803 1.0000
45.0298 0.0851 0.3803 1.0000
45.0339 0.2198 0.3803 1.0000
45.0423 0.4894 0.3804 1.0000
45.1985 1.0321 0.3818 1.0000
45.0880 1.2996 0.3809 1.0000
45.0771 1.4343 0.3809 1.0000
45.0662 1.5689 0.3808 1.0000
45.1943 1.7088 0.3820 1.0000
50.0938 2.9455 0.4238 1.0000
50.0938 3.6982 0.4242 1.0000
50.0938 3.8489 0.4243 1.0000
50.0938 4.3015 0.4246 1.0000
50.0938 4.4525 0.4247 1.0000
50.0938 4.7548 0.4250 1.0000
50.0938 4.9061 0.4251 1.0000
50.0938 5.3604 0.4255 1.0000
50.0938 5.5120 0.4256 1.0000
50.0938 5.6637 0.4258 1.0000
50.0938 5.8156 0.4259 1.0000
50.0938 6.2717 0.4264 1.0000
50.0938 6.4240 0.4265 1.0000
50.0938 6.5764 0.4267 1.0000
50.0938 6.7289 0.4269 1.0000
50.0938 6.8816 0.4270 1.0000
50.0938 7.3402 0.4276 1.0000
50.0938 7.6467 0.4280 1.0000
50.0938 7.8001 0.4282 1.0000
50.0938 8.2613 0.4288 1.0000
50.0938 8.4153 0.4290 1.0000
50.0938 8.5695 0.4292 1.0000
50.0938 8.7238 0.4294 1.0000
50.0938 8.8783 0.4297 1.0000
50.0938 7.1912 -0.4274 1.0000
50.0938 7.9577 -0.4284 1.0000
50.0938 8.1114 -0.4286 1.0000
50.0938 8.2653 -0.4288 1.0000
50.0938 8.5735 -0.4292 1.0000
50.0938 9.0370 -0.4299 1.0000
50.0938 9.1918 -0.4301 1.0000
50.0938 9.3468 -0.4304 1.0000
50.0938 9.9686 -0.4314 1.0000
50.0938 10.1245 -0.4316 1.0000
50.0938 10.2805 -0.4319 1.0000
50.0938 10.4368 -0.4321 1.0000
50.0938 10.5933 -0.4324 1.0000
50.0938 10.7500 -0.4327 1.0000
50.0938 11.0639 -0.4333 1.0000
50.0938 11.2212 -0.4335 1.0000
50.0938 11.3787 -0.4338 1.0000
50.0938 11.5364 -0.4341 1.0000
50.0938 12.0109 -0.4350 1.0000
50.0938 12.3283 -0.4357 1.0000
50.0938 12.4873 -0.4360 1.0000
50.0938 13.1260 -0.4373 1.0000
50.0938 -13.2379 -0.4376 1.0000
50.0938 -13.0777 -0.4372 1.0000
50.0938 -12.7580 -0.4366 1.0000
50.0938 -12.5985 -0.4362 1.0000
50.0938 -11.8047 -0.4346 1.0000
50.0938 -11.4888 -0.4340 1.0000
50.0938 -11.1737 -0.4335 1.0000
50.0938 -11.0165 -0.4332 1.0000
50.0938 -10.8595 -0.4329 1.0000
50.0938 -10.5461 -0.4323 1.0000
50.0938 -10.3896 -0.4321 1.0000
50.0938 -10.2334 -0.4318 1.0000
50.0938 -10.0774 -0.4315 1.0000
50.0938 -9.9216 -0.4313 1.0000
50.0938 -9.7659 -0.4310 1.0000
50.0938 -9.6104 -0.4308 1.0000
50.0938 -9.4551 -0.4305 1.0000
50.0938 -9.3000 -0.4303 1.0000
50.0938 -9.1450 -0.4301 1.0000
50.0938 -8.8357 -0.4296 1.0000
50.0938 -8.6812 -0.4294 1.0000
50.0938 -8.5269 -0.4291 1.0000
50.0938 -8.3728 -0.4289 1.0000
50.0938 -8.2188 -0.4287 1.0000
50.0938 -8.0650 -0.4285 1.0000
50.0938 -7.6044 -0.4279 1.0000
50.0938 -7.4511 -0.4277 1.0000
50.0938 -6.6868 -0.4268 1.0000
50.0938 -6.5343 -0.4266 1.0000
50.0938 -6.0776 -0.4262 1.0000
50.0938 -5.4702 -0.4256 1.0000
50.0938 -5.1670 -0.4253 1.0000
50.0938 -5.0156 -0.4252 1.0000
50.0938 -4.7130 -0.4249 1.0000
50.0938 -4.4108 -0.4247 1.0000
50.0938 -4.1089 -0.4245 1.0000
50.0938 -3.9581 -0.4244 1.0000
50.0938 -3.8073 -0.4243 1.0000
50.0938 -3.6566 -0.4242 1.0000
50.0938 -3.0545 -0.4238 1.0000
50.0938 -2.9040 -0.4238 1.0000
50.0938 -2.7537 -0.4237 1.0000
50.0938 -2.3029 -0.4235 1.0000
50.0938 -2.1528 -0.4234 1.0000
50.0938 -2.0027 -0.4234 1.0000
50.0938 -1.8525 -0.4233 1.0000
44.8256 -1.5235 -0.3788 1.0000
50.0938 -0.8027 -0.4231 1.0000
50.0938 -0.6528 -0.4231 1.0000
50.0938 -0.0533 -0.4231 1.0000
50.0938 0.0966 -0.4231 1.0000
50.0938 0.5462 -0.4231 1.0000
50.0938 0.6961 -0.4231 1.0000
50.0938 0.9959 -0.4231 1.0000
