ply
format ascii 1.0
element vertex 1585
property float32 x
property float32 y
property float32 z
property float32 I
end_header
50.0941 8.1833 13.6006 1.0000
50.0941 8.4910 13.6141 1.0000
50.0941 9.1083 13.6427 1.0000
50.0941 9.2630 13.6502 1.0000
50.0941 9.5730 13.6656 1.0000
50.0941 9.7282 13.6734 1.0000
50.0941 10.1951 13.6978 1.0000
50.0941 10.9770 13.7411 1.0000
50.0941 11.1339 13.7502 1.0000
50.0941 12.0804 13.8074 1.0000
50.0941 12.5566 13.8379 1.0000
50.0941 13.0350 13.8696 1.0000
50.0941 13.3552 13.8915 1.0000
50.0941 -13.1697 13.8788 1.0000
50.0941 -13.0098 13.8680 1.0000
50.0941 -12.6907 13.8467 1.0000
50.0941 -12.3725 13.8260 1.0000
50.0941 -12.2139 13.8159 1.0000
50.0941 -11.5813 13.7767 1.0000
50.0941 -11.4237 13.7673 1.0000
50.0941 -11.1092 13.7488 1.0000
50.0941 -10.9522 13.7397 1.0000
50.0941 -10.7955 13.7308 1.0000
50.0941 -10.6389 13.7220 1.0000
50.0941 -10.4826 13.7134 1.0000
50.0941 -10.3264 13.7049 1.0000
50.0941 -10.0147 13.6883 1.0000
50.0941 -9.8591 13.6802 1.0000
50.0941 -9.7037 13.6722 1.0000
50.0941 -9.3934 13.6566 1.0000
50.0941 -9.2386 13.6490 1.0000
50.0941 -9.0839 13.6416 1.0000
50.0941 -8.9293 13.6342 1.0000
50.0941 -8.7750 13.6270 1.0000
50.0941 -8.6208 13.6200 1.0000
50.0941 -8.1591 13.5995 1.0000
50.0941 -7.8520 13.5866 1.0000
50.0941 -7.5455 13.5741 1.0000
50.0940 -7.3925 13.5680 1.0000
50.0941 -6.6294 13.5397 1.0000
50.0940 -6.3250 13.5292 1.0000
50.0941 -6.0211 13.5193 1.0000
50.0941 -5.5659 13.5052 1.0000
50.0941 -5.2631 13.4965 1.0000
50.0941 -5.1118 13.4924 1.0000
50.0940 -4.6584 13.4806 1.0000
50.0941 -4.5075 13.4769 1.0000
50.0941 -3.7539 13.4603 1.0000
50.0941 5.1689 12.5863 1.0000
50.0941 5.3202 12.5902 1.0000
50.0941 5.4716 12.5943 1.0000
50.0941 5.6231 12.5984 1.0000
50.0941 5.7748 12.6027 1.0000
50.0941 5.9265 12.6071 1.0000
50.0941 6.3824 12.6210 1.0000
50.0941 6.5345 12.6259 1.0000
50.0941 6.8393 12.6360 1.0000
50.0941 6.9918 12.6412 1.0000
50.0941 7.1445 12.6465 1.0000
50.0941 7.4502 12.6575 1.0000
50.0941 8.2170 12.6871 1.0000
50.0941 8.3709 12.6934 1.0000
50.0941 8.5248 12.6998 1.0000
50.0941 8.6789 12.7063 1.0000
50.0941 8.8332 12.7130 1.0000
50.0941 8.9876 12.7197 1.0000
50.0941 9.1422 12.7266 1.0000
50.0941 9.2970 12.7336 1.0000
50.0941 9.6070 12.7480 1.0000
50.0941 9.7623 12.7553 1.0000
50.0941 10.0734 12.7704 1.0000
50.0941 10.6979 12.8021 1.0000
50.0941 11.0114 12.8187 1.0000
50.0941 11.3256 12.8358 1.0000
50.0941 12.1151 12.8807 1.0000
50.0941 12.2737 12.8901 1.0000
50.0941 12.5915 12.9093 1.0000
50.0941 12.7508 12.9190 1.0000
50.0941 12.9103 12.9289 1.0000
50.0941 13.3903 12.9594 1.0000
50.0941 -13.2947 12.9532 1.0000
50.0941 -12.8151 12.9230 1.0000
50.0941 -12.4966 12.9035 1.0000
50.0941 -12.1791 12.8845 1.0000
50.0941 -12.0207 12.8752 1.0000
50.0941 -11.7045 12.8570 1.0000
50.0941 -11.2318 12.8307 1.0000
50.0941 -10.9179 12.8137 1.0000
50.0941 -10.6046 12.7973 1.0000
50.0941 -10.4483 12.7892 1.0000
50.0941 -10.1363 12.7735 1.0000
50.0941 -9.9806 12.7659 1.0000
50.0941 -9.8250 12.7583 1.0000
50.0941 -9.3595 12.7365 1.0000
50.0941 -8.7411 12.7090 1.0000
50.0941 -7.8184 12.6714 1.0000
50.0941 -7.6651 12.6655 1.0000
50.0941 -7.5120 12.6598 1.0000
50.0940 -7.3590 12.6542 1.0000
50.0940 -7.2062 12.6487 1.0000
50.0940 -7.0534 12.6433 1.0000
50.0940 -6.9009 12.6380 1.0000
50.0940 -6.1396 12.6135 1.0000
50.0940 -5.9877 12.6089 1.0000
50.0940 -5.8360 12.6045 1.0000
50.0940 -5.5328 12.5959 1.0000
50.0940 -5.3813 12.5918 1.0000
50.0940 -4.7764 12.5766 1.0000
50.0940 -4.4744 12.5696 1.0000
50.0940 -4.3236 12.5663 1.0000
50.0940 -3.2696 12.5464 1.0000
50.0940 -3.1193 12.5441 1.0000
50.0940 -2.9691 12.5418 1.0000
50.0940 -2.8189 12.5396 1.0000
50.0940 -2.5187 12.5356 1.0000
50.0941 -2.2186 12.5321 1.0000
50.0940 -2.0686 12.5305 1.0000
50.0941 -1.9187 12.5290 1.0000
50.0941 -1.7688 12.5276 1.0000
50.0941 -1.6190 12.5263 1.0000
50.0941 -1.3193 12.5241 1.0000
50.0941 -1.1695 12.5232 1.0000
50.0941 -0.8700 12.5217 1.0000
50.0941 -0.5705 12.5206 1.0000
50.0941 -0.1214 12.5198 1.0000
50.0941 0.0282 12.5198 1.0000
50.0941 0.3277 12.5201 1.0000
50.0941 0.6271 12.5208 1.0000
50.0941 0.9265 12.5219 1.0000
50.0941 1.3758 12.5245 1.0000
50.0941 1.6755 12.5268 1.0000
50.0941 1.9753 12.5295 1.0000
50.0941 2.2752 12.5327 1.0000
50.0941 2.5753 12.5363 1.0000
50.0941 2.7254 12.5383 1.0000
50.0941 2.8755 12.5404 1.0000
50.0941 3.1761 12.5449 1.0000
50.0941 3.3264 12.5474 1.0000
50.0941 3.9283 12.5582 1.0000
50.0941 4.0789 12.5612 1.0000
50.0941 4.3805 12.5676 1.0000
50.0941 4.5313 12.5709 1.0000
50.0941 4.8334 12.5779 1.0000
50.0941 4.9845 12.5816 1.0000
50.0941 5.1357 12.5854 1.0000
50.0941 5.5899 12.5975 1.0000
50.0941 5.7416 12.6018 1.0000
50.0941 6.0451 12.6106 1.0000
50.0941 6.1970 12.6152 1.0000
50.0941 6.3490 12.6200 1.0000
50.0941 6.5012 12.6248 1.0000
50.0941 6.6535 12.6297 1.0000
50.0941 6.8059 12.6348 1.0000
50.0941 7.1110 12.6453 1.0000
50.0941 7.4167 12.6563 1.0000
50.0941 7.7229 12.6677 1.0000
50.0941 7.8762 12.6736 1.0000
50.0941 8.3371 12.6920 1.0000
50.0941 8.4910 12.6984 1.0000
50.0941 8.6451 12.7049 1.0000
50.0941 8.9537 12.7182 1.0000
50.0941 9.1083 12.7251 1.0000
50.0941 9.2630 12.7321 1.0000
50.0941 9.5730 12.7464 1.0000
50.0941 9.7282 12.7537 1.0000
50.0941 10.1951 12.7765 1.0000
50.0941 10.3511 12.7843 1.0000
50.0941 10.6636 12.8003 1.0000
50.0941 10.8202 12.8085 1.0000
50.0941 10.9770 12.8169 1.0000
50.0941 11.1340 12.8253 1.0000
50.0941 11.2912 12.8339 1.0000
50.0941 11.7640 12.8604 1.0000
50.0941 11.9221 12.8695 1.0000
50.0941 12.0804 12.8787 1.0000
50.0941 12.2389 12.8881 1.0000
50.0941 12.3977 12.8975 1.0000
50.0941 13.0350 12.9367 1.0000
50.0941 13.1949 12.9468 1.0000
50.0941 -12.6907 12.9153 1.0000
50.0941 -12.5315 12.9056 1.0000
50.0941 -12.0554 12.8772 1.0000
50.0941 -11.1092 12.8240 1.0000
50.0941 -10.4825 12.7910 1.0000
50.0941 -10.3264 12.7831 1.0000
50.0941 -10.1705 12.7752 1.0000
50.0941 -9.5485 12.7452 1.0000
50.0941 -9.3934 12.7380 1.0000
50.0941 -9.2386 12.7309 1.0000
50.0941 -8.9293 12.7172 1.0000
50.0941 -8.7750 12.7104 1.0000
50.0941 -8.6207 12.7038 1.0000
50.0941 -8.3128 12.6910 1.0000
50.0941 -8.1591 12.6848 1.0000
50.0941 -7.8520 12.6727 1.0000
50.0940 -7.3925 12.6554 1.0000
50.0940 -7.2396 12.6499 1.0000
50.0940 -7.0869 12.6445 1.0000
50.0940 -6.7818 12.6340 1.0000
50.0940 -6.4771 12.6240 1.0000
50.0940 -6.3250 12.6192 1.0000
50.0940 -5.7175 12.6011 1.0000
50.0940 -5.5660 12.5968 1.0000
50.0940 -4.9606 12.5810 1.0000
50.0940 -4.8095 12.5774 1.0000
50.0940 -4.5075 12.5704 1.0000
50.0940 -4.3566 12.5671 1.0000
50.0940 -4.2058 12.5638 1.0000
50.0940 -3.7539 12.5549 1.0000
50.0941 5.1689 11.6863 1.0000
50.0941 5.6232 11.6976 1.0000
50.0941 5.7748 11.7015 1.0000
50.0941 5.9265 11.7056 1.0000
50.0941 6.2303 11.7141 1.0000
50.0941 6.6869 11.7277 1.0000
50.0941 6.8393 11.7324 1.0000
50.0941 7.4503 11.7524 1.0000
50.0941 7.7566 11.7631 1.0000
50.0941 7.9099 11.7686 1.0000
50.0941 8.0634 11.7742 1.0000
50.0941 8.2170 11.7799 1.0000
50.0941 8.3709 11.7857 1.0000
50.0941 8.6789 11.7977 1.0000
50.0941 8.9876 11.8101 1.0000
50.0941 9.4519 11.8297 1.0000
50.0941 10.0734 11.8573 1.0000
50.0941 10.6980 11.8867 1.0000
50.0941 11.0114 11.9021 1.0000
50.0941 11.1684 11.9100 1.0000
50.0941 11.3257 11.9179 1.0000
50.0941 11.9568 11.9511 1.0000
50.0941 12.1151 11.9597 1.0000
50.0941 12.4325 11.9772 1.0000
50.0941 12.5915 11.9861 1.0000
50.0941 12.9103 12.0044 1.0000
50.0941 13.0700 12.0137 1.0000
50.0941 13.3903 12.0327 1.0000
50.0941 -13.1346 12.0175 1.0000
50.0941 -12.6557 11.9898 1.0000
50.0941 -12.1791 11.9632 1.0000
50.0941 -12.0206 11.9545 1.0000
50.0941 -11.8625 11.9460 1.0000
50.0941 -11.7045 11.9376 1.0000
50.0941 -11.5467 11.9294 1.0000
50.0941 -11.3892 11.9212 1.0000
50.0941 -11.2319 11.9132 1.0000
50.0941 -11.0748 11.9052 1.0000
50.0941 -10.9178 11.8974 1.0000
50.0941 -10.4483 11.8747 1.0000
50.0941 -10.2923 11.8674 1.0000
50.0941 -9.8251 11.8460 1.0000
50.0941 -9.3595 11.8257 1.0000
50.0941 -9.2046 11.8192 1.0000
50.0941 -8.8955 11.8064 1.0000
50.0941 -8.7412 11.8002 1.0000
50.0941 -8.5870 11.7941 1.0000
50.0941 -8.4330 11.7881 1.0000
50.0941 -8.1254 11.7765 1.0000
50.0941 -7.9719 11.7708 1.0000
50.0941 -7.6652 11.7598 1.0000
50.0941 -7.0535 11.7392 1.0000
50.0941 -6.5960 11.7249 1.0000
50.0941 -6.2917 11.7159 1.0000
50.0941 -6.1397 11.7115 1.0000
50.0940 -5.9878 11.7073 1.0000
50.0941 -5.8360 11.7032 1.0000
50.0940 -5.6843 11.6991 1.0000
50.0940 -5.5328 11.6952 1.0000
50.0941 -5.3813 11.6914 1.0000
50.0940 -4.9275 11.6806 1.0000
50.0940 -4.7764 11.6773 1.0000
50.0940 -4.4745 11.6708 1.0000
50.0940 -4.1728 11.6648 1.0000
50.0940 -4.0221 11.6619 1.0000
50.0940 -3.5705 11.6540 1.0000
50.0940 -3.4200 11.6516 1.0000
50.0940 -3.2696 11.6493 1.0000
50.0940 -3.1194 11.6471 1.0000
50.0940 -2.9691 11.6449 1.0000
50.0940 -2.8189 11.6429 1.0000
50.0940 -2.6688 11.6410 1.0000
50.0940 -2.5187 11.6392 1.0000
50.0941 -2.3687 11.6375 1.0000
50.0941 -1.7689 11.6318 1.0000
50.0940 -1.4691 11.6295 1.0000
50.0941 -1.3193 11.6286 1.0000
50.0941 -1.0198 11.6269 1.0000
50.0941 -0.7203 11.6257 1.0000
50.0940 -0.5706 11.6253 1.0000
50.0940 -0.2711 11.6247 1.0000
50.0940 0.1779 11.6246 1.0000
50.0940 0.3276 11.6248 1.0000
50.0940 0.4773 11.6251 1.0000
50.0940 0.9265 11.6265 1.0000
50.0940 1.0762 11.6272 1.0000
50.0940 1.6755 11.6310 1.0000
50.0941 1.8254 11.6323 1.0000
50.0941 1.9753 11.6336 1.0000
50.0940 2.4252 11.6382 1.0000
50.0941 2.8755 11.6437 1.0000
50.0940 3.0257 11.6457 1.0000
50.0941 3.1760 11.6479 1.0000
50.0940 3.3264 11.6501 1.0000
50.0940 3.6272 11.6550 1.0000
50.0940 3.9283 11.6602 1.0000
50.0940 4.3804 11.6689 1.0000
50.0940 4.5314 11.6720 1.0000
50.0940 4.6823 11.6752 1.0000
50.0941 5.2870 11.6891 1.0000
50.0941 5.5899 11.6967 1.0000
50.0941 5.8933 11.7047 1.0000
50.0941 6.0451 11.7089 1.0000
50.0941 6.1970 11.7132 1.0000
50.0941 6.6535 11.7266 1.0000
50.0941 6.8059 11.7313 1.0000
50.0941 6.9584 11.7362 1.0000
50.0941 7.1110 11.7411 1.0000
50.0941 7.2638 11.7461 1.0000
50.0941 7.7230 11.7619 1.0000
50.0941 7.8763 11.7674 1.0000
50.0941 8.0298 11.7729 1.0000
50.0941 8.1834 11.7786 1.0000
50.0941 8.3371 11.7844 1.0000
50.0941 8.4910 11.7903 1.0000
50.0941 8.6451 11.7964 1.0000
50.0941 8.7994 11.8025 1.0000
50.0941 8.9537 11.8088 1.0000
50.0941 9.2630 11.8216 1.0000
50.0941 9.8837 11.8487 1.0000
50.0941 10.0393 11.8557 1.0000
50.0941 10.6637 11.8850 1.0000
50.0941 10.8202 11.8926 1.0000
50.0941 10.9770 11.9004 1.0000
50.0941 11.2912 11.9162 1.0000
50.0941 11.6062 11.9325 1.0000
50.0941 11.7640 11.9408 1.0000
50.0941 11.9221 11.9492 1.0000
50.0941 12.0804 11.9578 1.0000
50.0941 12.2389 11.9665 1.0000
50.0941 12.3976 11.9753 1.0000
50.0941 12.7159 11.9932 1.0000
50.0941 13.0350 12.0116 1.0000
50.0941 13.3552 12.0306 1.0000
50.0941 -13.3298 12.0291 1.0000
50.0941 -13.1697 12.0196 1.0000
50.0941 -13.0098 12.0102 1.0000
50.0941 -12.8501 12.0009 1.0000
50.0941 -12.6907 11.9918 1.0000
50.0941 -12.5315 11.9828 1.0000
50.0941 -11.7391 11.9395 1.0000
50.0941 -11.5813 11.9312 1.0000
50.0941 -11.4237 11.9230 1.0000
50.0941 -11.1091 11.9070 1.0000
50.0941 -10.6389 11.8838 1.0000
50.0941 -10.4826 11.8763 1.0000
50.0941 -10.3264 11.8690 1.0000
50.0941 -10.1705 11.8617 1.0000
50.0941 -10.0147 11.8546 1.0000
50.0941 -9.5485 11.8338 1.0000
50.0941 -9.3934 11.8272 1.0000
50.0941 -9.2386 11.8206 1.0000
50.0941 -9.0839 11.8141 1.0000
50.0941 -8.9294 11.8078 1.0000
50.0941 -8.7750 11.8015 1.0000
50.0941 -8.6208 11.7954 1.0000
50.0941 -8.3128 11.7835 1.0000
50.0941 -8.0055 11.7721 1.0000
50.0941 -7.8520 11.7665 1.0000
50.0941 -7.3926 11.7504 1.0000
50.0940 -7.0869 11.7403 1.0000
50.0940 -6.9343 11.7354 1.0000
50.0940 -6.7818 11.7306 1.0000
50.0940 -6.4771 11.7213 1.0000
50.0941 -6.1730 11.7125 1.0000
50.0940 -5.2631 11.6885 1.0000
50.0940 -4.9605 11.6814 1.0000
50.0940 -4.6584 11.6747 1.0000
50.0940 -4.5075 11.6715 1.0000
50.0940 -4.3566 11.6684 1.0000
50.0940 -4.2059 11.6654 1.0000
50.0940 -4.0552 11.6626 1.0000
50.0940 -3.9045 11.6598 1.0000
50.0940 -3.7539 11.6571 1.0000
50.0941 5.1688 10.7933 1.0000
50.0941 5.3202 10.7966 1.0000
50.0941 5.4716 10.8001 1.0000
50.0940 5.7748 10.8074 1.0000
50.0941 5.9265 10.8111 1.0000
50.0940 6.0784 10.8150 1.0000
50.0940 6.6868 10.8315 1.0000
50.0941 6.8392 10.8359 1.0000
50.0941 7.2973 10.8496 1.0000
50.0941 7.4503 10.8544 1.0000
50.0941 7.9099 10.8693 1.0000
50.0941 8.2170 10.8798 1.0000
50.0941 8.3708 10.8851 1.0000
50.0940 8.9876 10.9077 1.0000
50.0941 9.1422 10.9136 1.0000
50.0940 9.2970 10.9196 1.0000
50.0941 9.4519 10.9257 1.0000
50.0941 9.6070 10.9319 1.0000
50.0941 9.7623 10.9382 1.0000
50.0940 9.9178 10.9447 1.0000
50.0940 10.2293 10.9578 1.0000
50.0941 10.3853 10.9646 1.0000
50.0940 10.5415 10.9714 1.0000
50.0940 11.0114 10.9926 1.0000
50.0940 11.3257 11.0073 1.0000
50.0940 11.4831 11.0147 1.0000
50.0940 11.6408 11.0223 1.0000
50.0941 11.7986 11.0301 1.0000
50.0941 12.1151 11.0458 1.0000
50.0940 12.7507 11.0786 1.0000
50.0941 13.0700 11.0957 1.0000
50.0941 -13.2947 11.1079 1.0000
50.0941 -13.1346 11.0992 1.0000
50.0941 -12.8151 11.0820 1.0000
50.0941 -12.6557 11.0736 1.0000
50.0941 -12.3377 11.0571 1.0000
50.0941 -12.0206 11.0411 1.0000
50.0941 -11.8624 11.0332 1.0000
50.0941 -11.5467 11.0178 1.0000
50.0941 -11.3891 11.0103 1.0000
50.0941 -11.0747 10.9955 1.0000
50.0941 -10.9178 10.9883 1.0000
50.0941 -10.6046 10.9742 1.0000
50.0941 -10.2922 10.9605 1.0000
50.0941 -10.1363 10.9539 1.0000
50.0941 -9.3595 10.9221 1.0000
50.0941 -9.0499 10.9101 1.0000
50.0941 -8.8954 10.9042 1.0000
50.0941 -8.5870 10.8929 1.0000
50.0941 -8.4329 10.8873 1.0000
50.0941 -8.2791 10.8819 1.0000
50.0941 -8.1254 10.8766 1.0000
50.0941 -7.9718 10.8714 1.0000
50.0941 -7.5120 10.8563 1.0000
50.0939 -6.7484 10.8333 1.0000
50.0940 -6.5960 10.8289 1.0000
50.0939 -6.4438 10.8247 1.0000
50.0940 -6.1397 10.8166 1.0000
50.0940 -5.9878 10.8127 1.0000
50.0939 -5.5328 10.8016 1.0000
50.0940 -5.0787 10.7913 1.0000
50.0939 -4.9275 10.7881 1.0000
50.0940 -4.6254 10.7819 1.0000
50.0939 -4.3236 10.7762 1.0000
50.0939 -4.1728 10.7735 1.0000
50.0940 -4.0221 10.7708 1.0000
50.0940 -3.8715 10.7683 1.0000
50.0940 -3.7209 10.7658 1.0000
50.0939 -3.5704 10.7635 1.0000
50.0940 -2.6688 10.7515 1.0000
50.0940 -2.5187 10.7498 1.0000
50.0940 -2.3686 10.7483 1.0000
50.0940 -2.2186 10.7468 1.0000
50.0941 -1.9187 10.7441 1.0000
50.0941 -1.7688 10.7430 1.0000
50.0941 -1.4691 10.7409 1.0000
50.0941 -1.1695 10.7392 1.0000
50.0941 -1.0198 10.7385 1.0000
50.0941 -0.7203 10.7374 1.0000
50.0941 -0.2712 10.7364 1.0000
50.0940 0.0282 10.7363 1.0000
50.0940 0.6270 10.7371 1.0000
50.0940 0.7768 10.7376 1.0000
50.0941 1.0762 10.7387 1.0000
50.0941 1.2260 10.7395 1.0000
50.0940 1.3758 10.7403 1.0000
50.0941 1.6755 10.7423 1.0000
50.0940 1.8254 10.7434 1.0000
50.0940 2.2752 10.7473 1.0000
50.0941 2.4252 10.7488 1.0000
50.0940 2.5753 10.7504 1.0000
50.0940 3.0258 10.7558 1.0000
50.0940 3.1760 10.7578 1.0000
50.0941 3.4767 10.7621 1.0000
50.0941 4.3804 10.7772 1.0000
50.0941 4.5313 10.7801 1.0000
50.0940 4.8333 10.7861 1.0000
50.0940 4.9845 10.7893 1.0000
50.0941 5.1357 10.7926 1.0000
50.0940 5.7415 10.8066 1.0000
50.0940 5.8932 10.8103 1.0000
50.0941 6.1970 10.8181 1.0000
50.0941 6.3490 10.8222 1.0000
50.0941 6.5012 10.8263 1.0000
50.0940 6.6534 10.8306 1.0000
50.0941 6.8058 10.8349 1.0000
50.0940 7.4167 10.8533 1.0000
50.0940 7.8763 10.8682 1.0000
50.0940 8.0297 10.8733 1.0000
50.0940 8.1834 10.8786 1.0000
50.0940 8.3371 10.8839 1.0000
50.0941 8.7993 10.9006 1.0000
50.0940 8.9537 10.9064 1.0000
50.0940 9.1083 10.9123 1.0000
50.0940 9.5730 10.9306 1.0000
50.0940 10.0393 10.9498 1.0000
50.0941 10.1951 10.9564 1.0000
50.0941 10.5072 10.9699 1.0000
50.0941 10.6636 10.9768 1.0000
50.0941 10.9770 10.9910 1.0000
50.0941 11.1340 10.9983 1.0000
50.0940 11.4486 11.0131 1.0000
50.0941 11.6062 11.0207 1.0000
50.0941 12.2389 11.0521 1.0000
50.0941 12.3976 11.0602 1.0000
50.0940 12.7159 11.0768 1.0000
50.0940 13.0350 11.0938 1.0000
50.0940 13.1950 11.1025 1.0000
50.0940 13.3552 11.1113 1.0000
50.0941 -12.6906 11.0754 1.0000
50.0941 -12.3725 11.0589 1.0000
50.0941 -12.2138 11.0508 1.0000
50.0941 -11.8971 11.0349 1.0000
50.0941 -11.5813 11.0195 1.0000
50.0941 -11.2662 11.0045 1.0000
50.0941 -10.9522 10.9899 1.0000
50.0941 -10.7954 10.9828 1.0000
50.0941 -10.6389 10.9757 1.0000
50.0941 -10.4825 10.9688 1.0000
50.0941 -10.1704 10.9553 1.0000
50.0941 -10.0146 10.9487 1.0000
50.0941 -9.8591 10.9422 1.0000
50.0941 -9.7037 10.9359 1.0000
50.0941 -9.0838 10.9114 1.0000
50.0941 -8.9293 10.9055 1.0000
50.0941 -8.6207 10.8941 1.0000
50.0941 -8.4666 10.8885 1.0000
50.0941 -8.1591 10.8778 1.0000
50.0941 -8.0054 10.8725 1.0000
50.0941 -7.6988 10.8623 1.0000
50.0941 -7.5455 10.8574 1.0000
50.0939 -7.2396 10.8478 1.0000
50.0940 -6.9343 10.8386 1.0000
50.0940 -6.7818 10.8342 1.0000
50.0940 -6.6294 10.8299 1.0000
50.0939 -6.1730 10.8175 1.0000
50.0940 -6.0211 10.8135 1.0000
50.0940 -5.8693 10.8097 1.0000
50.0940 -5.7176 10.8060 1.0000
50.0940 -5.4145 10.7988 1.0000
50.0940 -5.1118 10.7920 1.0000
50.0940 -4.6585 10.7826 1.0000
50.0939 -4.5075 10.7796 1.0000
50.0940 -4.2059 10.7740 1.0000
50.0940 -4.0551 10.7714 1.0000
50.0940 -3.9045 10.7688 1.0000
50.0940 -3.7539 10.7664 1.0000
50.0940 5.1689 9.9067 1.0000
50.0940 5.3202 9.9098 1.0000
50.0940 5.4716 9.9130 1.0000
50.0940 5.6232 9.9163 1.0000
50.0940 5.9265 9.9231 1.0000
50.0940 6.0784 9.9267 1.0000
50.0940 6.2303 9.9303 1.0000
50.0940 7.1445 9.9541 1.0000
50.0940 7.2973 9.9584 1.0000
50.0940 7.6033 9.9673 1.0000
50.0940 8.0634 9.9813 1.0000
50.0940 8.2170 9.9861 1.0000
50.0940 8.3708 9.9910 1.0000
50.0940 8.8331 10.0064 1.0000
50.0940 9.1422 10.0172 1.0000
50.0940 9.2970 10.0227 1.0000
50.0941 9.6070 10.0340 1.0000
50.0941 10.0734 10.0517 1.0000
50.0941 10.3852 10.0640 1.0000
50.0941 10.8545 10.0831 1.0000
50.0941 11.3256 10.1031 1.0000
50.0941 11.4831 10.1100 1.0000
50.0941 11.6407 10.1170 1.0000
50.0941 11.7987 10.1241 1.0000
50.0941 11.9567 10.1312 1.0000
50.0941 12.2737 10.1459 1.0000
50.0941 12.4325 10.1534 1.0000
50.0941 12.5915 10.1609 1.0000
50.0941 12.7508 10.1686 1.0000
50.0941 13.0700 10.1843 1.0000
50.0941 13.3903 10.2004 1.0000
50.0941 -13.2946 10.1956 1.0000
50.0941 -13.1346 10.1875 1.0000
50.0940 -12.4966 10.1564 1.0000
50.0941 -11.5467 10.1128 1.0000
50.0941 -11.2318 10.0991 1.0000
50.0941 -11.0747 10.0924 1.0000
50.0940 -10.9178 10.0857 1.0000
50.0941 -10.7611 10.0792 1.0000
50.0940 -10.6046 10.0728 1.0000
50.0941 -10.4483 10.0665 1.0000
50.0940 -10.2921 10.0603 1.0000
50.0940 -10.1363 10.0541 1.0000
50.0941 -9.9805 10.0481 1.0000
50.0940 -9.6696 10.0363 1.0000
50.0940 -8.5870 9.9981 1.0000
50.0940 -8.4330 9.9931 1.0000
50.0941 -8.2791 9.9881 1.0000
50.0940 -8.1254 9.9832 1.0000
50.0940 -7.9718 9.9784 1.0000
50.0941 -7.8184 9.9737 1.0000
50.0940 -7.6652 9.9691 1.0000
50.0940 -7.5120 9.9646 1.0000
50.0939 -7.3590 9.9602 1.0000
50.0939 -6.9009 9.9475 1.0000
50.0939 -6.2916 9.9318 1.0000
50.0939 -6.1397 9.9281 1.0000
50.0939 -5.6843 9.9176 1.0000
50.0939 -5.5328 9.9143 1.0000
50.0939 -5.3813 9.9111 1.0000
50.0939 -4.9274 9.9020 1.0000
50.0939 -4.6254 9.8963 1.0000
50.0939 -4.1728 9.8885 1.0000
50.0939 -4.0221 9.8861 1.0000
50.0939 -3.8715 9.8838 1.0000
50.0939 -3.7209 9.8816 1.0000
50.0939 -3.4200 9.8773 1.0000
50.0939 -3.1194 9.8735 1.0000
50.0939 -2.8189 9.8700 1.0000
50.0940 -2.3686 9.8654 1.0000
50.0940 -2.2186 9.8641 1.0000
50.0939 -2.0687 9.8628 1.0000
50.0940 -1.7687 9.8605 1.0000
50.0940 -1.6189 9.8596 1.0000
50.0940 -0.8700 9.8559 1.0000
50.0940 -0.7202 9.8554 1.0000
50.0940 -0.5705 9.8550 1.0000
50.0940 -0.4208 9.8548 1.0000
50.0940 -0.2711 9.8546 1.0000
50.0940 -0.1214 9.8544 1.0000
50.0940 0.0283 9.8544 1.0000
50.0940 0.4773 9.8549 1.0000
50.0940 0.6270 9.8552 1.0000
50.0940 0.7768 9.8556 1.0000
50.0940 1.0763 9.8567 1.0000
50.0940 1.2261 9.8574 1.0000
50.0940 1.3759 9.8581 1.0000
50.0940 1.6755 9.8599 1.0000
50.0940 2.4252 9.8660 1.0000
50.0940 2.8755 9.8706 1.0000
50.0940 3.0258 9.8724 1.0000
50.0940 3.3264 9.8761 1.0000
50.0940 3.6272 9.8802 1.0000
50.0940 3.9283 9.8847 1.0000
50.0940 4.0790 9.8870 1.0000
50.0940 4.2297 9.8895 1.0000
50.0940 4.3805 9.8920 1.0000
50.0940 4.6823 9.8974 1.0000
50.0940 5.1357 9.9061 1.0000
50.0940 5.2870 9.9091 1.0000
50.0940 5.4384 9.9123 1.0000
50.0940 5.5899 9.9156 1.0000
50.0940 5.7415 9.9189 1.0000
50.0940 5.8933 9.9224 1.0000
50.0940 6.1970 9.9295 1.0000
50.0940 6.3491 9.9332 1.0000
50.0940 6.6534 9.9409 1.0000
50.0940 6.8059 9.9449 1.0000
50.0940 7.1111 9.9532 1.0000
50.0940 7.4167 9.9618 1.0000
50.0940 7.5698 9.9663 1.0000
50.0940 7.7230 9.9708 1.0000
50.0940 8.0297 9.9802 1.0000
50.0940 8.1833 9.9850 1.0000
50.0940 8.3371 9.9899 1.0000
50.0940 8.4910 9.9950 1.0000
50.0940 9.1083 10.0160 1.0000
50.0940 9.2630 10.0215 1.0000
50.0941 10.1951 10.0564 1.0000
50.0941 10.3511 10.0626 1.0000
50.0941 10.6636 10.0752 1.0000
50.0941 10.8202 10.0817 1.0000
50.0941 10.9770 10.0882 1.0000
50.0941 11.2911 10.1016 1.0000
50.0941 11.6062 10.1154 1.0000
50.0941 12.3976 10.1517 1.0000
50.0941 12.5566 10.1593 1.0000
50.0941 12.7158 10.1669 1.0000
50.0941 13.0350 10.1826 1.0000
50.0941 13.3552 10.1986 1.0000
50.0941 -13.3298 10.1973 1.0000
50.0940 -12.8500 10.1735 1.0000
50.0940 -12.6906 10.1657 1.0000
50.0941 -12.5314 10.1581 1.0000
50.0940 -12.2138 10.1431 1.0000
50.0940 -12.0553 10.1358 1.0000
50.0941 -11.7391 10.1214 1.0000
50.0940 -10.9521 10.0872 1.0000
50.0941 -10.7954 10.0806 1.0000
50.0940 -10.6389 10.0742 1.0000
50.0940 -10.4825 10.0679 1.0000
50.0940 -10.3264 10.0616 1.0000
50.0940 -10.1704 10.0555 1.0000
50.0941 -9.8591 10.0435 1.0000
50.0941 -9.7037 10.0376 1.0000
50.0940 -9.2385 10.0206 1.0000
50.0940 -8.9293 10.0098 1.0000
50.0941 -8.6208 9.9993 1.0000
50.0941 -8.3128 9.9892 1.0000
50.0941 -7.8520 9.9747 1.0000
50.0939 -6.9343 9.9484 1.0000
50.0939 -6.4771 9.9364 1.0000
50.0939 -6.3250 9.9326 1.0000
50.0939 -6.1730 9.9289 1.0000
50.0939 -5.7176 9.9184 1.0000
50.0939 -5.5660 9.9150 1.0000
50.0939 -5.4145 9.9118 1.0000
50.0939 -5.2631 9.9086 1.0000
50.0939 -5.1118 9.9056 1.0000
50.0939 -4.8095 9.8997 1.0000
50.0939 -4.6584 9.8969 1.0000
50.0939 -4.5075 9.8942 1.0000
50.0939 -4.0552 9.8866 1.0000
50.0939 -3.7539 9.8820 1.0000
50.0940 5.3202 9.0289 1.0000
50.0940 5.7748 9.0378 1.0000
50.0940 5.9265 9.0410 1.0000
50.0940 6.0784 9.0442 1.0000
50.0940 6.2303 9.0476 1.0000
50.0940 6.3824 9.0510 1.0000
50.0940 6.5346 9.0545 1.0000
50.0940 6.8393 9.0617 1.0000
50.0940 6.9918 9.0654 1.0000
50.0940 7.2973 9.0731 1.0000
50.0940 7.4503 9.0771 1.0000
50.0940 7.6033 9.0812 1.0000
50.0940 7.7565 9.0854 1.0000
50.0940 7.9099 9.0896 1.0000
50.0940 8.3708 9.1029 1.0000
50.0940 8.5248 9.1075 1.0000
50.0940 8.8331 9.1169 1.0000
50.0940 8.9876 9.1217 1.0000
50.0940 9.2970 9.1317 1.0000
50.0940 9.4519 9.1368 1.0000
50.0940 9.6070 9.1420 1.0000
50.0940 9.7623 9.1473 1.0000
50.0940 9.9177 9.1527 1.0000
50.0940 10.0734 9.1581 1.0000
50.0940 10.2293 9.1637 1.0000
50.0940 10.3853 9.1693 1.0000
50.0940 10.5415 9.1750 1.0000
50.0940 10.6979 9.1808 1.0000
50.0940 10.8545 9.1867 1.0000
50.0940 11.0114 9.1928 1.0000
50.0940 11.1684 9.1988 1.0000
50.0940 11.3256 9.2050 1.0000
50.0940 11.6408 9.2176 1.0000
50.0940 11.9568 9.2306 1.0000
50.0940 12.2737 9.2440 1.0000
50.0940 12.4325 9.2508 1.0000
50.0940 12.7508 9.2647 1.0000
50.0940 13.0700 9.2790 1.0000
50.0940 13.2300 9.2862 1.0000
50.0941 -13.2947 9.2892 1.0000
50.0941 -13.1346 9.2819 1.0000
50.0941 -12.9747 9.2747 1.0000
50.0941 -12.6557 9.2605 1.0000
50.0941 -12.4966 9.2535 1.0000
50.0941 -12.1791 9.2399 1.0000
50.0941 -12.0206 9.2333 1.0000
50.0941 -11.8624 9.2267 1.0000
50.0941 -11.7045 9.2202 1.0000
50.0941 -11.5467 9.2138 1.0000
50.0941 -11.3891 9.2075 1.0000
50.0940 -11.2319 9.2013 1.0000
50.0940 -10.9178 9.1892 1.0000
50.0940 -10.7611 9.1832 1.0000
50.0940 -10.6046 9.1774 1.0000
50.0940 -10.4483 9.1716 1.0000
50.0940 -10.1363 9.1604 1.0000
50.0940 -9.9805 9.1549 1.0000
50.0940 -9.3595 9.1338 1.0000
50.0940 -8.7411 9.1141 1.0000
50.0940 -8.4330 9.1047 1.0000
50.0940 -7.9718 9.0914 1.0000
50.0940 -7.5120 9.0788 1.0000
50.0939 -7.3590 9.0748 1.0000
50.0939 -6.7484 9.0595 1.0000
50.0939 -6.4438 9.0524 1.0000
50.0939 -6.2917 9.0489 1.0000
50.0939 -6.1397 9.0456 1.0000
50.0939 -5.8360 9.0391 1.0000
50.0939 -5.3813 9.0300 1.0000
50.0939 -5.2300 9.0272 1.0000
50.0939 -5.0786 9.0244 1.0000
50.0939 -4.9275 9.0217 1.0000
50.0939 -4.6254 9.0166 1.0000
50.0939 -4.3236 9.0118 1.0000
50.0939 -4.1728 9.0095 1.0000
50.0939 -3.8715 9.0052 1.0000
50.0939 -3.1194 8.9958 1.0000
50.0939 -2.9691 8.9941 1.0000
50.0940 -2.5187 8.9897 1.0000
50.0940 -2.2186 8.9872 1.0000
50.0940 -2.0686 8.9860 1.0000
50.0940 -1.4691 8.9822 1.0000
50.0940 -0.8700 8.9797 1.0000
50.0940 -0.5705 8.9790 1.0000
50.0940 -0.4209 8.9787 1.0000
50.0940 0.3276 8.9786 1.0000
50.0940 0.6270 8.9791 1.0000
50.0940 0.7768 8.9795 1.0000
50.0940 1.2260 8.9811 1.0000
50.0940 1.5256 8.9825 1.0000
50.0940 1.6755 8.9834 1.0000
50.0940 1.9753 8.9854 1.0000
50.0940 2.2752 8.9876 1.0000
50.0940 2.4252 8.9889 1.0000
50.0940 2.5753 8.9903 1.0000
50.0940 3.1761 8.9964 1.0000
50.0940 3.3264 8.9982 1.0000
50.0940 3.4768 9.0000 1.0000
50.0940 3.6272 9.0019 1.0000
50.0940 3.9283 9.0060 1.0000
50.0940 4.0789 9.0081 1.0000
50.0940 5.5899 9.0341 1.0000
50.0940 6.3490 9.0502 1.0000
50.0940 6.5012 9.0537 1.0000
50.0940 6.6534 9.0572 1.0000
50.0940 6.8058 9.0609 1.0000
50.0940 7.1110 9.0684 1.0000
50.0940 7.7229 9.0845 1.0000
50.0940 7.8762 9.0887 1.0000
50.0940 8.3371 9.1019 1.0000
50.0940 8.4910 9.1065 1.0000
50.0940 8.6451 9.1111 1.0000
50.0940 8.7993 9.1159 1.0000
50.0940 8.9537 9.1207 1.0000
50.0940 9.4179 9.1357 1.0000
50.0940 9.5730 9.1409 1.0000
50.0940 9.7282 9.1461 1.0000
50.0940 9.8836 9.1515 1.0000
50.0940 10.1950 9.1624 1.0000
50.0940 10.3511 9.1681 1.0000
50.0940 10.5072 9.1738 1.0000
50.0940 10.8202 9.1855 1.0000
50.0940 10.9770 9.1914 1.0000
50.0940 11.1339 9.1975 1.0000
50.0940 11.6062 9.2162 1.0000
50.0940 11.7641 9.2226 1.0000
50.0940 11.9221 9.2292 1.0000
50.0940 12.8753 9.2702 1.0000
50.0940 13.0350 9.2774 1.0000
50.0940 13.1950 9.2846 1.0000
50.0941 -13.3298 9.2908 1.0000
50.0941 -13.0097 9.2762 1.0000
50.0941 -12.6906 9.2620 1.0000
50.0941 -12.3725 9.2482 1.0000
50.0941 -12.2138 9.2414 1.0000
50.0941 -12.0554 9.2347 1.0000
50.0941 -11.5813 9.2152 1.0000
50.0940 -11.2663 9.2027 1.0000
50.0940 -10.6389 9.1786 1.0000
50.0940 -10.4825 9.1729 1.0000
50.0940 -10.3264 9.1672 1.0000
50.0940 -10.0147 9.1561 1.0000
50.0940 -9.8591 9.1506 1.0000
50.0940 -9.7037 9.1453 1.0000
50.0940 -9.0838 9.1248 1.0000
50.0940 -8.6207 9.1104 1.0000
50.0940 -8.1591 9.0967 1.0000
50.0940 -7.8520 9.0880 1.0000
50.0940 -7.6987 9.0838 1.0000
50.0939 -7.3925 9.0756 1.0000
50.0939 -6.9343 9.0640 1.0000
50.0939 -6.7818 9.0603 1.0000
50.0939 -6.6294 9.0567 1.0000
50.0939 -6.4771 9.0531 1.0000
50.0939 -6.3250 9.0497 1.0000
50.0939 -5.5660 9.0336 1.0000
50.0939 -5.4145 9.0307 1.0000
50.0939 -5.2631 9.0278 1.0000
50.0939 -4.6585 9.0171 1.0000
50.0939 -4.5075 9.0147 1.0000
50.0939 -4.3566 9.0123 1.0000
50.0939 -4.2059 9.0100 1.0000
50.0940 5.1688 8.1507 1.0000
50.0939 5.3202 8.1533 1.0000
50.0940 5.4716 8.1559 1.0000
50.0939 5.6231 8.1586 1.0000
50.0940 5.7748 8.1614 1.0000
50.0940 5.9265 8.1642 1.0000
50.0939 6.0784 8.1671 1.0000
50.0940 6.3823 8.1732 1.0000
50.0940 6.5345 8.1763 1.0000
50.0940 6.6868 8.1796 1.0000
50.0940 6.9918 8.1863 1.0000
50.0940 7.1445 8.1897 1.0000
50.0939 7.4502 8.1968 1.0000
50.0940 7.6033 8.2005 1.0000
50.0940 7.9098 8.2081 1.0000
50.0940 8.2170 8.2160 1.0000
50.0939 8.3708 8.2201 1.0000
50.0940 8.6789 8.2284 1.0000
50.0939 8.8331 8.2327 1.0000
50.0939 9.1421 8.2416 1.0000
50.0940 9.2969 8.2461 1.0000
50.0940 9.4518 8.2507 1.0000
50.0940 9.7623 8.2602 1.0000
50.0940 9.9177 8.2650 1.0000
50.0940 10.0734 8.2700 1.0000
50.0940 10.2292 8.2750 1.0000
50.0940 10.5415 8.2852 1.0000
50.0940 10.8545 8.2958 1.0000
50.0939 11.0113 8.3012 1.0000
50.0939 11.1684 8.3067 1.0000
50.0939 11.3256 8.3123 1.0000
50.0939 11.4831 8.3179 1.0000
50.0939 11.6407 8.3237 1.0000
50.0939 11.7986 8.3295 1.0000
50.0939 11.9567 8.3354 1.0000
50.0939 12.1151 8.3414 1.0000
50.0939 12.4324 8.3536 1.0000
50.0939 12.5914 8.3599 1.0000
50.0939 12.7507 8.3662 1.0000
50.0939 12.9102 8.3726 1.0000
50.0940 13.0700 8.3791 1.0000
50.0940 13.3904 8.3923 1.0000
50.0940 -13.1345 8.3817 1.0000
50.0940 -12.9747 8.3752 1.0000
50.0940 -12.8151 8.3688 1.0000
50.0940 -12.3377 8.3499 1.0000
50.0940 -11.5467 8.3203 1.0000
50.0940 -11.2318 8.3090 1.0000
50.0940 -11.0747 8.3034 1.0000
50.0940 -10.6046 8.2873 1.0000
50.0940 -10.4483 8.2821 1.0000
50.0940 -10.2922 8.2770 1.0000
50.0940 -10.1363 8.2720 1.0000
50.0940 -9.6696 8.2573 1.0000
50.0940 -9.3594 8.2480 1.0000
50.0940 -9.0500 8.2389 1.0000
50.0940 -8.1254 8.2136 1.0000
50.0940 -7.6651 8.2020 1.0000
50.0939 -7.3589 8.1947 1.0000
50.0939 -7.0534 8.1876 1.0000
50.0939 -6.9008 8.1842 1.0000
50.0939 -6.5960 8.1776 1.0000
50.0939 -6.4438 8.1745 1.0000
50.0939 -6.2917 8.1713 1.0000
50.0939 -5.9878 8.1654 1.0000
50.0939 -5.6843 8.1597 1.0000
50.0939 -5.5327 8.1570 1.0000
50.0939 -5.3813 8.1543 1.0000
50.0939 -5.2299 8.1517 1.0000
50.0939 -5.0786 8.1492 1.0000
50.0939 -4.9275 8.1468 1.0000
50.0939 -4.4744 8.1399 1.0000
50.0939 -4.0221 8.1337 1.0000
50.0939 -3.4200 8.1265 1.0000
50.0939 -3.1193 8.1234 1.0000
50.0939 -2.9691 8.1219 1.0000
50.0939 -2.8189 8.1205 1.0000
50.0939 -2.6688 8.1192 1.0000
50.0939 -2.5187 8.1179 1.0000
50.0939 -2.0686 8.1146 1.0000
50.0940 -1.9187 8.1136 1.0000
50.0940 -1.7688 8.1127 1.0000
50.0939 -1.6189 8.1119 1.0000
50.0940 -1.0198 8.1093 1.0000
50.0939 -0.7202 8.1085 1.0000
50.0939 -0.5705 8.1082 1.0000
50.0939 -0.4209 8.1079 1.0000
50.0940 -0.2712 8.1078 1.0000
50.0939 0.3277 8.1078 1.0000
50.0939 0.6270 8.1083 1.0000
50.0939 0.7768 8.1086 1.0000
50.0939 1.0762 8.1095 1.0000
50.0939 1.2260 8.1101 1.0000
50.0939 1.3758 8.1107 1.0000
50.0939 1.8254 8.1130 1.0000
50.0939 2.1252 8.1150 1.0000
50.0939 2.4252 8.1172 1.0000
50.0939 3.0258 8.1224 1.0000
50.0939 3.1760 8.1239 1.0000
50.0940 3.3263 8.1255 1.0000
50.0940 3.6272 8.1289 1.0000
50.0940 3.9283 8.1326 1.0000
50.0940 4.0789 8.1345 1.0000
50.0939 4.3805 8.1386 1.0000
50.0939 4.5313 8.1408 1.0000
50.0940 4.6823 8.1430 1.0000
50.0939 4.9845 8.1477 1.0000
50.0939 5.2870 8.1527 1.0000
50.0940 5.4384 8.1553 1.0000
50.0940 5.5899 8.1580 1.0000
50.0940 5.7415 8.1607 1.0000
50.0939 6.1970 8.1695 1.0000
50.0940 6.3490 8.1725 1.0000
50.0940 6.6534 8.1789 1.0000
50.0940 6.9584 8.1855 1.0000
50.0940 7.2638 8.1925 1.0000
50.0939 7.4167 8.1960 1.0000
50.0939 8.0297 8.2112 1.0000
50.0939 8.4910 8.2233 1.0000
50.0940 8.6451 8.2275 1.0000
50.0940 8.7993 8.2318 1.0000
50.0940 8.9537 8.2361 1.0000
50.0940 9.8836 8.2640 1.0000
50.0940 10.1950 8.2739 1.0000
50.0940 10.3510 8.2789 1.0000
50.0940 10.5072 8.2841 1.0000
50.0940 10.8202 8.2946 1.0000
50.0939 10.9770 8.3000 1.0000
50.0939 11.1339 8.3055 1.0000
50.0939 11.4485 8.3167 1.0000
50.0939 11.7640 8.3282 1.0000
50.0939 12.0804 8.3401 1.0000
50.0939 12.2388 8.3461 1.0000
50.0939 12.5566 8.3585 1.0000
50.0939 12.7158 8.3648 1.0000
50.0940 13.1950 8.3842 1.0000
50.0940 13.3552 8.3908 1.0000
50.0940 -13.3298 8.3898 1.0000
50.0940 -12.8500 8.3702 1.0000
50.0940 -12.6907 8.3638 1.0000
50.0940 -12.5314 8.3575 1.0000
50.0940 -12.3725 8.3513 1.0000
50.0940 -12.0553 8.3391 1.0000
50.0940 -11.7390 8.3273 1.0000
50.0940 -11.2663 8.3102 1.0000
50.0940 -10.9521 8.2992 1.0000
50.0940 -10.4825 8.2833 1.0000
50.0940 -10.1704 8.2731 1.0000
50.0940 -10.0147 8.2681 1.0000
50.0940 -9.8591 8.2632 1.0000
50.0940 -9.7037 8.2584 1.0000
50.0940 -9.3934 8.2490 1.0000
50.0940 -9.2386 8.2444 1.0000
50.0940 -8.9293 8.2355 1.0000
50.0940 -8.7750 8.2311 1.0000
50.0940 -8.4667 8.2227 1.0000
50.0940 -8.1590 8.2145 1.0000
50.0940 -8.0055 8.2105 1.0000
50.0940 -7.6987 8.2028 1.0000
50.0940 -7.5455 8.1991 1.0000
50.0939 -7.2396 8.1919 1.0000
50.0939 -7.0869 8.1884 1.0000
50.0939 -6.7818 8.1816 1.0000
50.0939 -6.1730 8.1690 1.0000
50.0939 -5.8693 8.1631 1.0000
50.0939 -5.7175 8.1603 1.0000
50.0939 -5.5660 8.1575 1.0000
50.0939 -5.1118 8.1498 1.0000
50.0939 -4.9605 8.1473 1.0000
50.0939 -4.5075 8.1404 1.0000
50.0939 -4.3566 8.1383 1.0000
50.0939 -3.7539 8.1304 1.0000
50.0939 5.1689 7.2801 1.0000
50.0940 5.3202 7.2824 1.0000
50.0940 5.7747 7.2896 1.0000
50.0940 6.0783 7.2948 1.0000
50.0939 6.2303 7.2975 1.0000
50.0939 6.3824 7.3002 1.0000
50.0939 7.2973 7.3181 1.0000
50.0940 8.0634 7.3349 1.0000
50.0940 8.2170 7.3385 1.0000
50.0940 8.8331 7.3534 1.0000
50.0939 9.4518 7.3695 1.0000
50.0940 9.6070 7.3737 1.0000
50.0939 9.7623 7.3779 1.0000
50.0939 10.0734 7.3866 1.0000
50.0939 10.2292 7.3911 1.0000
50.0940 10.5414 7.4003 1.0000
50.0940 10.8545 7.4097 1.0000
50.0940 11.3256 7.4245 1.0000
50.0940 11.4830 7.4295 1.0000
50.0940 11.7986 7.4398 1.0000
50.0940 12.2736 7.4559 1.0000
50.0940 12.4324 7.4614 1.0000
50.0940 12.7507 7.4726 1.0000
50.0940 12.9103 7.4783 1.0000
50.0940 13.3902 7.4959 1.0000
50.0940 -13.2947 7.4924 1.0000
50.0940 -12.8151 7.4749 1.0000
50.0940 -12.6557 7.4692 1.0000
50.0940 -12.4966 7.4636 1.0000
50.0940 -11.8624 7.4420 1.0000
50.0940 -11.7045 7.4367 1.0000
50.0940 -10.9178 7.4117 1.0000
50.0940 -10.6046 7.4022 1.0000
50.0940 -10.4483 7.3975 1.0000
50.0940 -10.2922 7.3930 1.0000
50.0940 -10.1363 7.3884 1.0000
50.0940 -9.8250 7.3797 1.0000
50.0940 -9.0500 7.3589 1.0000
50.0940 -8.8955 7.3550 1.0000
50.0940 -8.7411 7.3511 1.0000
50.0940 -8.1254 7.3363 1.0000
50.0940 -7.5120 7.3227 1.0000
50.0939 -7.2062 7.3162 1.0000
50.0939 -6.1397 7.2959 1.0000
50.0939 -5.6844 7.2881 1.0000
50.0939 -5.3813 7.2833 1.0000
50.0939 -4.7763 7.2745 1.0000
50.0939 -4.6254 7.2725 1.0000
50.0939 -4.4745 7.2705 1.0000
50.0939 -4.1728 7.2668 1.0000
50.0939 -4.0221 7.2650 1.0000
50.0939 -3.8715 7.2633 1.0000
50.0939 -3.7209 7.2616 1.0000
50.0939 -3.4200 7.2585 1.0000
50.0939 -3.1194 7.2557 1.0000
50.0939 -2.9691 7.2544 1.0000
50.0939 -2.8189 7.2531 1.0000
50.0940 -2.6688 7.2519 1.0000
50.0939 -2.5187 7.2508 1.0000
50.0940 -2.3686 7.2498 1.0000
50.0940 -2.2186 7.2488 1.0000
50.0940 -1.9187 7.2470 1.0000
50.0940 -1.7688 7.2462 1.0000
50.0940 -1.6189 7.2455 1.0000
50.0940 -1.1695 7.2436 1.0000
50.0940 -1.0198 7.2432 1.0000
50.0940 -0.8700 7.2428 1.0000
50.0940 -0.7203 7.2424 1.0000
50.0940 -0.5706 7.2421 1.0000
50.0940 -0.4209 7.2419 1.0000
50.0940 -0.2712 7.2418 1.0000
50.0940 0.0282 7.2417 1.0000
50.0940 0.7767 7.2425 1.0000
50.0940 1.0762 7.2434 1.0000
50.0940 1.2260 7.2438 1.0000
50.0940 1.8254 7.2465 1.0000
50.0940 2.1252 7.2482 1.0000
50.0940 2.2752 7.2491 1.0000
50.0940 2.4252 7.2502 1.0000
50.0940 2.5753 7.2512 1.0000
50.0940 2.8755 7.2536 1.0000
50.0940 3.1760 7.2562 1.0000
50.0940 3.3263 7.2576 1.0000
50.0940 3.7777 7.2622 1.0000
50.0940 3.9282 7.2639 1.0000
50.0940 4.2296 7.2674 1.0000
50.0940 4.6823 7.2732 1.0000
50.0940 5.7415 7.2891 1.0000
50.0940 5.8932 7.2916 1.0000
50.0940 6.6534 7.3053 1.0000
50.0939 6.9584 7.3112 1.0000
50.0940 7.1110 7.3143 1.0000
50.0939 7.2638 7.3174 1.0000
50.0939 7.4167 7.3206 1.0000
50.0939 7.7229 7.3272 1.0000
50.0939 8.0297 7.3341 1.0000
50.0940 8.1833 7.3377 1.0000
50.0940 8.3371 7.3413 1.0000
50.0940 8.4910 7.3450 1.0000
50.0940 9.4179 7.3685 1.0000
50.0940 9.8836 7.3813 1.0000
50.0939 10.8202 7.4087 1.0000
50.0940 10.9769 7.4135 1.0000
50.0940 11.1339 7.4184 1.0000
50.0939 11.2911 7.4234 1.0000
50.0940 11.7640 7.4387 1.0000
50.0940 11.9220 7.4439 1.0000
50.0939 12.3975 7.4602 1.0000
50.0940 13.1949 7.4887 1.0000
50.0940 13.3551 7.4946 1.0000
50.0940 -13.3298 7.4937 1.0000
50.0940 -12.8501 7.4761 1.0000
50.0940 -12.6906 7.4705 1.0000
50.0940 -12.0554 7.4484 1.0000
50.0940 -11.5813 7.4327 1.0000
50.0940 -11.1091 7.4176 1.0000
50.0940 -10.9522 7.4127 1.0000
50.0940 -10.6389 7.4032 1.0000
50.0940 -10.3264 7.3939 1.0000
50.0940 -10.0147 7.3850 1.0000
50.0940 -9.8591 7.3806 1.0000
50.0940 -9.7037 7.3763 1.0000
50.0940 -9.5485 7.3721 1.0000
50.0940 -9.3934 7.3679 1.0000
50.0940 -8.9293 7.3558 1.0000
50.0940 -8.6208 7.3481 1.0000
50.0940 -8.4667 7.3444 1.0000
50.0940 -8.1591 7.3371 1.0000
50.0940 -8.0055 7.3336 1.0000
50.0940 -7.6988 7.3267 1.0000
50.0939 -7.0869 7.3138 1.0000
50.0939 -6.9343 7.3107 1.0000
50.0939 -6.7818 7.3077 1.0000
50.0939 -6.4772 7.3020 1.0000
50.0939 -6.3250 7.2992 1.0000
50.0939 -6.1730 7.2964 1.0000
50.0939 -6.0211 7.2938 1.0000
50.0939 -5.8693 7.2912 1.0000
50.0939 -5.7176 7.2887 1.0000
50.0939 -5.5660 7.2862 1.0000
50.0939 -5.4145 7.2839 1.0000
50.0939 -5.1118 7.2793 1.0000
50.0939 -4.9606 7.2771 1.0000
50.0939 -4.8095 7.2750 1.0000
50.0939 -4.3566 7.2690 1.0000
50.0939 -4.0552 7.2654 1.0000
50.0939 -3.9045 7.2636 1.0000
50.0939 5.1689 6.4138 1.0000
50.0939 5.3202 6.4158 1.0000
50.0939 5.4716 6.4179 1.0000
50.0939 5.6232 6.4200 1.0000
50.0939 5.9265 6.4244 1.0000
50.0939 6.0784 6.4267 1.0000
50.0939 6.2304 6.4291 1.0000
50.0939 6.5346 6.4340 1.0000
50.0939 6.8393 6.4391 1.0000
50.0939 7.1445 6.4445 1.0000
50.0939 7.4503 6.4501 1.0000
50.0939 7.7565 6.4559 1.0000
50.0939 7.9099 6.4590 1.0000
50.0939 8.0634 6.4620 1.0000
50.0939 8.5248 6.4716 1.0000
50.0939 8.6789 6.4750 1.0000
50.0939 9.4519 6.4925 1.0000
50.0939 9.6070 6.4962 1.0000
50.0939 9.7623 6.4999 1.0000
50.0939 9.9178 6.5038 1.0000
50.0939 10.0734 6.5076 1.0000
50.0939 10.8546 6.5280 1.0000
50.0939 11.1684 6.5366 1.0000
50.0939 11.4831 6.5454 1.0000
50.0939 11.9568 6.5591 1.0000
50.0939 12.1151 6.5638 1.0000
50.0939 12.4324 6.5735 1.0000
50.0939 12.5914 6.5784 1.0000
50.0939 12.7507 6.5833 1.0000
50.0939 12.9103 6.5884 1.0000
50.0939 13.0700 6.5935 1.0000
50.0939 13.2300 6.5987 1.0000
50.0940 -13.1346 6.5956 1.0000
50.0940 -12.4966 6.5754 1.0000
50.0940 -12.3377 6.5706 1.0000
50.0940 -11.8625 6.5564 1.0000
50.0940 -11.5467 6.5472 1.0000
50.0940 -11.3892 6.5427 1.0000
50.0940 -11.0747 6.5340 1.0000
50.0940 -10.6046 6.5213 1.0000
50.0940 -10.2922 6.5132 1.0000
50.0940 -9.6696 6.4977 1.0000
50.0940 -9.0500 6.4832 1.0000
50.0940 -8.4330 6.4697 1.0000
50.0940 -8.2791 6.4665 1.0000
50.0940 -8.1254 6.4633 1.0000
50.0940 -7.5120 6.4513 1.0000
50.0939 -7.2061 6.4456 1.0000
50.0939 -7.0534 6.4429 1.0000
50.0939 -6.9008 6.4402 1.0000
50.0939 -6.5961 6.4350 1.0000
50.0939 -6.4438 6.4325 1.0000
50.0939 -6.1396 6.4277 1.0000
50.0939 -5.6843 6.4209 1.0000
50.0939 -5.3813 6.4166 1.0000
50.0939 -4.7764 6.4088 1.0000
50.0939 -4.1728 6.4020 1.0000
50.0939 -4.0221 6.4004 1.0000
50.0939 -3.4200 6.3948 1.0000
50.0939 -2.9691 6.3911 1.0000
50.0939 -2.5187 6.3880 1.0000
50.0939 -2.3686 6.3870 1.0000
50.0939 -2.0686 6.3853 1.0000
50.0939 -1.7688 6.3839 1.0000
50.0939 -1.6189 6.3832 1.0000
50.0939 -1.3193 6.3821 1.0000
50.0939 -1.1695 6.3817 1.0000
50.0939 -0.8700 6.3809 1.0000
50.0939 -0.4208 6.3801 1.0000
50.0939 -0.2711 6.3800 1.0000
50.0939 -0.1214 6.3799 1.0000
50.0939 0.0282 6.3799 1.0000
50.0939 0.7768 6.3807 1.0000
50.0939 0.9265 6.3810 1.0000
50.0939 1.6755 6.3835 1.0000
50.0939 1.8254 6.3842 1.0000
50.0939 2.4252 6.3874 1.0000
50.0939 3.1761 6.3927 1.0000
50.0939 3.3264 6.3940 1.0000
50.0939 3.7777 6.3980 1.0000
50.0939 3.9283 6.3995 1.0000
50.0939 4.0789 6.4010 1.0000
50.0939 4.5313 6.4060 1.0000
50.0939 4.6823 6.4077 1.0000
50.0939 4.8333 6.4095 1.0000
50.0939 5.2870 6.4153 1.0000
50.0939 5.4384 6.4174 1.0000
50.0939 5.7415 6.4217 1.0000
50.0939 6.5012 6.4334 1.0000
50.0939 6.8059 6.4385 1.0000
50.0939 7.1111 6.4439 1.0000
50.0939 7.2638 6.4466 1.0000
50.0939 7.5697 6.4523 1.0000
50.0939 8.3371 6.4677 1.0000
50.0939 8.4910 6.4709 1.0000
50.0939 8.9537 6.4810 1.0000
50.0939 10.1951 6.5107 1.0000
50.0939 10.3511 6.5147 1.0000
50.0939 10.6636 6.5229 1.0000
50.0939 10.9770 6.5313 1.0000
50.0939 11.4486 6.5444 1.0000
50.0939 12.0804 6.5628 1.0000
50.0939 12.2389 6.5676 1.0000
50.0939 12.5566 6.5773 1.0000
50.0939 12.7158 6.5822 1.0000
50.0939 12.8753 6.5873 1.0000
50.0939 13.0350 6.5924 1.0000
50.0939 13.1949 6.5975 1.0000
50.0939 13.3551 6.6028 1.0000
50.0940 -13.1697 6.5967 1.0000
50.0940 -12.0554 6.5621 1.0000
50.0940 -11.7391 6.5528 1.0000
50.0940 -11.2663 6.5393 1.0000
50.0940 -11.1092 6.5349 1.0000
50.0940 -10.7954 6.5264 1.0000
50.0940 -10.4826 6.5181 1.0000
50.0940 -10.3264 6.5141 1.0000
50.0940 -10.1704 6.5101 1.0000
50.0940 -10.0147 6.5062 1.0000
50.0940 -9.5485 6.4948 1.0000
50.0940 -9.3934 6.4911 1.0000
50.0940 -9.2386 6.4875 1.0000
50.0940 -9.0839 6.4840 1.0000
50.0940 -8.9293 6.4805 1.0000
50.0940 -8.7750 6.4771 1.0000
50.0940 -8.4667 6.4704 1.0000
50.0940 -8.1591 6.4640 1.0000
50.0940 -8.0055 6.4609 1.0000
50.0939 -7.0869 6.4434 1.0000
50.0939 -6.7818 6.4381 1.0000
50.0939 -6.6294 6.4355 1.0000
50.0939 -6.4771 6.4330 1.0000
50.0939 -6.3250 6.4306 1.0000
50.0939 -6.1730 6.4282 1.0000
50.0939 -5.8693 6.4236 1.0000
50.0939 -5.7175 6.4213 1.0000
50.0939 -5.5660 6.4192 1.0000
50.0939 -4.8095 6.4092 1.0000
50.0939 -4.6585 6.4074 1.0000
50.0939 -4.5075 6.4057 1.0000
50.0939 -4.2059 6.4024 1.0000
50.0939 -3.9045 6.3993 1.0000
50.0939 -3.7539 6.3978 1.0000
50.0939 5.1688 5.5512 1.0000
50.0939 5.6231 5.5565 1.0000
50.0939 6.2303 5.5644 1.0000
50.0939 6.5345 5.5686 1.0000
50.0939 6.6869 5.5708 1.0000
50.0939 6.9918 5.5754 1.0000
50.0939 7.1445 5.5777 1.0000
50.0939 7.2973 5.5801 1.0000
50.0939 7.4502 5.5826 1.0000
50.0939 7.7565 5.5876 1.0000
50.0939 8.0634 5.5929 1.0000
50.0939 8.6789 5.6041 1.0000
50.0939 8.8331 5.6070 1.0000
50.0939 8.9876 5.6100 1.0000
50.0939 9.1421 5.6131 1.0000
50.0939 9.2970 5.6161 1.0000
50.0939 9.4519 5.6193 1.0000
50.0939 9.6070 5.6225 1.0000
50.0939 9.7623 5.6257 1.0000
50.0939 10.2292 5.6358 1.0000
50.0939 10.3852 5.6393 1.0000
50.0939 10.6979 5.6464 1.0000
50.0939 11.1684 5.6574 1.0000
50.0939 11.3256 5.6612 1.0000
50.0939 11.7986 5.6729 1.0000
50.0939 12.1151 5.6810 1.0000
50.0939 12.2736 5.6852 1.0000
50.0939 12.4324 5.6894 1.0000
50.0939 12.5915 5.6936 1.0000
50.0939 12.9102 5.7023 1.0000
50.0939 13.0700 5.7067 1.0000
50.0939 13.3903 5.7157 1.0000
50.0940 -13.1346 5.7085 1.0000
50.0940 -12.3377 5.6869 1.0000
50.0939 -11.8624 5.6746 1.0000
50.0939 -11.3891 5.6628 1.0000
50.0940 -11.2318 5.6590 1.0000
50.0940 -11.0747 5.6552 1.0000
50.0940 -10.9178 5.6515 1.0000
50.0940 -10.7611 5.6478 1.0000
50.0940 -10.6046 5.6442 1.0000
50.0940 -10.4483 5.6407 1.0000
50.0940 -10.1363 5.6338 1.0000
50.0939 -9.9805 5.6304 1.0000
50.0940 -9.6696 5.6238 1.0000
50.0939 -9.3594 5.6174 1.0000
50.0939 -8.8954 5.6082 1.0000
50.0940 -8.5870 5.6024 1.0000
50.0939 -8.4329 5.5996 1.0000
50.0939 -8.2791 5.5968 1.0000
50.0939 -7.9718 5.5913 1.0000
50.0940 -7.5120 5.5836 1.0000
50.0939 -7.3590 5.5811 1.0000
50.0939 -7.0534 5.5763 1.0000
50.0939 -6.5960 5.5695 1.0000
50.0939 -6.4437 5.5673 1.0000
50.0939 -6.2916 5.5652 1.0000
50.0939 -5.9878 5.5612 1.0000
50.0939 -5.6843 5.5573 1.0000
50.0939 -5.5328 5.5554 1.0000
50.0939 -5.2299 5.5519 1.0000
50.0939 -5.0786 5.5502 1.0000
50.0939 -4.6254 5.5453 1.0000
50.0939 -4.1728 5.5410 1.0000
50.0939 -3.8715 5.5383 1.0000
50.0939 -3.5704 5.5359 1.0000
50.0939 -3.4200 5.5347 1.0000
50.0939 -3.2696 5.5336 1.0000
50.0939 -2.8189 5.5306 1.0000
50.0939 -2.5187 5.5288 1.0000
50.0939 -2.3686 5.5280 1.0000
50.0939 -1.7688 5.5253 1.0000
50.0939 -1.6189 5.5247 1.0000
50.0939 -1.3193 5.5238 1.0000
50.0939 -1.1695 5.5234 1.0000
50.0939 -0.5705 5.5222 1.0000
50.0939 -0.4209 5.5220 1.0000
50.0939 -0.1215 5.5219 1.0000
50.0939 0.0282 5.5219 1.0000
50.0939 0.7767 5.5225 1.0000
50.0939 1.0762 5.5231 1.0000
50.0939 1.5256 5.5244 1.0000
50.0939 1.9752 5.5261 1.0000
50.0939 2.1252 5.5268 1.0000
50.0939 2.2752 5.5275 1.0000
50.0939 2.4252 5.5283 1.0000
50.0939 2.7254 5.5300 1.0000
50.0939 3.0258 5.5319 1.0000
50.0939 3.1760 5.5329 1.0000
50.0939 3.3264 5.5340 1.0000
50.0939 3.6272 5.5363 1.0000
50.0939 3.9283 5.5388 1.0000
50.0939 4.2297 5.5415 1.0000
50.0939 4.3805 5.5429 1.0000
50.0939 4.5313 5.5444 1.0000
50.0939 4.6823 5.5459 1.0000
50.0939 4.9845 5.5491 1.0000
50.0939 5.2870 5.5525 1.0000
50.0939 5.4384 5.5543 1.0000
50.0939 5.7416 5.5580 1.0000
50.0939 5.8932 5.5599 1.0000
50.0939 6.1970 5.5639 1.0000
50.0939 6.6534 5.5703 1.0000
50.0939 6.8059 5.5726 1.0000
50.0939 6.9584 5.5749 1.0000
50.0939 7.2638 5.5796 1.0000
50.0939 7.5697 5.5845 1.0000
50.0939 7.7229 5.5871 1.0000
50.0939 7.8762 5.5897 1.0000
50.0939 8.0297 5.5923 1.0000
50.0939 8.1833 5.5950 1.0000
50.0939 8.3371 5.5978 1.0000
50.0939 8.6451 5.6035 1.0000
50.0939 8.7993 5.6064 1.0000
50.0939 9.1083 5.6124 1.0000
50.0939 9.2630 5.6155 1.0000
50.0939 9.8836 5.6283 1.0000
50.0939 10.0393 5.6316 1.0000
50.0939 10.3511 5.6385 1.0000
50.0939 10.5072 5.6420 1.0000
50.0939 10.6636 5.6456 1.0000
50.0939 10.9770 5.6529 1.0000
50.0939 11.1339 5.6566 1.0000
50.0939 11.7640 5.6721 1.0000
50.0939 12.0804 5.6802 1.0000
50.0939 13.0350 5.7057 1.0000
50.0940 -13.1696 5.7095 1.0000
50.0939 -12.6906 5.6963 1.0000
50.0939 -12.5314 5.6920 1.0000
50.0939 -12.0553 5.6795 1.0000
50.0940 -11.8971 5.6754 1.0000
50.0939 -11.7390 5.6714 1.0000
50.0940 -11.5813 5.6675 1.0000
50.0940 -11.4237 5.6636 1.0000
50.0940 -11.1091 5.6560 1.0000
50.0940 -10.7954 5.6486 1.0000
50.0940 -10.3264 5.6380 1.0000
50.0940 -10.1704 5.6345 1.0000
50.0940 -9.5485 5.6213 1.0000
50.0939 -9.2386 5.6150 1.0000
50.0940 -9.0839 5.6119 1.0000
50.0940 -8.9293 5.6089 1.0000
50.0940 -8.7750 5.6059 1.0000
50.0939 -8.4667 5.6002 1.0000
50.0940 -8.1590 5.5946 1.0000
50.0939 -6.6294 5.5700 1.0000
50.0939 -6.4771 5.5678 1.0000
50.0939 -6.3250 5.5657 1.0000
50.0939 -5.7175 5.5577 1.0000
50.0939 -5.5660 5.5558 1.0000
50.0939 -5.2631 5.5522 1.0000
50.0939 -4.9606 5.5489 1.0000
50.0939 -4.2058 5.5413 1.0000
50.0939 -4.0551 5.5399 1.0000
50.0939 -3.7539 5.5373 1.0000
50.0939 6.0783 4.7012 1.0000
50.0939 6.5345 4.7065 1.0000
50.0939 6.8393 4.7103 1.0000
50.0939 6.9918 4.7122 1.0000
50.0939 7.2973 4.7162 1.0000
50.0939 7.4502 4.7183 1.0000
50.0939 7.7565 4.7226 1.0000
50.0939 8.2170 4.7294 1.0000
50.0939 8.3708 4.7317 1.0000
50.0939 8.5247 4.7341 1.0000
50.0939 8.6788 4.7365 1.0000
50.0939 8.8331 4.7390 1.0000
50.0939 9.9177 4.7576 1.0000
50.0939 10.3852 4.7662 1.0000
50.0939 11.0113 4.7784 1.0000
50.0939 11.3256 4.7848 1.0000
50.0939 11.4831 4.7880 1.0000
50.0939 11.7986 4.7947 1.0000
50.0939 11.9567 4.7981 1.0000
50.0939 12.1150 4.8015 1.0000
50.0939 12.2736 4.8050 1.0000
50.0939 12.5914 4.8122 1.0000
50.0939 12.9102 4.8195 1.0000
50.0939 13.3902 4.8308 1.0000
50.0939 -12.9747 4.8210 1.0000
50.0939 -12.8151 4.8173 1.0000
50.0939 -12.6557 4.8136 1.0000
50.0939 -12.1791 4.8029 1.0000
50.0939 -11.7045 4.7927 1.0000
50.0939 -11.0747 4.7797 1.0000
50.0939 -10.9178 4.7765 1.0000
50.0939 -10.6046 4.7704 1.0000
50.0939 -10.1362 4.7616 1.0000
50.0939 -9.9805 4.7587 1.0000
50.0939 -9.8250 4.7559 1.0000
50.0939 -9.6696 4.7531 1.0000
50.0939 -9.3595 4.7477 1.0000
50.0939 -8.8955 4.7400 1.0000
50.0939 -8.7411 4.7375 1.0000
50.0939 -8.5870 4.7350 1.0000
50.0939 -8.2791 4.7303 1.0000
50.0939 -8.1254 4.7280 1.0000
50.0939 -7.9718 4.7257 1.0000
50.0939 -7.8184 4.7235 1.0000
50.0939 -7.5120 4.7192 1.0000
50.0938 -7.2061 4.7150 1.0000
50.0938 -7.0534 4.7130 1.0000
50.0938 -6.9008 4.7111 1.0000
50.0938 -6.7483 4.7091 1.0000
50.0938 -6.4438 4.7054 1.0000
50.0938 -6.2916 4.7036 1.0000
50.0938 -5.9877 4.7002 1.0000
50.0938 -5.6843 4.6969 1.0000
50.0938 -5.0786 4.6909 1.0000
50.0938 -4.6254 4.6868 1.0000
50.0938 -4.1728 4.6831 1.0000
50.0938 -4.0221 4.6820 1.0000
50.0938 -3.8715 4.6809 1.0000
50.0938 -3.5705 4.6788 1.0000
50.0938 -3.4200 4.6778 1.0000
50.0938 -3.1193 4.6760 1.0000
50.0939 -2.5187 4.6729 1.0000
50.0938 -2.2186 4.6716 1.0000
50.0939 -2.0686 4.6710 1.0000
50.0939 -1.9187 4.6704 1.0000
50.0939 -1.6189 4.6694 1.0000
50.0939 -1.1695 4.6682 1.0000
50.0939 -1.0198 4.6680 1.0000
50.0939 -0.7203 4.6675 1.0000
50.0939 -0.5706 4.6673 1.0000
50.0939 -0.2712 4.6671 1.0000
50.0939 0.0282 4.6670 1.0000
50.0939 0.1779 4.6670 1.0000
50.0939 0.3276 4.6671 1.0000
50.0939 0.7768 4.6675 1.0000
50.0939 0.9265 4.6678 1.0000
50.0939 1.0762 4.6681 1.0000
50.0939 1.3758 4.6687 1.0000
50.0939 1.5256 4.6691 1.0000
50.0939 1.8254 4.6701 1.0000
50.0939 2.1252 4.6712 1.0000
50.0939 2.2752 4.6718 1.0000
50.0939 2.4252 4.6725 1.0000
50.0939 2.5753 4.6731 1.0000
50.0939 3.0257 4.6755 1.0000
50.0939 3.3264 4.6773 1.0000
50.0939 3.7777 4.6802 1.0000
50.0939 3.9282 4.6813 1.0000
50.0939 4.0789 4.6824 1.0000
50.0939 4.8333 4.6887 1.0000
50.0939 5.1357 4.6914 1.0000
50.0939 5.2870 4.6929 1.0000
