ply
format ascii 1.0
element vertex 1618
property float32 x
property float32 y
property float32 z
property float32 I
end_header
50.0940 -1.4107 9.8583 1.0000
50.0940 -1.2609 9.8575 1.0000
50.0940 -1.1111 9.8568 1.0000
50.0940 -0.8116 9.8557 1.0000
50.0940 -0.5122 9.8549 1.0000
50.0940 -0.0631 9.8544 1.0000
50.0940 0.0866 9.8544 1.0000
50.0940 0.3860 9.8547 1.0000
50.0940 0.5357 9.8550 1.0000
50.0940 0.8352 9.8558 1.0000
50.0940 0.9849 9.8563 1.0000
50.0940 1.2844 9.8576 1.0000
50.0940 1.4342 9.8584 1.0000
50.0940 2.0337 9.8625 1.0000
50.0940 2.3337 9.8651 1.0000
50.0940 2.4837 9.8665 1.0000
50.0940 2.6338 9.8680 1.0000
50.0940 3.0844 9.8731 1.0000
50.0940 3.2346 9.8749 1.0000
50.0940 3.3850 9.8769 1.0000
50.0940 3.5354 9.8789 1.0000
50.0940 3.6859 9.8810 1.0000
50.0940 4.1377 9.8880 1.0000
50.0940 4.5902 9.8957 1.0000
50.0940 4.8922 9.9013 1.0000
50.0940 5.0434 9.9042 1.0000
50.0940 5.4974 9.9136 1.0000
50.0940 5.6490 9.9169 1.0000
50.0940 5.8006 9.9203 1.0000
50.0940 5.9523 9.9237 1.0000
50.0940 6.1042 9.9273 1.0000
50.0940 6.2562 9.9310 1.0000
50.0940 6.4083 9.9347 1.0000
50.0940 6.5605 9.9386 1.0000
50.0940 7.0178 9.9506 1.0000
50.0940 7.1705 9.9549 1.0000
50.0940 7.4762 9.9636 1.0000
50.0940 7.7826 9.9726 1.0000
50.0940 8.0895 9.9821 1.0000
50.0940 8.2432 9.9869 1.0000
50.0940 8.7052 10.0021 1.0000
50.0940 8.8595 10.0073 1.0000
50.0940 9.1685 10.0181 1.0000
50.0940 9.3233 10.0236 1.0000
50.0941 9.4783 10.0293 1.0000
50.0941 9.7887 10.0408 1.0000
50.0941 9.9442 10.0467 1.0000
50.0941 10.0999 10.0527 1.0000
50.0941 10.2558 10.0588 1.0000
50.0940 -1.9772 8.9854 1.0000
50.0940 -1.6774 8.9834 1.0000
50.0940 -0.7787 8.9795 1.0000
50.0940 -0.6290 8.9791 1.0000
50.0940 -0.4793 8.9788 1.0000
50.0940 -0.3296 8.9786 1.0000
50.0940 -0.0302 8.9784 1.0000
50.0940 0.7183 8.9793 1.0000
50.0940 0.8681 8.9797 1.0000
50.0940 1.3173 8.9815 1.0000
50.0940 1.4671 8.9822 1.0000
50.0940 1.6170 8.9831 1.0000
50.0940 1.9168 8.9850 1.0000
50.0940 2.0667 8.9860 1.0000
50.0940 2.5167 8.9897 1.0000
50.0940 2.6668 8.9911 1.0000
50.0940 2.8170 8.9926 1.0000
50.0940 3.1174 8.9958 1.0000
50.0940 3.2677 8.9975 1.0000
50.0940 3.4180 8.9993 1.0000
50.0940 3.5685 9.0011 1.0000
50.0940 4.3216 9.0117 1.0000
50.0940 5.3793 9.0300 1.0000
50.0940 5.6823 9.0360 1.0000
50.0940 5.8340 9.0391 1.0000
50.0940 6.2896 9.0489 1.0000
50.0940 6.4418 9.0523 1.0000
50.0940 6.5939 9.0558 1.0000
50.0940 6.8988 9.0631 1.0000
50.0940 7.0514 9.0669 1.0000
50.0940 7.2041 9.0708 1.0000
50.0940 7.5100 9.0787 1.0000
50.0940 7.6631 9.0828 1.0000
50.0940 7.8164 9.0870 1.0000
50.0940 8.1233 9.0957 1.0000
50.0940 8.7391 9.1140 1.0000
50.0940 9.0479 9.1237 1.0000
50.0940 9.2025 9.1286 1.0000
50.0940 9.3574 9.1337 1.0000
50.0940 9.5124 9.1388 1.0000
50.0940 9.6675 9.1441 1.0000
50.0940 9.9785 9.1548 1.0000
50.0940 10.6025 9.1773 1.0000
50.0940 11.5446 9.2137 1.0000
50.0940 11.7023 9.2201 1.0000
50.0940 11.8603 9.2266 1.0000
50.0940 12.0185 9.2332 1.0000
50.0940 12.1770 9.2398 1.0000
50.0940 12.3356 9.2466 1.0000
50.0940 12.4945 9.2535 1.0000
50.0940 12.6536 9.2604 1.0000
50.0940 12.8130 9.2674 1.0000
50.0940 12.9726 9.2746 1.0000
50.0940 13.2925 9.2891 1.0000
50.0941 -13.3925 9.2937 1.0000
50.0941 -13.0722 9.2791 1.0000
50.0941 -12.7529 9.2648 1.0000
50.0941 -12.5936 9.2578 1.0000
50.0941 -12.4346 9.2509 1.0000
50.0941 -12.1172 9.2373 1.0000
50.0941 -11.9589 9.2307 1.0000
50.0941 -11.6429 9.2177 1.0000
50.0941 -11.3278 9.2051 1.0000
50.0941 -11.1705 9.1989 1.0000
50.0940 -11.0135 9.1928 1.0000
50.0940 -10.5436 9.1751 1.0000
50.0940 -10.3874 9.1694 1.0000
50.0940 -9.9198 9.1527 1.0000
50.0940 -9.7644 9.1474 1.0000
50.0941 -9.6091 9.1421 1.0000
50.0940 -9.4540 9.1369 1.0000
50.0941 -9.2991 9.1318 1.0000
50.0941 -8.8352 9.1170 1.0000
50.0940 -8.5269 9.1075 1.0000
50.0940 -8.0655 9.0940 1.0000
50.0940 -7.6054 9.0813 1.0000
50.0939 -7.4524 9.0772 1.0000
50.0939 -7.1466 9.0693 1.0000
50.0939 -6.8414 9.0617 1.0000
50.0939 -6.5367 9.0545 1.0000
50.0940 -6.2324 9.0476 1.0000
50.0939 -6.0804 9.0443 1.0000
50.0940 -5.9286 9.0410 1.0000
50.0939 -5.7769 9.0379 1.0000
50.0939 -5.6253 9.0348 1.0000
50.0939 -5.4737 9.0318 1.0000
50.0939 -5.3223 9.0289 1.0000
50.0939 -5.0197 9.0233 1.0000
50.0940 -4.7175 9.0181 1.0000
50.0939 -4.5665 9.0156 1.0000
50.0939 -3.8128 9.0044 1.0000
50.0939 -3.3614 8.9986 1.0000
50.0940 -3.2111 8.9968 1.0000
50.0939 -3.0608 8.9951 1.0000
50.0939 -2.6103 8.9906 1.0000
50.0940 -2.0102 8.9856 1.0000
50.0940 -1.5606 8.9827 1.0000
50.0940 -1.2609 8.9812 1.0000
50.0940 -1.1111 8.9806 1.0000
50.0940 -0.9614 8.9800 1.0000
50.0940 -0.8116 8.9796 1.0000
50.0940 -0.6619 8.9792 1.0000
50.0940 -0.5122 8.9789 1.0000
50.0940 -0.3625 8.9786 1.0000
50.0940 0.2363 8.9785 1.0000
50.0940 0.3860 8.9787 1.0000
50.0940 0.8351 8.9796 1.0000
50.0940 0.9848 8.9801 1.0000
50.0940 1.2844 8.9813 1.0000
50.0940 1.4342 8.9821 1.0000
50.0940 2.3336 8.9881 1.0000
50.0940 2.7839 8.9922 1.0000
50.0940 2.9341 8.9938 1.0000
50.0940 3.2346 8.9971 1.0000
50.0940 3.3850 8.9989 1.0000
50.0940 3.5354 9.0007 1.0000
50.0940 3.6858 9.0027 1.0000
50.0940 3.8364 9.0047 1.0000
50.0940 3.9870 9.0068 1.0000
50.0940 4.1376 9.0090 1.0000
50.0940 4.5901 9.0160 1.0000
50.0940 4.7411 9.0185 1.0000
50.0940 5.3460 9.0294 1.0000
50.0940 5.6489 9.0353 1.0000
50.0940 5.8006 9.0384 1.0000
50.0940 5.9524 9.0415 1.0000
50.0940 6.2562 9.0481 1.0000
50.0940 6.7128 9.0586 1.0000
50.0940 7.0178 9.0661 1.0000
50.0940 7.1705 9.0699 1.0000
50.0940 7.6294 9.0819 1.0000
50.0940 7.9360 9.0904 1.0000
50.0940 8.0895 9.0947 1.0000
50.0940 8.3970 9.1037 1.0000
50.0940 8.5510 9.1083 1.0000
50.0940 8.7051 9.1129 1.0000
50.0940 9.0139 9.1226 1.0000
50.0940 9.1685 9.1275 1.0000
50.0940 9.3233 9.1326 1.0000
50.0940 9.4782 9.1377 1.0000
50.0940 9.6334 9.1429 1.0000
50.0940 9.7887 9.1482 1.0000
50.0940 10.2557 9.1646 1.0000
50.0940 10.4118 9.1703 1.0000
50.0939 -1.8273 8.1130 1.0000
50.0939 -1.5275 8.1114 1.0000
50.0939 -1.2279 8.1101 1.0000
50.0939 -1.0782 8.1095 1.0000
50.0939 -0.9284 8.1090 1.0000
50.0939 -0.3295 8.1078 1.0000
50.0939 -0.0302 8.1077 1.0000
50.0939 0.2692 8.1078 1.0000
50.0939 0.4189 8.1079 1.0000
50.0939 0.5686 8.1082 1.0000
50.0939 0.7184 8.1085 1.0000
50.0939 0.8681 8.1089 1.0000
50.0939 1.0178 8.1093 1.0000
50.0939 1.3173 8.1105 1.0000
50.0939 1.4672 8.1111 1.0000
50.0939 1.6170 8.1119 1.0000
50.0939 1.9168 8.1136 1.0000
50.0939 2.2166 8.1156 1.0000
50.0939 2.8170 8.1205 1.0000
50.0939 3.1174 8.1233 1.0000
50.0939 3.2677 8.1249 1.0000
50.0939 4.1708 8.1357 1.0000
50.0940 4.3216 8.1378 1.0000
50.0940 4.7744 8.1444 1.0000
50.0939 5.2279 8.1517 1.0000
50.0939 5.3793 8.1543 1.0000
50.0940 5.5307 8.1569 1.0000
50.0939 5.6823 8.1597 1.0000
50.0940 5.8340 8.1624 1.0000
50.0939 6.2896 8.1713 1.0000
50.0940 6.7463 8.1809 1.0000
50.0940 6.8988 8.1842 1.0000
50.0940 7.2041 8.1911 1.0000
50.0939 7.3570 8.1946 1.0000
50.0939 7.5100 8.1983 1.0000
50.0940 7.8163 8.2058 1.0000
50.0940 7.9698 8.2096 1.0000
50.0940 8.1233 8.2136 1.0000
50.0940 8.2770 8.2176 1.0000
50.0940 8.4309 8.2217 1.0000
50.0939 8.7391 8.2301 1.0000
50.0940 8.8934 8.2344 1.0000
50.0940 9.0479 8.2388 1.0000
50.0940 9.2025 8.2433 1.0000
50.0940 9.6675 8.2573 1.0000
50.0940 9.8229 8.2621 1.0000
50.0940 10.1341 8.2719 1.0000
50.0940 10.2901 8.2769 1.0000
50.0940 10.4462 8.2821 1.0000
50.0940 10.7590 8.2926 1.0000
50.0939 11.0726 8.3034 1.0000
50.0939 11.2297 8.3089 1.0000
50.0939 11.3870 8.3145 1.0000
50.0939 11.5446 8.3202 1.0000
50.0939 11.7023 8.3259 1.0000
50.0939 12.4945 8.3561 1.0000
50.0939 12.6536 8.3623 1.0000
50.0939 12.8130 8.3687 1.0000
50.0939 12.9725 8.3751 1.0000
50.0940 13.2925 8.3882 1.0000
50.0940 -12.9124 8.3727 1.0000
50.0940 -12.5936 8.3600 1.0000
50.0940 -12.4346 8.3537 1.0000
50.0940 -11.9589 8.3355 1.0000
50.0940 -11.8007 8.3296 1.0000
50.0940 -11.6429 8.3238 1.0000
50.0940 -11.4852 8.3180 1.0000
50.0940 -11.3278 8.3124 1.0000
50.0940 -10.5436 8.2853 1.0000
50.0940 -10.3874 8.2801 1.0000
50.0940 -10.2314 8.2750 1.0000
50.0940 -9.7644 8.2602 1.0000
50.0940 -9.6091 8.2555 1.0000
50.0940 -9.2990 8.2462 1.0000
50.0940 -8.9897 8.2372 1.0000
50.0940 -8.6810 8.2285 1.0000
50.0940 -8.2191 8.2161 1.0000
50.0940 -8.0655 8.2121 1.0000
50.0940 -7.6054 8.2006 1.0000
50.0939 -7.2993 8.1933 1.0000
50.0939 -6.6889 8.1796 1.0000
50.0939 -6.5366 8.1764 1.0000
50.0939 -6.3844 8.1732 1.0000
50.0939 -6.2324 8.1702 1.0000
50.0939 -6.0804 8.1672 1.0000
50.0939 -5.6252 8.1586 1.0000
50.0939 -5.3222 8.1533 1.0000
50.0939 -5.0196 8.1483 1.0000
50.0939 -4.8685 8.1459 1.0000
50.0939 -4.5665 8.1413 1.0000
50.0939 -4.4156 8.1391 1.0000
50.0939 -4.2648 8.1370 1.0000
50.0939 -3.5118 8.1276 1.0000
50.0939 -3.3614 8.1259 1.0000
50.0939 -3.2111 8.1243 1.0000
50.0939 -2.3101 8.1163 1.0000
50.0940 -1.7104 8.1124 1.0000
50.0939 -1.5605 8.1116 1.0000
50.0939 -1.4107 8.1109 1.0000
50.0939 -1.2609 8.1102 1.0000
50.0939 -1.1111 8.1096 1.0000
50.0939 -0.8116 8.1087 1.0000
50.0939 -0.6619 8.1084 1.0000
50.0939 -0.5122 8.1081 1.0000
50.0939 -0.2128 8.1077 1.0000
50.0939 -0.0631 8.1077 1.0000
50.0939 0.0866 8.1077 1.0000
50.0939 0.3859 8.1079 1.0000
50.0939 0.5357 8.1081 1.0000
50.0939 0.8352 8.1088 1.0000
50.0940 1.1346 8.1097 1.0000
50.0939 1.8837 8.1134 1.0000
50.0939 2.0337 8.1143 1.0000
50.0939 2.1836 8.1154 1.0000
50.0939 2.4837 8.1176 1.0000
50.0939 2.6337 8.1189 1.0000
50.0939 3.0843 8.1230 1.0000
50.0940 3.3849 8.1262 1.0000
50.0940 3.5353 8.1278 1.0000
50.0939 3.6859 8.1296 1.0000
50.0939 3.9870 8.1333 1.0000
50.0940 4.1376 8.1353 1.0000
50.0940 4.5901 8.1416 1.0000
50.0939 5.0434 8.1486 1.0000
50.0940 5.6489 8.1591 1.0000
50.0939 5.9523 8.1647 1.0000
50.0940 6.1042 8.1676 1.0000
50.0940 6.8652 8.1834 1.0000
50.0940 7.0178 8.1868 1.0000
50.0939 7.4763 8.1975 1.0000
50.0940 7.7826 8.2049 1.0000
50.0940 7.9360 8.2088 1.0000
50.0939 8.7052 8.2292 1.0000
50.0940 9.1685 8.2423 1.0000
50.0940 9.3233 8.2469 1.0000
50.0940 9.4782 8.2515 1.0000
50.0940 9.6334 8.2562 1.0000
50.0939 9.7887 8.2610 1.0000
50.0940 10.2557 8.2758 1.0000
50.0940 10.4118 8.2809 1.0000
50.0939 10.5681 8.2861 1.0000
50.0940 -1.9772 7.2473 1.0000
50.0940 -1.6775 7.2457 1.0000
50.0940 -1.5276 7.2450 1.0000
50.0940 -1.3778 7.2444 1.0000
50.0940 -1.0782 7.2434 1.0000
50.0940 -0.9285 7.2429 1.0000
50.0940 -0.3296 7.2418 1.0000
50.0940 -0.1799 7.2417 1.0000
50.0940 -0.0302 7.2417 1.0000
50.0940 0.1195 7.2417 1.0000
50.0940 0.4189 7.2419 1.0000
50.0940 0.5686 7.2421 1.0000
50.0940 0.7183 7.2424 1.0000
50.0940 1.1675 7.2436 1.0000
50.0940 1.7668 7.2462 1.0000
50.0940 2.2166 7.2488 1.0000
50.0940 2.3666 7.2498 1.0000
50.0940 2.5167 7.2508 1.0000
50.0940 2.6668 7.2519 1.0000
50.0940 2.8169 7.2531 1.0000
50.0940 2.9671 7.2544 1.0000
50.0940 3.1174 7.2557 1.0000
50.0940 3.2677 7.2571 1.0000
50.0940 3.4180 7.2585 1.0000
50.0940 3.5684 7.2600 1.0000
50.0939 4.3216 7.2686 1.0000
50.0940 4.4724 7.2705 1.0000
50.0939 4.6233 7.2725 1.0000
50.0940 4.9254 7.2766 1.0000
50.0940 5.0766 7.2788 1.0000
50.0940 5.3793 7.2833 1.0000
50.0940 5.5307 7.2857 1.0000
50.0940 5.8339 7.2906 1.0000
50.0940 6.4418 7.3013 1.0000
50.0939 6.5940 7.3042 1.0000
50.0940 6.8988 7.3100 1.0000
50.0940 7.9697 7.3328 1.0000
50.0940 8.1233 7.3363 1.0000
50.0940 8.2770 7.3399 1.0000
50.0940 8.7390 7.3510 1.0000
50.0940 8.8934 7.3549 1.0000
50.0940 9.0479 7.3589 1.0000
50.0940 9.2025 7.3629 1.0000
50.0940 9.3574 7.3669 1.0000
50.0940 9.5124 7.3711 1.0000
50.0940 9.8229 7.3796 1.0000
50.0940 10.2901 7.3929 1.0000
50.0940 10.6025 7.4021 1.0000
50.0939 10.9157 7.4116 1.0000
50.0940 11.0726 7.4165 1.0000
50.0940 11.2297 7.4214 1.0000
50.0940 11.3870 7.4264 1.0000
50.0940 11.5446 7.4315 1.0000
50.0940 11.8603 7.4419 1.0000
50.0940 12.0185 7.4472 1.0000
50.0939 12.3356 7.4580 1.0000
50.0940 12.4944 7.4635 1.0000
50.0940 12.8129 7.4748 1.0000
50.0940 12.9725 7.4806 1.0000
50.0939 13.1324 7.4864 1.0000
50.0940 13.2925 7.4923 1.0000
50.0940 -13.3925 7.4960 1.0000
50.0940 -13.0722 7.4842 1.0000
50.0940 -12.9124 7.4784 1.0000
50.0940 -12.2758 7.4559 1.0000
50.0940 -12.1173 7.4505 1.0000
50.0940 -11.9589 7.4452 1.0000
50.0940 -11.8008 7.4399 1.0000
50.0940 -11.6429 7.4347 1.0000
50.0940 -11.3278 7.4245 1.0000
50.0940 -11.1705 7.4195 1.0000
50.0940 -10.7001 7.4050 1.0000
50.0940 -10.5436 7.4003 1.0000
50.0940 -10.0755 7.3867 1.0000
50.0940 -9.9198 7.3823 1.0000
50.0940 -9.6091 7.3737 1.0000
50.0940 -9.4540 7.3695 1.0000
50.0940 -9.2991 7.3654 1.0000
50.0940 -9.1443 7.3613 1.0000
50.0940 -8.9897 7.3574 1.0000
50.0940 -8.6810 7.3496 1.0000
50.0940 -8.3729 7.3421 1.0000
50.0940 -8.2191 7.3385 1.0000
50.0940 -8.0655 7.3349 1.0000
50.0940 -7.9120 7.3315 1.0000
50.0940 -7.6055 7.3247 1.0000
50.0939 -7.4523 7.3214 1.0000
50.0939 -7.2994 7.3181 1.0000
50.0939 -6.9939 7.3119 1.0000
50.0939 -6.8414 7.3089 1.0000
50.0939 -6.6889 7.3059 1.0000
50.0939 -6.0805 7.2948 1.0000
50.0939 -5.9286 7.2922 1.0000
50.0939 -5.4737 7.2848 1.0000
50.0939 -5.3223 7.2824 1.0000
50.0939 -5.1709 7.2802 1.0000
50.0939 -4.8685 7.2758 1.0000
50.0939 -4.5665 7.2717 1.0000
50.0939 -4.2648 7.2679 1.0000
50.0939 -4.1141 7.2661 1.0000
50.0939 -3.8128 7.2626 1.0000
50.0939 -3.6623 7.2610 1.0000
50.0939 -3.5118 7.2594 1.0000
50.0939 -3.2111 7.2565 1.0000
50.0939 -3.0608 7.2552 1.0000
50.0939 -2.6103 7.2515 1.0000
50.0940 -2.3102 7.2494 1.0000
50.0940 -2.1602 7.2484 1.0000
50.0940 -2.0102 7.2475 1.0000
50.0940 -1.8603 7.2467 1.0000
50.0940 -1.5606 7.2452 1.0000
50.0940 -1.2610 7.2440 1.0000
50.0940 -0.9614 7.2430 1.0000
50.0940 -0.8117 7.2426 1.0000
50.0940 -0.2128 7.2417 1.0000
50.0940 0.0865 7.2417 1.0000
50.0940 0.2362 7.2418 1.0000
50.0940 0.3859 7.2419 1.0000
50.0940 0.5357 7.2421 1.0000
50.0940 0.8351 7.2427 1.0000
50.0940 0.9848 7.2431 1.0000
50.0940 1.2844 7.2441 1.0000
50.0940 1.4342 7.2446 1.0000
50.0940 1.7339 7.2460 1.0000
50.0940 1.8837 7.2468 1.0000
50.0940 2.3336 7.2495 1.0000
50.0940 2.6337 7.2517 1.0000
50.0940 3.2346 7.2568 1.0000
50.0940 3.3849 7.2582 1.0000
50.0940 3.6858 7.2613 1.0000
50.0940 4.1376 7.2663 1.0000
50.0940 4.2884 7.2682 1.0000
50.0940 4.5901 7.2720 1.0000
50.0940 5.0433 7.2783 1.0000
50.0940 5.1946 7.2805 1.0000
50.0939 5.4974 7.2851 1.0000
50.0940 5.8006 7.2901 1.0000
50.0940 6.7128 7.3064 1.0000
50.0940 6.8652 7.3094 1.0000
50.0940 7.3233 7.3187 1.0000
50.0940 8.2432 7.3391 1.0000
50.0940 8.3970 7.3427 1.0000
50.0940 9.0139 7.3580 1.0000
50.0940 9.3232 7.3660 1.0000
50.0940 9.6334 7.3744 1.0000
50.0940 9.7887 7.3786 1.0000
50.0940 9.9442 7.3830 1.0000
50.0940 10.0999 7.3874 1.0000
50.0939 10.2557 7.3919 1.0000
50.0940 10.5681 7.4011 1.0000
50.0939 -1.9772 6.3849 1.0000
50.0939 -1.8273 6.3842 1.0000
50.0939 -1.5275 6.3829 1.0000
50.0939 -1.3777 6.3823 1.0000
50.0939 -1.0782 6.3814 1.0000
50.0939 -0.9284 6.3810 1.0000
50.0939 -0.7787 6.3807 1.0000
50.0939 -0.6289 6.3804 1.0000
50.0939 -0.4793 6.3802 1.0000
50.0939 -0.0302 6.3799 1.0000
50.0939 0.1195 6.3799 1.0000
50.0939 0.4189 6.3801 1.0000
50.0939 1.1676 6.3816 1.0000
50.0939 1.3174 6.3821 1.0000
50.0939 1.9168 6.3846 1.0000
50.0939 2.0667 6.3853 1.0000
50.0939 2.2167 6.3862 1.0000
50.0939 2.5167 6.3880 1.0000
50.0939 2.6668 6.3889 1.0000
50.0939 2.8170 6.3900 1.0000
50.0939 2.9671 6.3911 1.0000
50.0939 3.4181 6.3947 1.0000
50.0939 4.0201 6.4004 1.0000
50.0939 4.3216 6.4036 1.0000
50.0939 4.4725 6.4053 1.0000
50.0939 4.6234 6.4070 1.0000
50.0939 4.7743 6.4088 1.0000
50.0939 4.9255 6.4107 1.0000
50.0939 5.0767 6.4126 1.0000
50.0939 5.2279 6.4146 1.0000
50.0939 5.5308 6.4187 1.0000
50.0939 5.9858 6.4253 1.0000
50.0939 6.1377 6.4276 1.0000
50.0939 6.5940 6.4349 1.0000
50.0939 6.7463 6.4375 1.0000
50.0939 7.0514 6.4428 1.0000
50.0939 7.2041 6.4456 1.0000
50.0939 7.3570 6.4483 1.0000
50.0939 7.5100 6.4512 1.0000
50.0939 7.6631 6.4541 1.0000
50.0939 7.8164 6.4571 1.0000
50.0939 7.9698 6.4602 1.0000
50.0939 8.1233 6.4633 1.0000
50.0939 8.2770 6.4664 1.0000
50.0939 8.7391 6.4763 1.0000
50.0939 9.0479 6.4832 1.0000
50.0939 9.2025 6.4867 1.0000
50.0939 9.6675 6.4976 1.0000
50.0939 10.1342 6.5092 1.0000
50.0939 10.2901 6.5131 1.0000
50.0939 10.7590 6.5254 1.0000
50.0939 11.0726 6.5339 1.0000
50.0939 11.2297 6.5383 1.0000
50.0939 11.5446 6.5472 1.0000
50.0939 11.8603 6.5563 1.0000
50.0939 12.0185 6.5610 1.0000
50.0939 12.3356 6.5705 1.0000
50.0939 12.4945 6.5754 1.0000
50.0939 12.6536 6.5803 1.0000
50.0939 13.1324 6.5955 1.0000
50.0940 -13.3925 6.6040 1.0000
50.0940 -13.2322 6.5987 1.0000
50.0940 -13.0722 6.5936 1.0000
50.0940 -12.9125 6.5885 1.0000
50.0940 -12.7529 6.5834 1.0000
50.0940 -12.4346 6.5735 1.0000
50.0940 -12.2758 6.5687 1.0000
50.0940 -12.1172 6.5639 1.0000
50.0940 -11.9589 6.5592 1.0000
50.0940 -11.4852 6.5455 1.0000
50.0940 -11.1705 6.5366 1.0000
50.0940 -11.0135 6.5323 1.0000
50.0940 -10.7000 6.5238 1.0000
50.0940 -10.3874 6.5156 1.0000
50.0940 -10.0755 6.5077 1.0000
50.0940 -9.9199 6.5038 1.0000
50.0940 -9.1443 6.4853 1.0000
50.0940 -8.9897 6.4818 1.0000
50.0940 -8.6810 6.4750 1.0000
50.0940 -8.3729 6.4684 1.0000
50.0940 -8.2191 6.4652 1.0000
50.0940 -7.7586 6.4560 1.0000
50.0940 -7.6054 6.4530 1.0000
50.0939 -7.4523 6.4501 1.0000
50.0939 -7.1466 6.4445 1.0000
50.0939 -6.9939 6.4418 1.0000
50.0939 -6.6889 6.4365 1.0000
50.0939 -6.3845 6.4315 1.0000
50.0939 -6.0804 6.4267 1.0000
50.0939 -5.9286 6.4244 1.0000
50.0939 -5.7769 6.4222 1.0000
50.0939 -5.4737 6.4179 1.0000
50.0939 -5.0197 6.4119 1.0000
50.0939 -4.7175 6.4081 1.0000
50.0939 -4.5665 6.4064 1.0000
50.0939 -4.4156 6.4047 1.0000
50.0939 -4.1141 6.4014 1.0000
50.0939 -3.5118 6.3956 1.0000
50.0939 -3.2111 6.3930 1.0000
50.0939 -2.6103 6.3886 1.0000
50.0939 -2.4601 6.3876 1.0000
50.0939 -2.3101 6.3867 1.0000
50.0939 -2.0102 6.3850 1.0000
50.0939 -1.8603 6.3843 1.0000
50.0939 -1.5605 6.3830 1.0000
50.0939 -1.1111 6.3815 1.0000
50.0939 -0.9614 6.3811 1.0000
50.0939 -0.8116 6.3808 1.0000
50.0939 -0.5122 6.3802 1.0000
50.0939 -0.3625 6.3801 1.0000
50.0939 -0.2128 6.3800 1.0000
50.0939 -0.0631 6.3799 1.0000
50.0939 0.2363 6.3800 1.0000
50.0939 0.5357 6.3803 1.0000
50.0939 0.6854 6.3805 1.0000
50.0939 0.9848 6.3811 1.0000
50.0939 1.1346 6.3815 1.0000
50.0939 1.7339 6.3837 1.0000
50.0939 2.0337 6.3852 1.0000
50.0939 2.3336 6.3868 1.0000
50.0939 2.7839 6.3898 1.0000
50.0939 3.0843 6.3920 1.0000
50.0939 3.2346 6.3932 1.0000
50.0939 3.3850 6.3945 1.0000
50.0939 3.5354 6.3958 1.0000
50.0939 3.8364 6.3986 1.0000
50.0939 3.9870 6.4001 1.0000
50.0939 4.5901 6.4066 1.0000
50.0939 4.7411 6.4084 1.0000
50.0939 5.0434 6.4122 1.0000
50.0939 5.3460 6.4161 1.0000
50.0939 5.4974 6.4182 1.0000
50.0939 5.6489 6.4203 1.0000
50.0939 5.8006 6.4225 1.0000
50.0939 6.1043 6.4271 1.0000
50.0939 6.2562 6.4295 1.0000
50.0939 6.4083 6.4319 1.0000
50.0939 6.8653 6.4396 1.0000
50.0939 7.3233 6.4477 1.0000
50.0939 7.6294 6.4535 1.0000
50.0939 7.7826 6.4564 1.0000
50.0939 7.9360 6.4595 1.0000
50.0939 8.0895 6.4626 1.0000
50.0939 8.2432 6.4657 1.0000
50.0939 8.3970 6.4689 1.0000
50.0939 8.7051 6.4755 1.0000
50.0939 8.8594 6.4789 1.0000
50.0939 9.3233 6.4895 1.0000
50.0939 9.4782 6.4931 1.0000
50.0939 -1.5276 5.5244 1.0000
50.0939 -1.2279 5.5235 1.0000
50.0939 -1.0782 5.5231 1.0000
50.0939 -0.9284 5.5228 1.0000
50.0939 -0.3296 5.5220 1.0000
50.0939 -0.1798 5.5219 1.0000
50.0939 0.1195 5.5219 1.0000
50.0939 0.2692 5.5219 1.0000
50.0939 0.4189 5.5220 1.0000
50.0939 0.5686 5.5222 1.0000
50.0939 0.7183 5.5224 1.0000
50.0939 1.0178 5.5230 1.0000
50.0939 1.1676 5.5234 1.0000
50.0939 1.3174 5.5238 1.0000
50.0939 1.9167 5.5259 1.0000
50.0939 2.0667 5.5266 1.0000
50.0939 2.9671 5.5315 1.0000
50.0939 3.1174 5.5325 1.0000
50.0939 3.4180 5.5347 1.0000
50.0939 3.7190 5.5370 1.0000
50.0939 3.8695 5.5383 1.0000
50.0939 4.4724 5.5438 1.0000
50.0939 4.6234 5.5453 1.0000
50.0939 4.7744 5.5469 1.0000
50.0939 4.9255 5.5485 1.0000
50.0939 5.3793 5.5536 1.0000
50.0939 5.5307 5.5554 1.0000
50.0939 5.8340 5.5592 1.0000
50.0939 5.9858 5.5611 1.0000
50.0939 6.2897 5.5652 1.0000
50.0939 6.4418 5.5673 1.0000
50.0939 6.5940 5.5695 1.0000
50.0939 6.7463 5.5717 1.0000
50.0939 7.2041 5.5787 1.0000
50.0939 7.3570 5.5811 1.0000
50.0939 7.5099 5.5836 1.0000
50.0939 7.6630 5.5861 1.0000
50.0939 7.8163 5.5887 1.0000
50.0939 7.9698 5.5913 1.0000
50.0939 8.1233 5.5940 1.0000
50.0939 8.4309 5.5995 1.0000
50.0939 8.5849 5.6024 1.0000
50.0939 8.7391 5.6052 1.0000
50.0939 8.8934 5.6082 1.0000
50.0939 9.0479 5.6112 1.0000
50.0939 9.2025 5.6143 1.0000
50.0939 9.6676 5.6237 1.0000
50.0939 9.8229 5.6270 1.0000
50.0939 9.9784 5.6303 1.0000
50.0939 10.2901 5.6372 1.0000
50.0939 10.4462 5.6406 1.0000
50.0939 10.6025 5.6442 1.0000
50.0939 10.7590 5.6478 1.0000
50.0939 11.0726 5.6551 1.0000
50.0939 11.5445 5.6666 1.0000
50.0939 11.7023 5.6705 1.0000
50.0939 12.0185 5.6786 1.0000
50.0939 12.1769 5.6827 1.0000
50.0939 12.3355 5.6868 1.0000
50.0939 12.4945 5.6910 1.0000
50.0939 12.6536 5.6953 1.0000
50.0939 13.2925 5.7130 1.0000
50.0939 -13.2321 5.7113 1.0000
50.0939 -13.0722 5.7068 1.0000
50.0939 -12.9124 5.7023 1.0000
50.0940 -12.7529 5.6980 1.0000
50.0939 -12.5936 5.6937 1.0000
50.0940 -12.4346 5.6894 1.0000
50.0939 -12.1172 5.6811 1.0000
50.0940 -11.8008 5.6730 1.0000
50.0940 -11.6429 5.6690 1.0000
50.0940 -11.3278 5.6613 1.0000
50.0940 -11.0135 5.6537 1.0000
50.0940 -10.8567 5.6500 1.0000
50.0940 -10.7000 5.6464 1.0000
50.0940 -10.5436 5.6428 1.0000
50.0939 -9.9198 5.6291 1.0000
50.0940 -9.6091 5.6225 1.0000
50.0940 -9.2990 5.6162 1.0000
50.0940 -9.1443 5.6131 1.0000
50.0939 -8.9896 5.6101 1.0000
50.0939 -8.8352 5.6071 1.0000
50.0940 -8.0655 5.5930 1.0000
50.0940 -7.9120 5.5903 1.0000
50.0939 -7.4523 5.5826 1.0000
50.0939 -7.2993 5.5802 1.0000
50.0939 -7.1466 5.5778 1.0000
50.0939 -6.6889 5.5709 1.0000
50.0939 -6.0804 5.5624 1.0000
50.0939 -5.9286 5.5604 1.0000
50.0939 -5.7768 5.5584 1.0000
50.0939 -5.3222 5.5529 1.0000
50.0939 -5.1709 5.5512 1.0000
50.0939 -5.0197 5.5495 1.0000
50.0939 -4.8686 5.5479 1.0000
50.0939 -4.7175 5.5463 1.0000
50.0939 -4.5664 5.5448 1.0000
50.0939 -4.1140 5.5404 1.0000
50.0939 -3.6622 5.5366 1.0000
50.0939 -3.5118 5.5354 1.0000
50.0939 -3.3614 5.5343 1.0000
50.0939 -3.2111 5.5332 1.0000
50.0939 -3.0608 5.5322 1.0000
50.0939 -2.7604 5.5302 1.0000
50.0939 -2.6103 5.5293 1.0000
50.0939 -2.1602 5.5270 1.0000
50.0939 -1.8603 5.5257 1.0000
50.0939 -1.7104 5.5251 1.0000
50.0939 -1.1112 5.5232 1.0000
50.0939 -0.9614 5.5229 1.0000
50.0939 -0.8117 5.5226 1.0000
50.0939 -0.5122 5.5221 1.0000
50.0939 -0.2128 5.5219 1.0000
50.0939 0.0866 5.5219 1.0000
50.0939 0.3859 5.5220 1.0000
50.0939 0.6854 5.5224 1.0000
50.0939 0.8351 5.5226 1.0000
50.0939 0.9848 5.5229 1.0000
50.0939 1.4341 5.5241 1.0000
50.0939 1.7338 5.5252 1.0000
50.0939 2.0337 5.5264 1.0000
50.0939 2.1836 5.5271 1.0000
50.0939 2.9341 5.5313 1.0000
50.0939 3.0843 5.5323 1.0000
50.0939 3.6858 5.5368 1.0000
50.0939 3.8363 5.5380 1.0000
50.0939 4.1377 5.5407 1.0000
50.0939 4.2884 5.5420 1.0000
50.0939 5.0434 5.5498 1.0000
50.0939 5.4974 5.5550 1.0000
50.0939 5.6490 5.5569 1.0000
50.0939 5.8006 5.5587 1.0000
50.0939 5.9523 5.5607 1.0000
50.0939 6.1042 5.5627 1.0000
50.0939 6.5605 5.5690 1.0000
50.0939 6.8652 5.5735 1.0000
50.0939 7.0178 5.5758 1.0000
50.0939 7.6294 5.5855 1.0000
50.0939 7.9360 5.5907 1.0000
50.0939 8.2432 5.5961 1.0000
50.0939 8.5510 5.6017 1.0000
50.0939 8.7051 5.6046 1.0000
50.0939 8.8594 5.6075 1.0000
50.0939 9.0139 5.6105 1.0000
50.0939 9.3233 5.6167 1.0000
50.0939 9.4783 5.6198 1.0000
50.0939 10.4118 5.6399 1.0000
50.0939 -1.9772 4.6706 1.0000
50.0939 -1.2280 4.6684 1.0000
50.0939 -1.0782 4.6681 1.0000
50.0939 -0.9284 4.6678 1.0000
50.0939 -0.6290 4.6673 1.0000
50.0939 -0.4793 4.6672 1.0000
50.0939 0.1195 4.6670 1.0000
50.0939 0.2692 4.6670 1.0000
50.0939 0.4189 4.6671 1.0000
50.0939 0.5686 4.6673 1.0000
50.0939 0.8680 4.6677 1.0000
50.0939 1.0178 4.6679 1.0000
50.0939 1.4671 4.6690 1.0000
50.0939 1.6170 4.6694 1.0000
50.0939 2.6668 4.6736 1.0000
50.0939 2.9671 4.6752 1.0000
50.0939 3.1174 4.6760 1.0000
50.0939 3.4180 4.6778 1.0000
50.0939 3.5685 4.6788 1.0000
50.0939 3.7189 4.6798 1.0000
50.0939 4.4724 4.6855 1.0000
50.0939 4.6234 4.6868 1.0000
50.0939 4.9254 4.6895 1.0000
50.0939 5.0766 4.6909 1.0000
50.0939 5.6823 4.6969 1.0000
50.0939 5.8340 4.6985 1.0000
50.0939 6.1376 4.7019 1.0000
50.0939 6.2896 4.7036 1.0000
50.0939 6.4418 4.7054 1.0000
50.0939 6.7463 4.7091 1.0000
50.0939 6.8988 4.7110 1.0000
50.0939 7.6631 4.7213 1.0000
50.0939 7.9697 4.7257 1.0000
50.0939 8.2770 4.7303 1.0000
50.0939 8.4309 4.7326 1.0000
50.0939 8.7390 4.7375 1.0000
50.0939 8.8934 4.7400 1.0000
50.0939 9.0479 4.7425 1.0000
50.0939 9.2025 4.7451 1.0000
50.0939 9.5124 4.7504 1.0000
50.0939 9.6675 4.7531 1.0000
50.0939 9.8229 4.7559 1.0000
50.0939 9.9784 4.7587 1.0000
50.0939 10.6025 4.7704 1.0000
50.0939 11.0725 4.7796 1.0000
50.0939 11.2297 4.7828 1.0000
50.0939 11.3870 4.7860 1.0000
50.0939 11.7023 4.7926 1.0000
50.0939 12.0185 4.7994 1.0000
50.0939 12.6536 4.8136 1.0000
50.0939 12.9725 4.8209 1.0000
50.0939 13.1324 4.8247 1.0000
50.0939 13.2925 4.8285 1.0000
50.0939 -13.3924 4.8309 1.0000
50.0939 -13.2322 4.8271 1.0000
50.0939 -13.0721 4.8233 1.0000
50.0939 -12.7529 4.8158 1.0000
50.0939 -12.5936 4.8122 1.0000
50.0939 -12.1172 4.8016 1.0000
50.0939 -11.0135 4.7784 1.0000
50.0939 -10.8566 4.7753 1.0000
50.0939 -10.5436 4.7692 1.0000
50.0939 -10.3874 4.7663 1.0000
50.0939 -10.2313 4.7633 1.0000
50.0939 -10.0755 4.7604 1.0000
50.0939 -9.9198 4.7576 1.0000
50.0939 -9.7644 4.7548 1.0000
50.0939 -9.2991 4.7467 1.0000
50.0939 -9.1443 4.7441 1.0000
50.0939 -8.9896 4.7415 1.0000
50.0939 -8.8352 4.7390 1.0000
50.0939 -8.6809 4.7365 1.0000
50.0939 -8.5269 4.7341 1.0000
50.0939 -8.3729 4.7317 1.0000
50.0939 -8.2191 4.7294 1.0000
50.0939 -7.9120 4.7248 1.0000
50.0939 -7.7586 4.7226 1.0000
50.0939 -7.6054 4.7205 1.0000
50.0938 -7.2994 4.7163 1.0000
50.0938 -6.9939 4.7122 1.0000
50.0938 -6.5366 4.7065 1.0000
50.0938 -6.3845 4.7047 1.0000
50.0938 -6.2324 4.7030 1.0000
50.0938 -6.0804 4.7012 1.0000
50.0938 -5.4737 4.6948 1.0000
50.0938 -5.3222 4.6933 1.0000
50.0938 -5.0197 4.6903 1.0000
50.0938 -4.8685 4.6890 1.0000
50.0938 -4.5665 4.6863 1.0000
50.0938 -4.2648 4.6839 1.0000
50.0938 -4.1140 4.6827 1.0000
50.0938 -3.8128 4.6805 1.0000
50.0938 -3.2111 4.6766 1.0000
50.0938 -3.0608 4.6757 1.0000
50.0938 -2.7604 4.6741 1.0000
50.0938 -2.4602 4.6726 1.0000
50.0939 -2.1601 4.6713 1.0000
50.0939 -2.0102 4.6707 1.0000
50.0939 -1.8603 4.6702 1.0000
50.0939 -1.2610 4.6685 1.0000
50.0939 -1.1112 4.6681 1.0000
50.0939 -0.8117 4.6676 1.0000
50.0939 -0.6619 4.6674 1.0000
50.0939 -0.2129 4.6670 1.0000
50.0939 0.0866 4.6670 1.0000
50.0939 0.2363 4.6670 1.0000
50.0939 0.5357 4.6672 1.0000
50.0939 0.6854 4.6674 1.0000
50.0939 0.9848 4.6679 1.0000
50.0939 1.2844 4.6685 1.0000
50.0939 1.5840 4.6693 1.0000
50.0939 2.4836 4.6727 1.0000
50.0939 2.9340 4.6750 1.0000
50.0939 3.5354 4.6786 1.0000
50.0939 3.6858 4.6796 1.0000
50.0939 4.1376 4.6829 1.0000
50.0939 4.2884 4.6841 1.0000
50.0939 4.4392 4.6853 1.0000
50.0939 4.5901 4.6865 1.0000
50.0939 5.0433 4.6906 1.0000
50.0939 5.3459 4.6935 1.0000
50.0939 5.6489 4.6966 1.0000
50.0939 6.1042 4.7015 1.0000
50.0939 6.4082 4.7050 1.0000
50.0939 6.5605 4.7068 1.0000
50.0939 6.8652 4.7106 1.0000
50.0939 7.0178 4.7126 1.0000
50.0939 7.1705 4.7146 1.0000
50.0939 7.4763 4.7187 1.0000
50.0939 7.6293 4.7208 1.0000
50.0939 8.0895 4.7274 1.0000
50.0939 8.3970 4.7321 1.0000
50.0939 8.7051 4.7369 1.0000
50.0939 8.8594 4.7394 1.0000
50.0939 9.0139 4.7419 1.0000
50.0939 9.6334 4.7525 1.0000
50.0939 9.9442 4.7581 1.0000
50.0939 10.0999 4.7609 1.0000
50.0939 10.5681 4.7697 1.0000
50.0939 -1.8273 3.8173 1.0000
50.0939 -1.6774 3.8169 1.0000
50.0939 -1.2279 3.8159 1.0000
50.0939 -1.0781 3.8157 1.0000
50.0939 -0.7786 3.8153 1.0000
50.0939 -0.6289 3.8151 1.0000
50.0939 -0.4793 3.8150 1.0000
50.0939 0.2693 3.8148 1.0000
50.0939 0.5686 3.8150 1.0000
50.0939 0.7184 3.8152 1.0000
50.0939 1.0179 3.8156 1.0000
50.0939 1.4672 3.8164 1.0000
50.0939 1.9168 3.8176 1.0000
50.0939 2.0667 3.8180 1.0000
50.0939 2.3667 3.8191 1.0000
50.0939 2.5168 3.8196 1.0000
50.0939 2.6668 3.8202 1.0000
50.0939 2.9672 3.8215 1.0000
50.0939 3.4181 3.8237 1.0000
50.0939 3.5685 3.8245 1.0000
50.0939 4.3216 3.8290 1.0000
50.0939 4.4724 3.8300 1.0000
50.0939 4.7744 3.8321 1.0000
50.0939 4.9255 3.8332 1.0000
50.0939 5.2279 3.8355 1.0000
50.0939 5.3793 3.8367 1.0000
50.0939 5.6823 3.8393 1.0000
50.0939 5.9858 3.8419 1.0000
50.0939 6.2896 3.8447 1.0000
50.0939 6.5940 3.8477 1.0000
50.0939 6.7464 3.8492 1.0000
50.0939 6.8988 3.8508 1.0000
50.0939 7.5100 3.8574 1.0000
50.0939 7.6631 3.8592 1.0000
50.0939 8.4309 3.8684 1.0000
50.0939 8.7391 3.8724 1.0000
50.0939 9.0479 3.8765 1.0000
50.0939 9.3574 3.8808 1.0000
50.0939 9.5124 3.8830 1.0000
50.0939 9.6676 3.8852 1.0000
50.0939 9.8229 3.8875 1.0000
50.0939 9.9785 3.8897 1.0000
50.0939 10.6025 3.8993 1.0000
50.0939 10.9157 3.9043 1.0000
50.0939 11.0726 3.9069 1.0000
50.0939 11.2297 3.9095 1.0000
50.0939 11.5446 3.9148 1.0000
50.0939 12.0185 3.9231 1.0000
50.0939 12.1769 3.9259 1.0000
50.0939 12.6536 3.9346 1.0000
50.0939 12.9725 3.9406 1.0000
50.0939 13.1324 3.9437 1.0000
50.0939 -13.0721 3.9425 1.0000
50.0939 -12.9124 3.9395 1.0000
50.0939 -12.7529 3.9365 1.0000
50.0939 -12.5936 3.9335 1.0000
50.0939 -12.2758 3.9277 1.0000
50.0939 -11.9589 3.9220 1.0000
50.0939 -11.8007 3.9192 1.0000
50.0939 -11.6429 3.9165 1.0000
50.0939 -11.4852 3.9138 1.0000
50.0939 -11.0135 3.9059 1.0000
50.0939 -10.8566 3.9034 1.0000
50.0939 -10.7000 3.9009 1.0000
50.0939 -10.5436 3.8984 1.0000
50.0939 -10.2314 3.8936 1.0000
50.0939 -9.7643 3.8866 1.0000
50.0939 -9.6091 3.8844 1.0000
50.0939 -9.1443 3.8778 1.0000
50.0939 -8.9896 3.8757 1.0000
50.0939 -8.8352 3.8737 1.0000
50.0939 -8.6810 3.8717 1.0000
50.0939 -8.5269 3.8697 1.0000
50.0939 -8.3729 3.8677 1.0000
50.0939 -8.0654 3.8639 1.0000
50.0939 -7.9120 3.8621 1.0000
50.0939 -7.7586 3.8603 1.0000
50.0938 -6.6889 3.8487 1.0000
50.0938 -6.5366 3.8471 1.0000
50.0938 -6.2324 3.8442 1.0000
50.0938 -5.7768 3.8401 1.0000
50.0938 -5.6252 3.8388 1.0000
50.0938 -5.4737 3.8375 1.0000
50.0938 -5.3222 3.8363 1.0000
50.0938 -5.0197 3.8339 1.0000
50.0938 -4.8685 3.8328 1.0000
50.0938 -4.5665 3.8306 1.0000
50.0938 -4.1140 3.8276 1.0000
50.0938 -3.9634 3.8267 1.0000
50.0938 -3.8128 3.8258 1.0000
50.0938 -3.5118 3.8242 1.0000
50.0938 -3.2111 3.8226 1.0000
50.0938 -2.9105 3.8212 1.0000
50.0938 -2.7604 3.8206 1.0000
50.0938 -2.4602 3.8194 1.0000
50.0939 -2.3101 3.8188 1.0000
50.0939 -2.1601 3.8183 1.0000
50.0939 -1.4107 3.8163 1.0000
50.0939 -1.1111 3.8157 1.0000
50.0939 -0.9614 3.8155 1.0000
50.0939 -0.8116 3.8153 1.0000
50.0939 -0.6619 3.8151 1.0000
50.0939 -0.5122 3.8150 1.0000
50.0939 -0.3625 3.8149 1.0000
50.0939 -0.2128 3.8148 1.0000
50.0939 -0.0631 3.8148 1.0000
50.0939 0.0866 3.8148 1.0000
50.0939 0.2363 3.8148 1.0000
50.0939 0.8351 3.8153 1.0000
50.0939 1.1346 3.8158 1.0000
50.0939 1.5840 3.8167 1.0000
50.0939 1.7339 3.8171 1.0000
50.0939 2.4837 3.8195 1.0000
50.0939 3.0843 3.8220 1.0000
50.0939 3.2346 3.8227 1.0000
50.0939 3.5354 3.8243 1.0000
50.0939 3.8364 3.8260 1.0000
50.0939 3.9870 3.8269 1.0000
50.0939 4.2884 3.8287 1.0000
50.0939 4.8922 3.8329 1.0000
50.0939 5.0433 3.8341 1.0000
50.0939 5.3460 3.8365 1.0000
50.0939 5.4974 3.8377 1.0000
50.0939 6.1043 3.8430 1.0000
50.0939 6.2562 3.8444 1.0000
50.0939 6.4082 3.8459 1.0000
50.0939 6.5605 3.8474 1.0000
50.0939 7.0178 3.8521 1.0000
50.0939 7.1705 3.8537 1.0000
50.0939 7.4763 3.8570 1.0000
50.0939 7.6294 3.8588 1.0000
50.0939 7.7826 3.8606 1.0000
50.0939 7.9360 3.8624 1.0000
50.0939 8.0895 3.8642 1.0000
50.0939 8.2432 3.8661 1.0000
50.0939 8.3970 3.8680 1.0000
50.0939 8.5510 3.8700 1.0000
50.0939 8.8594 3.8740 1.0000
50.0939 9.4782 3.8825 1.0000
50.0939 9.6334 3.8847 1.0000
50.0939 -1.8273 2.9668 1.0000
50.0939 -1.6774 2.9665 1.0000
50.0939 -1.5276 2.9662 1.0000
50.0939 -0.9284 2.9653 1.0000
50.0939 -0.6290 2.9650 1.0000
50.0939 -0.1798 2.9648 1.0000
50.0939 -0.0302 2.9648 1.0000
50.0939 0.2692 2.9648 1.0000
50.0939 0.5686 2.9650 1.0000
50.0939 0.7183 2.9651 1.0000
50.0939 0.8680 2.9652 1.0000
50.0939 1.0178 2.9654 1.0000
50.0938 1.1676 2.9656 1.0000
50.0939 1.3173 2.9658 1.0000
50.0939 1.4671 2.9661 1.0000
50.0939 2.0666 2.9673 1.0000
50.0939 3.1174 2.9705 1.0000
50.0939 3.5684 2.9723 1.0000
50.0939 3.7189 2.9730 1.0000
50.0939 4.0201 2.9743 1.0000
50.0939 4.1708 2.9751 1.0000
50.0939 4.9254 2.9791 1.0000
50.0939 5.0766 2.9800 1.0000
50.0939 5.6823 2.9838 1.0000
50.0939 5.8340 2.9848 1.0000
50.0939 5.9858 2.9859 1.0000
50.0939 6.2896 2.9881 1.0000
50.0939 6.5940 2.9904 1.0000
50.0939 7.2041 2.9953 1.0000
50.0939 7.6631 2.9993 1.0000
50.0939 7.8163 3.0007 1.0000
50.0939 8.5849 3.0080 1.0000
50.0939 8.8934 3.0112 1.0000
50.0939 9.0479 3.0128 1.0000
50.0939 9.2025 3.0144 1.0000
50.0939 9.3573 3.0161 1.0000
50.0939 9.5123 3.0178 1.0000
50.0939 9.6676 3.0195 1.0000
50.0939 9.8229 3.0213 1.0000
50.0939 9.9784 3.0231 1.0000
50.0939 10.1341 3.0249 1.0000
50.0939 10.2901 3.0267 1.0000
50.0939 10.4462 3.0286 1.0000
50.0939 10.7590 3.0324 1.0000
50.0939 11.3870 3.0404 1.0000
50.0939 12.1769 3.0511 1.0000
50.0939 12.6536 3.0579 1.0000
50.0939 12.9725 3.0626 1.0000
50.0939 13.1324 3.0650 1.0000
50.0939 -12.7529 3.0594 1.0000
50.0939 -12.4346 3.0548 1.0000
50.0939 -11.9589 3.0481 1.0000
50.0939 -11.8008 3.0460 1.0000
50.0939 -11.4852 3.0417 1.0000
50.0939 -11.1705 3.0376 1.0000
50.0939 -10.7000 3.0317 1.0000
50.0939 -10.3874 3.0279 1.0000
50.0939 -9.7643 3.0206 1.0000
50.0939 -9.2991 3.0154 1.0000
50.0939 -9.1443 3.0138 1.0000
50.0939 -8.8352 3.0106 1.0000
50.0939 -8.6810 3.0090 1.0000
50.0938 -7.1465 2.9948 1.0000
50.0938 -6.5366 2.9899 1.0000
50.0938 -5.9286 2.9855 1.0000
50.0938 -5.6252 2.9834 1.0000
50.0938 -5.4737 2.9824 1.0000
50.0938 -5.3222 2.9815 1.0000
50.0938 -4.7175 2.9779 1.0000
50.0938 -4.4156 2.9763 1.0000
50.0938 -3.9634 2.9741 1.0000
50.0938 -3.6622 2.9727 1.0000
50.0938 -3.5118 2.9721 1.0000
50.0938 -2.7604 2.9693 1.0000
50.0938 -2.3101 2.9679 1.0000
50.0939 -2.0102 2.9672 1.0000
50.0939 -1.8603 2.9668 1.0000
50.0939 -1.7104 2.9665 1.0000
50.0939 -1.5605 2.9662 1.0000
50.0939 -1.2609 2.9657 1.0000
50.0939 -0.8117 2.9652 1.0000
50.0939 -0.3625 2.9649 1.0000
50.0939 -0.2128 2.9648 1.0000
50.0939 -0.0631 2.9648 1.0000
50.0939 0.0866 2.9648 1.0000
50.0939 0.3859 2.9649 1.0000
50.0939 0.8351 2.9652 1.0000
50.0939 0.9848 2.9654 1.0000
50.0939 1.1346 2.9656 1.0000
50.0939 1.5840 2.9663 1.0000
50.0939 2.4837 2.9684 1.0000
50.0939 2.6337 2.9689 1.0000
50.0939 2.9341 2.9699 1.0000
50.0939 3.0843 2.9704 1.0000
50.0939 3.8363 2.9735 1.0000
50.0939 4.1377 2.9749 1.0000
50.0939 4.5901 2.9772 1.0000
50.0939 4.7411 2.9780 1.0000
50.0939 4.8922 2.9789 1.0000
50.0939 5.0434 2.9798 1.0000
50.0939 5.3459 2.9816 1.0000
50.0939 5.4974 2.9826 1.0000
50.0939 5.6489 2.9836 1.0000
50.0939 5.8006 2.9846 1.0000
50.0939 6.1042 2.9867 1.0000
50.0939 6.2562 2.9878 1.0000
50.0939 6.5605 2.9901 1.0000
50.0939 6.8652 2.9925 1.0000
50.0939 7.3233 2.9963 1.0000
50.0939 7.4762 2.9976 1.0000
50.0939 7.6294 2.9990 1.0000
50.0939 7.7826 3.0004 1.0000
50.0939 8.0895 3.0032 1.0000
50.0939 8.3970 3.0062 1.0000
50.0939 8.7051 3.0092 1.0000
50.0939 8.8594 3.0108 1.0000
50.0939 9.1685 3.0140 1.0000
50.0939 9.6334 3.0191 1.0000
50.0939 10.0998 3.0245 1.0000
50.0939 10.4118 3.0282 1.0000
50.0938 -1.8273 2.1179 1.0000
50.0938 -1.6774 2.1177 1.0000
50.0938 -1.3778 2.1173 1.0000
50.0938 -1.0782 2.1170 1.0000
50.0938 -0.4793 2.1166 1.0000
50.0938 -0.3296 2.1166 1.0000
50.0938 -0.1799 2.1165 1.0000
50.0938 -0.0302 2.1165 1.0000
50.0938 0.2692 2.1165 1.0000
50.0938 0.5686 2.1166 1.0000
50.0938 1.0178 2.1169 1.0000
50.0938 1.1676 2.1171 1.0000
50.0938 1.4671 2.1174 1.0000
50.0938 1.7668 2.1178 1.0000
50.0938 2.0667 2.1183 1.0000
50.0938 2.2167 2.1186 1.0000
50.0938 2.3666 2.1189 1.0000
50.0938 2.6668 2.1195 1.0000
50.0938 2.8170 2.1199 1.0000
50.0938 2.9671 2.1202 1.0000
50.0938 3.2677 2.1210 1.0000
50.0938 3.7189 2.1223 1.0000
50.0938 4.1708 2.1238 1.0000
50.0938 4.3216 2.1244 1.0000
50.0938 4.6233 2.1255 1.0000
50.0938 4.7744 2.1261 1.0000
50.0938 4.9255 2.1267 1.0000
50.0938 5.0766 2.1273 1.0000
50.0938 5.2279 2.1280 1.0000
50.0938 5.8340 2.1308 1.0000
50.0938 5.9857 2.1316 1.0000
50.0938 6.2896 2.1331 1.0000
50.0938 6.4418 2.1339 1.0000
50.0938 6.5939 2.1348 1.0000
50.0938 6.7463 2.1356 1.0000
50.0938 6.8988 2.1365 1.0000
50.0938 7.2041 2.1383 1.0000
50.0938 7.3570 2.1392 1.0000
50.0938 7.6631 2.1411 1.0000
50.0938 7.9698 2.1431 1.0000
50.0938 8.2770 2.1452 1.0000
50.0938 8.5849 2.1474 1.0000
50.0938 8.8934 2.1496 1.0000
50.0938 9.2025 2.1519 1.0000
50.0938 9.8229 2.1568 1.0000
50.0938 9.9784 2.1581 1.0000
50.0938 10.1342 2.1594 1.0000
50.0938 10.2901 2.1607 1.0000
50.0938 10.4462 2.1620 1.0000
50.0938 10.6025 2.1634 1.0000
50.0938 10.9157 2.1662 1.0000
50.0938 11.0725 2.1676 1.0000
50.0938 11.2296 2.1690 1.0000
50.0938 11.3870 2.1705 1.0000
50.0938 11.7023 2.1735 1.0000
50.0938 12.0185 2.1766 1.0000
50.0938 12.1769 2.1781 1.0000
50.0938 12.3355 2.1797 1.0000
50.0938 12.6536 2.1830 1.0000
50.0938 12.9725 2.1863 1.0000
50.0939 -13.2321 2.1891 1.0000
50.0939 -13.0721 2.1874 1.0000
50.0939 -12.4345 2.1807 1.0000
50.0939 -12.2758 2.1791 1.0000
50.0939 -12.1172 2.1775 1.0000
50.0939 -11.6429 2.1729 1.0000
50.0939 -11.4852 2.1714 1.0000
50.0939 -11.0135 2.1671 1.0000
50.0939 -10.8566 2.1656 1.0000
50.0939 -10.7000 2.1643 1.0000
50.0939 -10.5436 2.1629 1.0000
50.0939 -10.3874 2.1615 1.0000
50.0939 -10.2313 2.1602 1.0000
50.0939 -9.7644 2.1563 1.0000
50.0939 -9.4539 2.1539 1.0000
50.0939 -9.2990 2.1527 1.0000
50.0939 -8.9897 2.1503 1.0000
50.0939 -8.8352 2.1492 1.0000
50.0939 -8.6809 2.1481 1.0000
50.0939 -8.5268 2.1469 1.0000
50.0939 -8.2191 2.1448 1.0000
50.0939 -8.0655 2.1438 1.0000
50.0939 -7.7586 2.1417 1.0000
50.0938 -7.2994 2.1388 1.0000
50.0938 -6.9939 2.1370 1.0000
50.0938 -6.6889 2.1353 1.0000
50.0938 -6.3845 2.1336 1.0000
50.0938 -6.2324 2.1328 1.0000
50.0938 -5.9286 2.1313 1.0000
50.0938 -5.7769 2.1305 1.0000
50.0938 -5.6252 2.1298 1.0000
50.0938 -5.4737 2.1291 1.0000
50.0938 -5.3222 2.1284 1.0000
50.0938 -5.1709 2.1277 1.0000
50.0938 -4.1140 2.1236 1.0000
50.0938 -3.8127 2.1226 1.0000
50.0938 -3.2110 2.1208 1.0000
50.0938 -3.0608 2.1204 1.0000
50.0938 -2.6102 2.1194 1.0000
50.0938 -1.5605 2.1175 1.0000
50.0938 -1.2609 2.1172 1.0000
50.0938 -1.1111 2.1170 1.0000
50.0938 -0.9614 2.1169 1.0000
50.0938 -0.6619 2.1167 1.0000
50.0938 -0.5122 2.1166 1.0000
50.0938 -0.3625 2.1166 1.0000
50.0938 -0.0631 2.1165 1.0000
50.0938 0.0866 2.1165 1.0000
50.0938 0.2363 2.1165 1.0000
50.0938 0.5357 2.1166 1.0000
50.0938 0.6854 2.1167 1.0000
50.0938 0.8351 2.1168 1.0000
50.0938 1.1346 2.1170 1.0000
50.0938 1.2844 2.1172 1.0000
50.0938 1.8838 2.1180 1.0000
50.0938 2.1836 2.1185 1.0000
50.0938 2.3336 2.1188 1.0000
50.0938 3.0843 2.1205 1.0000
50.0938 3.2346 2.1209 1.0000
50.0938 3.3850 2.1213 1.0000
50.0938 3.5354 2.1218 1.0000
50.0938 3.6858 2.1222 1.0000
50.0938 4.2884 2.1242 1.0000
50.0938 4.4392 2.1248 1.0000
50.0938 4.5901 2.1254 1.0000
50.0938 4.7411 2.1260 1.0000
50.0938 4.8922 2.1266 1.0000
50.0938 5.0433 2.1272 1.0000
50.0938 5.1946 2.1279 1.0000
50.0938 5.3460 2.1285 1.0000
50.0938 5.6489 2.1299 1.0000
50.0938 6.1042 2.1322 1.0000
50.0938 6.4082 2.1337 1.0000
50.0938 6.7128 2.1354 1.0000
50.0938 6.8652 2.1363 1.0000
50.0938 7.0178 2.1372 1.0000
50.0938 7.1705 2.1381 1.0000
50.0938 7.4763 2.1399 1.0000
50.0938 7.7826 2.1419 1.0000
50.0938 8.2432 2.1450 1.0000
50.0938 8.3970 2.1460 1.0000
50.0938 8.5510 2.1471 1.0000
50.0938 8.8594 2.1494 1.0000
50.0938 9.0139 2.1505 1.0000
50.0938 9.1685 2.1517 1.0000
50.0938 10.5681 2.1631 1.0000
45.0289 -1.3731 1.1416 1.0000
45.0298 -1.2384 1.1415 1.0000
45.0305 -0.9692 1.1414 1.0000
45.0349 -0.7001 1.1414 1.0000
45.0372 -0.5655 1.1414 1.0000
45.0396 -0.4309 1.1414 1.0000
45.0420 -0.2963 1.1414 1.0000
45.0443 -0.1617 1.1415 1.0000
45.0490 0.1075 1.1416 1.0000
45.0529 0.3767 1.1417 1.0000
45.0536 0.5114 1.1418 1.0000
45.0543 0.6461 1.1418 1.0000
45.2414 1.0545 1.1468 1.0000
45.2416 1.1898 1.1469 1.0000
45.2420 1.3251 1.1470 1.0000
45.2418 1.4604 1.1471 1.0000
45.2454 1.5959 1.1473 1.0000
45.2530 1.8669 1.1477 1.0000
45.2881 2.2752 1.1491 1.0000
50.0939 2.9671 1.2716 1.0000
50.0939 3.2677 1.2721 1.0000
50.0938 3.5685 1.2726 1.0000
50.0938 3.7189 1.2729 1.0000
50.0938 4.3216 1.2741 1.0000
50.0938 4.6234 1.2748 1.0000
50.0938 4.7743 1.2752 1.0000
50.0938 4.9255 1.2755 1.0000
50.0938 5.0766 1.2759 1.0000
50.0938 5.2279 1.2763 1.0000
50.0938 5.5307 1.2771 1.0000
50.0938 5.6823 1.2776 1.0000
50.0938 5.8340 1.2780 1.0000
50.0938 6.1377 1.2789 1.0000
50.0938 6.4418 1.2799 1.0000
50.0938 6.5940 1.2804 1.0000
50.0938 6.8988 1.2814 1.0000
50.0938 7.0514 1.2819 1.0000
50.0938 7.3570 1.2830 1.0000
50.0938 8.1233 1.2860 1.0000
50.0938 8.4309 1.2873 1.0000
50.0938 8.8934 1.2893 1.0000
50.0938 9.0479 1.2900 1.0000
50.0938 9.2025 1.2907 1.0000
50.0938 9.6675 1.2928 1.0000
50.0938 9.8229 1.2936 1.0000
50.0938 9.9785 1.2944 1.0000
50.0938 10.1342 1.2951 1.0000
50.0938 10.6025 1.2975 1.0000
50.0938 10.9157 1.2992 1.0000
50.0938 11.0726 1.3001 1.0000
50.0938 11.2297 1.3009 1.0000
50.0938 11.3870 1.3018 1.0000
50.0938 11.7023 1.3036 1.0000
50.0938 11.8603 1.3045 1.0000
50.0938 12.3355 1.3073 1.0000
50.0938 12.8129 1.3103 1.0000
50.0938 13.1324 1.3123 1.0000
50.0938 -13.3924 1.3140 1.0000
50.0939 -13.2321 1.3130 1.0000
50.0939 -12.5936 1.3089 1.0000
50.0938 -12.4346 1.3079 1.0000
50.0939 -11.9589 1.3051 1.0000
50.0939 -11.4852 1.3024 1.0000
50.0938 -11.0135 1.2997 1.0000
50.0938 -10.8566 1.2989 1.0000
50.0939 -10.3874 1.2964 1.0000
50.0938 -9.9198 1.2941 1.0000
50.0939 -9.6091 1.2926 1.0000
50.0939 -8.9897 1.2897 1.0000
50.0938 -8.8352 1.2890 1.0000
50.0938 -7.6054 1.2840 1.0000
50.0938 -7.4523 1.2834 1.0000
50.0938 -6.8413 1.2812 1.0000
50.0938 -6.5366 1.2802 1.0000
50.0938 -6.3845 1.2797 1.0000
50.0938 -6.0804 1.2787 1.0000
50.0938 -5.9286 1.2783 1.0000
50.0938 -5.6252 1.2774 1.0000
50.0938 -5.0197 1.2758 1.0000
50.0938 -4.8686 1.2754 1.0000
50.0938 -4.7175 1.2750 1.0000
50.0938 -4.2648 1.2740 1.0000
50.0938 -4.1140 1.2737 1.0000
50.0938 -3.6622 1.2728 1.0000
50.0938 -3.5118 1.2725 1.0000
50.0938 -3.3614 1.2723 1.0000
50.0938 -3.2111 1.2720 1.0000
50.0938 -2.7604 1.2713 1.0000
45.0153 -2.2108 1.1421 1.0000
45.0222 -1.8067 1.1418 1.0000
45.0269 -1.5374 1.1417 1.0000
45.0286 -1.4028 1.1416 1.0000
45.0289 -1.1334 1.1414 1.0000
45.0320 -0.8642 1.1414 1.0000
45.0344 -0.7297 1.1414 1.0000
45.0438 -0.1914 1.1415 1.0000
45.0462 -0.0567 1.1415 1.0000
45.0485 0.0779 1.1416 1.0000
45.0534 0.4818 1.1418 1.0000
45.2409 1.4305 1.1470 1.0000
45.2445 1.5660 1.1472 1.0000
45.2486 1.7016 1.1474 1.0000
45.2523 1.8371 1.1477 1.0000
45.2548 1.9727 1.1479 1.0000
45.2848 2.2452 1.1490 1.0000
45.3062 2.5178 1.1499 1.0000
50.0938 2.9341 1.2716 1.0000
50.0939 3.2346 1.2721 1.0000
50.0938 4.2884 1.2741 1.0000
50.0938 4.4393 1.2744 1.0000
50.0938 4.5901 1.2747 1.0000
50.0938 4.7411 1.2751 1.0000
50.0938 5.1946 1.2762 1.0000
50.0938 5.8006 1.2779 1.0000
50.0938 6.1043 1.2788 1.0000
50.0938 6.2562 1.2793 1.0000
50.0938 6.4083 1.2798 1.0000
50.0938 6.7128 1.2808 1.0000
50.0938 7.0178 1.2818 1.0000
50.0938 7.1705 1.2824 1.0000
50.0938 7.3233 1.2829 1.0000
50.0938 7.4763 1.2835 1.0000
50.0938 7.7826 1.2846 1.0000
50.0938 8.0895 1.2859 1.0000
50.0938 8.3970 1.2871 1.0000
50.0938 8.5510 1.2878 1.0000
50.0938 8.7051 1.2884 1.0000
50.0938 9.4782 1.2919 1.0000
50.0938 9.9442 1.2942 1.0000
50.0938 10.2557 1.2957 1.0000
50.0938 10.4118 1.2965 1.0000
50.0938 10.5681 1.2974 1.0000
44.9758 -1.6406 0.3801 1.0000
44.9801 -1.5062 0.3801 1.0000
44.9210 -1.3698 0.3796 1.0000
44.8394 -1.2332 0.3788 1.0000
44.9289 -1.1013 0.3796 1.0000
44.9970 -0.9684 0.3801 1.0000
45.0055 -0.6995 0.3801 1.0000
45.0221 -0.1616 0.3802 1.0000
45.0387 0.3766 0.3804 1.0000
45.0429 0.5113 0.3804 1.0000
45.2014 0.9184 0.3818 1.0000
45.1950 1.1886 0.3818 1.0000
45.0851 1.3205 0.3809 1.0000
45.0633 1.5895 0.3808 1.0000
45.1944 1.7293 0.3820 1.0000
45.1980 1.8647 0.3820 1.0000
45.2152 2.2716 0.3823 1.0000
45.2275 2.5433 0.3826 1.0000
50.0938 2.9671 0.4238 1.0000
50.0938 3.1174 0.4239 1.0000
50.0938 3.4180 0.4240 1.0000
50.0938 3.8695 0.4243 1.0000
50.0938 4.0201 0.4244 1.0000
50.0938 4.4724 0.4247 1.0000
50.0938 4.6234 0.4249 1.0000
50.0938 5.0766 0.4252 1.0000
50.0938 5.3793 0.4255 1.0000
50.0938 5.9858 0.4261 1.0000
50.0938 6.2896 0.4264 1.0000
50.0938 6.4418 0.4265 1.0000
50.0938 6.8988 0.4271 1.0000
50.0938 7.0514 0.4272 1.0000
50.0938 7.5100 0.4278 1.0000
50.0938 7.6630 0.4280 1.0000
50.0938 7.9698 0.4284 1.0000
50.0938 8.2770 0.4288 1.0000
50.0938 8.5848 0.4292 1.0000
50.0938 8.7391 0.4295 1.0000
50.0938 9.2025 0.4301 1.0000
50.0938 9.3573 0.4304 1.0000
50.0938 9.5124 0.4306 1.0000
50.0938 9.6675 0.4309 1.0000
50.0938 9.8229 0.4311 1.0000
50.0938 9.9784 0.4314 1.0000
50.0938 10.4462 0.4322 1.0000
50.0938 10.6025 0.4324 1.0000
50.0938 10.7590 0.4327 1.0000
50.0938 10.9157 0.4330 1.0000
50.0938 11.2297 0.4336 1.0000
50.0938 11.3870 0.4338 1.0000
50.0938 11.7023 0.4345 1.0000
50.0938 11.8603 0.4347 1.0000
50.0938 12.0185 0.4351 1.0000
50.0938 12.4945 0.4360 1.0000
50.0938 12.9725 0.4370 1.0000
50.0938 13.1324 0.4374 1.0000
50.0938 13.2925 0.4377 1.0000
50.0939 -13.0721 0.4372 1.0000
50.0939 -12.9124 0.4369 1.0000
50.0938 -12.5936 0.4362 1.0000
50.0938 -12.4345 0.4359 1.0000
50.0939 -12.2757 0.4356 1.0000
50.0939 -11.8007 0.4346 1.0000
50.0938 -11.1704 0.4335 1.0000
50.0939 -10.8566 0.4329 1.0000
50.0938 -10.3873 0.4321 1.0000
50.0939 -10.2313 0.4318 1.0000
50.0938 -9.9198 0.4313 1.0000
50.0939 -9.6090 0.4308 1.0000
50.0938 -9.4539 0.4305 1.0000
50.0939 -9.1443 0.4301 1.0000
50.0939 -8.8352 0.4296 1.0000
50.0938 -8.6809 0.4294 1.0000
50.0938 -8.3729 0.4289 1.0000
50.0939 -8.2191 0.4287 1.0000
50.0939 -7.9119 0.4283 1.0000
50.0939 -7.6054 0.4279 1.0000
50.0938 -7.2994 0.4275 1.0000
50.0938 -7.1466 0.4273 1.0000
50.0938 -6.9939 0.4272 1.0000
50.0938 -6.6889 0.4268 1.0000
50.0938 -6.5366 0.4266 1.0000
50.0938 -6.2324 0.4263 1.0000
50.0938 -6.0804 0.4262 1.0000
50.0938 -5.4737 0.4256 1.0000
50.0938 -5.3223 0.4254 1.0000
50.0938 -5.0197 0.4252 1.0000
50.0938 -4.8685 0.4251 1.0000
50.0938 -4.7175 0.4249 1.0000
50.0938 -4.5665 0.4248 1.0000
50.0938 -4.2648 0.4246 1.0000
50.0938 -4.1141 0.4245 1.0000
50.0938 -3.9634 0.4244 1.0000
50.0938 -3.8128 0.4243 1.0000
50.0938 -3.6622 0.4242 1.0000
50.0938 -3.5118 0.4241 1.0000
50.0938 -3.3614 0.4240 1.0000
50.0938 -3.2110 0.4239 1.0000
50.0938 -3.0608 0.4238 1.0000
50.0938 -2.7604 0.4237 1.0000
44.9506 -2.3423 0.3801 1.0000
44.9603 -2.0734 0.3801 1.0000
44.9651 -1.9390 0.3801 1.0000
44.9699 -1.8046 0.3801 1.0000
44.9748 -1.6702 0.3801 1.0000
44.8509 -1.2631 0.3789 1.0000
44.8908 -1.1300 0.3792 1.0000
45.0170 -0.3258 0.3802 1.0000
45.0295 0.0779 0.3803 1.0000
45.0378 0.3470 0.3804 1.0000
45.0420 0.4817 0.3804 1.0000
45.0480 0.7510 0.3805 1.0000
45.0875 1.2909 0.3809 1.0000
45.1973 1.8349 0.3820 1.0000
45.2074 2.1060 0.3822 1.0000
45.2137 2.2418 0.3823 1.0000
45.2201 2.3775 0.3824 1.0000
50.0938 3.0843 0.4239 1.0000
50.0938 3.6859 0.4242 1.0000
50.0938 3.8363 0.4243 1.0000
50.0938 3.9870 0.4244 1.0000
50.0938 4.1377 0.4245 1.0000
50.0938 4.4392 0.4247 1.0000
50.0938 4.7411 0.4249 1.0000
50.0938 5.8006 0.4259 1.0000
50.0938 6.1042 0.4262 1.0000
50.0938 6.5605 0.4267 1.0000
50.0938 7.3233 0.4276 1.0000
50.0938 7.6294 0.4279 1.0000
50.0938 7.7826 0.4281 1.0000
50.0938 7.9360 0.4283 1.0000
50.0938 8.0895 0.4285 1.0000
50.0938 8.2432 0.4288 1.0000
50.0938 8.5509 0.4292 1.0000
50.0938 9.4782 0.4306 1.0000
50.0938 9.6334 0.4308 1.0000
50.0938 9.7887 0.4311 1.0000
50.0938 10.0998 0.4316 1.0000
50.0938 10.4118 0.4321 1.0000
50.0938 -1.8273 -0.4233 1.0000
44.8262 -1.5010 -0.3788 1.0000
44.8297 -1.3670 -0.3788 1.0000
44.8276 -0.9648 -0.3787 1.0000
50.0938 -0.6289 -0.4231 1.0000
50.0938 -0.3296 -0.4231 1.0000
50.0938 -0.0301 -0.4231 1.0000
50.0938 0.1196 -0.4231 1.0000
50.0938 0.2692 -0.4231 1.0000
50.0938 0.5686 -0.4231 1.0000
50.0938 0.7184 -0.4231 1.0000
44.9657 1.0481 -0.3799 1.0000
44.9696 1.1826 -0.3799 1.0000
44.9730 1.3172 -0.3800 1.0000
44.9748 1.4518 -0.3800 1.0000
44.9733 1.5863 -0.3801 1.0000
44.9699 1.7207 -0.3801 1.0000
44.9662 1.8552 -0.3801 1.0000
50.0938 2.6668 -0.4237 1.0000
50.0938 2.8170 -0.4237 1.0000
50.0938 3.1174 -0.4239 1.0000
50.0938 3.2677 -0.4240 1.0000
