ply
format ascii 1.0
element vertex 1613
property float32 x
property float32 y
property float32 z
property float32 I
end_header
50.0939 -2.7989 9.8698 1.0000
50.0939 -2.6486 9.8682 1.0000
50.0939 -2.4982 9.8666 1.0000
50.0940 -1.8973 9.8615 1.0000
50.0940 -1.7471 9.8604 1.0000
50.0940 -1.5970 9.8594 1.0000
50.0940 -1.2969 9.8577 1.0000
50.0940 -1.1469 9.8570 1.0000
50.0940 -0.8469 9.8558 1.0000
50.0940 -0.6969 9.8554 1.0000
50.0940 -0.5470 9.8550 1.0000
50.0940 -0.3970 9.8547 1.0000
50.0940 -0.0971 9.8544 1.0000
50.0940 0.2027 9.8545 1.0000
50.0940 0.3527 9.8547 1.0000
50.0940 0.5026 9.8549 1.0000
50.0940 0.6526 9.8552 1.0000
50.0940 0.9525 9.8562 1.0000
50.0940 1.1026 9.8568 1.0000
50.0940 2.0030 9.8623 1.0000
50.0940 2.3035 9.8648 1.0000
50.0940 2.6041 9.8677 1.0000
50.0940 2.7545 9.8693 1.0000
50.0940 2.9048 9.8710 1.0000
50.0940 3.3564 9.8765 1.0000
50.0940 3.5071 9.8785 1.0000
50.0940 3.6577 9.8806 1.0000
50.0940 4.1103 9.8875 1.0000
50.0940 4.2613 9.8900 1.0000
50.0940 0.0334 8.9784 1.0000
50.0940 0.1834 8.9784 1.0000
50.0940 0.3333 8.9786 1.0000
50.0940 0.4832 8.9788 1.0000
50.0940 0.7832 8.9795 1.0000
50.0940 0.9332 8.9799 1.0000
50.0940 1.5332 8.9826 1.0000
50.0940 1.6834 8.9835 1.0000
50.0940 1.8335 8.9844 1.0000
50.0940 2.1339 8.9865 1.0000
50.0940 2.5846 8.9903 1.0000
50.0940 3.0359 8.9949 1.0000
50.0940 3.1864 8.9965 1.0000
50.0940 3.4876 9.0001 1.0000
50.0940 3.6383 9.0020 1.0000
50.0940 3.9398 9.0061 1.0000
50.0940 4.0907 9.0083 1.0000
50.0940 4.2417 9.0105 1.0000
50.0940 4.6951 9.0177 1.0000
50.0940 5.1493 9.0257 1.0000
50.0940 5.3008 9.0285 1.0000
50.0940 5.6043 9.0344 1.0000
50.0940 5.7561 9.0375 1.0000
50.0940 5.9081 9.0406 1.0000
50.0940 6.2124 9.0472 1.0000
50.0940 6.3646 9.0506 1.0000
50.0940 6.8223 9.0613 1.0000
50.0940 6.9750 9.0650 1.0000
50.0940 7.1280 9.0688 1.0000
50.0940 7.8945 9.0892 1.0000
50.0940 8.3562 9.1024 1.0000
50.0940 8.5104 9.1070 1.0000
50.0940 8.6646 9.1117 1.0000
50.0940 9.1287 9.1263 1.0000
50.0940 9.5942 9.1416 1.0000
50.0940 9.9054 9.1522 1.0000
50.0940 10.0613 9.1577 1.0000
50.0940 10.2174 9.1632 1.0000
50.0940 10.3737 9.1689 1.0000
50.0940 10.5301 9.1746 1.0000
50.0940 10.8436 9.1863 1.0000
50.0940 11.4732 9.2109 1.0000
50.0940 11.6311 9.2172 1.0000
50.0940 11.7893 9.2237 1.0000
50.0940 12.1062 9.2369 1.0000
50.0940 12.5833 9.2573 1.0000
50.0940 12.7428 9.2643 1.0000
50.0940 13.2229 9.2859 1.0000
50.0940 13.3834 9.2933 1.0000
50.0941 -13.3014 9.2895 1.0000
50.0941 -12.9809 9.2749 1.0000
50.0941 -12.6614 9.2607 1.0000
50.0941 -12.5020 9.2538 1.0000
50.0941 -12.3428 9.2469 1.0000
50.0941 -12.0252 9.2335 1.0000
50.0941 -11.8667 9.2269 1.0000
50.0941 -11.7085 9.2204 1.0000
50.0941 -11.5505 9.2140 1.0000
50.0941 -11.3927 9.2077 1.0000
50.0940 -10.9205 9.1893 1.0000
50.0940 -10.6068 9.1775 1.0000
50.0940 -10.2939 9.1660 1.0000
50.0940 -9.9817 9.1549 1.0000
50.0940 -9.8259 9.1495 1.0000
50.0940 -9.3596 9.1338 1.0000
50.0941 -9.2045 9.1287 1.0000
50.0940 -8.7403 9.1140 1.0000
50.0940 -8.5859 9.1093 1.0000
50.0940 -8.1236 9.0957 1.0000
50.0941 -7.9698 9.0913 1.0000
50.0940 -7.8161 9.0870 1.0000
50.0940 -7.6626 9.0828 1.0000
50.0939 -7.3560 9.0747 1.0000
50.0939 -7.0500 9.0669 1.0000
50.0939 -6.7444 9.0594 1.0000
50.0939 -6.5918 9.0558 1.0000
50.0939 -6.4393 9.0523 1.0000
50.0939 -6.2870 9.0488 1.0000
50.0939 -5.9826 9.0422 1.0000
50.0940 -5.2235 9.0271 1.0000
50.0940 -5.0720 9.0243 1.0000
50.0939 -4.9205 9.0216 1.0000
50.0939 -4.3157 9.0116 1.0000
50.0939 -4.0138 9.0072 1.0000
50.0940 -3.7121 9.0030 1.0000
50.0939 -2.9591 8.9940 1.0000
50.0940 -2.6582 8.9910 1.0000
50.0940 -2.5079 8.9896 1.0000
50.0940 -2.2073 8.9871 1.0000
50.0940 -2.0571 8.9860 1.0000
50.0940 -1.9070 8.9849 1.0000
50.0940 -1.4567 8.9822 1.0000
50.0940 -1.3066 8.9814 1.0000
50.0940 -0.8566 8.9797 1.0000
50.0940 -0.5566 8.9789 1.0000
50.0940 -0.4067 8.9787 1.0000
50.0940 -0.2568 8.9785 1.0000
50.0940 0.1930 8.9785 1.0000
50.0940 0.6429 8.9791 1.0000
50.0940 0.7929 8.9795 1.0000
50.0940 1.0929 8.9805 1.0000
50.0940 1.2429 8.9812 1.0000
50.0940 1.5430 8.9826 1.0000
50.0940 1.8432 8.9845 1.0000
50.0940 2.1436 8.9866 1.0000
50.0940 2.2938 8.9878 1.0000
50.0940 2.4440 8.9891 1.0000
50.0940 3.1961 8.9967 1.0000
50.0940 3.3467 8.9984 1.0000
50.0940 3.4973 9.0002 1.0000
50.0940 3.6480 9.0022 1.0000
50.0940 3.7988 9.0042 1.0000
50.0940 3.9496 9.0063 1.0000
50.0940 4.1005 9.0084 1.0000
50.0940 4.2514 9.0107 1.0000
50.0940 4.7049 9.0179 1.0000
50.0940 4.8562 9.0205 1.0000
50.0940 5.0075 9.0231 1.0000
50.0940 5.1590 9.0259 1.0000
50.0940 5.3107 9.0287 1.0000
50.0940 5.6141 9.0346 1.0000
50.0940 5.7659 9.0377 1.0000
50.0940 6.3745 9.0508 1.0000
50.0940 6.5269 9.0543 1.0000
50.0940 6.9849 9.0653 1.0000
50.0940 7.2909 9.0730 1.0000
50.0940 7.4441 9.0770 1.0000
50.0940 7.5974 9.0811 1.0000
50.0940 7.7508 9.0852 1.0000
50.0940 8.2121 9.0982 1.0000
50.0940 8.3661 9.1027 1.0000
50.0940 8.5203 9.1073 1.0000
50.0940 8.9839 9.1216 1.0000
50.0940 9.1387 9.1266 1.0000
50.0940 9.2937 9.1316 1.0000
50.0940 9.4489 9.1367 1.0000
50.0940 9.6043 9.1419 1.0000
50.0940 9.9155 9.1526 1.0000
50.0940 10.0714 9.1581 1.0000
50.0940 10.2275 9.1636 1.0000
50.0940 10.3838 9.1692 1.0000
50.0940 10.5402 9.1750 1.0000
50.0940 10.6969 9.1808 1.0000
50.0940 10.8538 9.1867 1.0000
50.0940 11.0109 9.1927 1.0000
50.0940 11.1682 9.1988 1.0000
50.0940 11.3257 9.2050 1.0000
50.0940 11.7995 9.2241 1.0000
50.0940 12.2752 9.2440 1.0000
50.0940 12.4343 9.2508 1.0000
50.0940 13.0729 9.2791 1.0000
50.0940 13.2332 9.2864 1.0000
50.0941 -13.1306 9.2817 1.0000
50.0941 -12.4916 9.2533 1.0000
50.0941 -12.3325 9.2465 1.0000
50.0941 -12.1736 9.2397 1.0000
50.0941 -12.0149 9.2330 1.0000
50.0940 -10.7535 9.1829 1.0000
50.0940 -10.4402 9.1713 1.0000
50.0941 -10.1277 9.1600 1.0000
50.0940 -9.8159 9.1491 1.0000
50.0940 -9.6603 9.1438 1.0000
50.0940 -9.5049 9.1386 1.0000
50.0940 -9.3496 9.1334 1.0000
50.0940 -8.8849 9.1185 1.0000
50.0940 -8.5759 9.1090 1.0000
50.0940 -8.4217 9.1044 1.0000
50.0940 -8.1136 9.0954 1.0000
50.0940 -7.9598 9.0910 1.0000
50.0941 -7.8062 9.0868 1.0000
50.0939 -7.3461 9.0744 1.0000
50.0939 -6.8872 9.0628 1.0000
50.0939 -6.7345 9.0592 1.0000
50.0939 -6.5820 9.0556 1.0000
50.0940 -6.4295 9.0520 1.0000
50.0939 -5.8207 9.0388 1.0000
50.0939 -5.2137 9.0269 1.0000
50.0940 -5.0622 9.0241 1.0000
50.0939 -4.7594 9.0188 1.0000
50.0939 -4.3060 9.0115 1.0000
50.0939 -4.0040 9.0070 1.0000
50.0939 -3.7024 9.0029 1.0000
50.0939 -3.5516 9.0009 1.0000
50.0940 -2.4982 8.9895 1.0000
50.0940 -2.1977 8.9870 1.0000
50.0940 -1.8973 8.9848 1.0000
50.0940 -1.5971 8.9829 1.0000
50.0940 -1.4470 8.9821 1.0000
50.0940 -0.9969 8.9802 1.0000
50.0940 -0.8469 8.9797 1.0000
50.0940 -0.3970 8.9787 1.0000
50.0940 0.0528 8.9784 1.0000
50.0940 0.3527 8.9786 1.0000
50.0940 0.5026 8.9788 1.0000
50.0940 0.8025 8.9795 1.0000
50.0940 0.9525 8.9800 1.0000
50.0940 1.4026 8.9819 1.0000
50.0940 1.7027 8.9836 1.0000
50.0940 1.8529 8.9845 1.0000
50.0940 2.4537 8.9892 1.0000
50.0940 2.7544 8.9920 1.0000
50.0940 2.9048 8.9935 1.0000
50.0940 3.2058 8.9968 1.0000
50.0940 3.3564 8.9985 1.0000
50.0940 3.5071 9.0004 1.0000
50.0940 3.6577 9.0023 1.0000
50.0940 3.8085 9.0043 1.0000
50.0940 4.4123 9.0131 1.0000
50.0940 4.5634 9.0156 1.0000
50.0940 4.7146 9.0181 1.0000
50.0939 -0.4164 8.1079 1.0000
50.0939 -0.2664 8.1078 1.0000
50.0939 0.1834 8.1077 1.0000
50.0940 0.4832 8.1080 1.0000
50.0939 0.7832 8.1086 1.0000
50.0939 0.9332 8.1091 1.0000
50.0939 1.0831 8.1096 1.0000
50.0940 1.2331 8.1101 1.0000
50.0940 1.3832 8.1107 1.0000
50.0939 1.5333 8.1115 1.0000
50.0939 1.6834 8.1122 1.0000
50.0939 1.9836 8.1140 1.0000
50.0939 2.1338 8.1150 1.0000
50.0939 2.8854 8.1211 1.0000
50.0939 3.0359 8.1225 1.0000
50.0939 3.3370 8.1256 1.0000
50.0940 3.4876 8.1273 1.0000
50.0939 3.9398 8.1327 1.0000
50.0940 4.6951 8.1432 1.0000
50.0940 4.8464 8.1455 1.0000
50.0939 5.4525 8.1556 1.0000
50.0940 5.6043 8.1582 1.0000
50.0940 5.7561 8.1610 1.0000
50.0940 5.9080 8.1639 1.0000
50.0939 6.0602 8.1668 1.0000
50.0939 6.6696 8.1792 1.0000
50.0940 6.8223 8.1825 1.0000
50.0940 6.9750 8.1859 1.0000
50.0940 7.1280 8.1893 1.0000
50.0940 7.4341 8.1965 1.0000
50.0939 7.5875 8.2001 1.0000
50.0939 7.8945 8.2077 1.0000
50.0940 8.2021 8.2156 1.0000
50.0940 8.3561 8.2197 1.0000
50.0939 8.5104 8.2238 1.0000
50.0939 8.6647 8.2281 1.0000
50.0940 8.8191 8.2323 1.0000
50.0940 8.9738 8.2367 1.0000
50.0940 9.1287 8.2412 1.0000
50.0940 9.2837 8.2457 1.0000
50.0939 9.5942 8.2550 1.0000
50.0940 9.7497 8.2598 1.0000
50.0939 9.9055 8.2646 1.0000
50.0940 10.0613 8.2696 1.0000
50.0940 10.2174 8.2746 1.0000
50.0940 10.3737 8.2797 1.0000
50.0940 10.8437 8.2954 1.0000
50.0939 11.6311 8.3233 1.0000
50.0939 11.7892 8.3292 1.0000
50.0939 11.9476 8.3351 1.0000
50.0939 12.2650 8.3471 1.0000
50.0939 12.4240 8.3533 1.0000
50.0939 12.5833 8.3595 1.0000
50.0939 12.7428 8.3659 1.0000
50.0939 12.9025 8.3723 1.0000
50.0940 13.0626 8.3788 1.0000
50.0940 13.2229 8.3854 1.0000
50.0940 13.3833 8.3920 1.0000
50.0940 -13.3013 8.3886 1.0000
50.0940 -13.1409 8.3820 1.0000
50.0940 -12.9809 8.3754 1.0000
50.0940 -12.6614 8.3626 1.0000
50.0940 -12.3428 8.3501 1.0000
50.0940 -12.1839 8.3440 1.0000
50.0940 -11.8668 8.3320 1.0000
50.0940 -11.7085 8.3262 1.0000
50.0940 -11.5504 8.3204 1.0000
50.0940 -11.0777 8.3035 1.0000
50.0940 -10.9205 8.2981 1.0000
50.0940 -10.7636 8.2927 1.0000
50.0940 -10.6068 8.2874 1.0000
50.0940 -10.1377 8.2720 1.0000
50.0940 -9.9817 8.2671 1.0000
50.0940 -9.6704 8.2573 1.0000
50.0940 -9.5149 8.2526 1.0000
50.0940 -9.3596 8.2480 1.0000
50.0940 -9.0496 8.2389 1.0000
50.0940 -8.8949 8.2345 1.0000
50.0940 -8.7403 8.2301 1.0000
50.0940 -8.5859 8.2259 1.0000
50.0940 -8.4316 8.2217 1.0000
50.0940 -8.1236 8.2136 1.0000
50.0940 -7.9698 8.2096 1.0000
50.0939 -7.3560 8.1946 1.0000
50.0939 -6.5918 8.1775 1.0000
50.0939 -6.2869 8.1712 1.0000
50.0939 -5.6786 8.1596 1.0000
50.0939 -5.5268 8.1569 1.0000
50.0939 -5.3750 8.1542 1.0000
50.0939 -5.2235 8.1516 1.0000
50.0939 -4.9205 8.1467 1.0000
50.0939 -4.7692 8.1443 1.0000
50.0939 -4.6179 8.1420 1.0000
50.0939 -4.4668 8.1398 1.0000
50.0939 -4.3157 8.1377 1.0000
50.0939 -4.0137 8.1336 1.0000
50.0939 -3.8629 8.1317 1.0000
50.0939 -3.5613 8.1281 1.0000
50.0939 -2.9590 8.1218 1.0000
50.0939 -2.2073 8.1155 1.0000
50.0940 -2.0572 8.1145 1.0000
50.0940 -1.9070 8.1135 1.0000
50.0939 -1.3066 8.1104 1.0000
50.0939 -0.8566 8.1088 1.0000
50.0940 -0.7066 8.1085 1.0000
50.0939 -0.5566 8.1082 1.0000
50.0939 -0.1068 8.1077 1.0000
50.0939 0.6429 8.1083 1.0000
50.0939 1.2429 8.1101 1.0000
50.0939 1.3929 8.1108 1.0000
50.0939 1.5430 8.1115 1.0000
50.0939 1.8432 8.1131 1.0000
50.0939 2.2938 8.1162 1.0000
50.0939 2.4440 8.1173 1.0000
50.0939 2.5943 8.1185 1.0000
50.0939 3.0456 8.1226 1.0000
50.0939 3.1961 8.1241 1.0000
50.0940 3.4973 8.1274 1.0000
50.0940 3.6480 8.1291 1.0000
50.0940 4.1005 8.1348 1.0000
50.0940 4.4025 8.1389 1.0000
50.0940 5.3106 8.1531 1.0000
50.0940 5.7659 8.1612 1.0000
50.0940 6.3745 8.1730 1.0000
50.0940 6.6795 8.1794 1.0000
50.0940 7.2909 8.1931 1.0000
50.0940 7.4441 8.1967 1.0000
50.0939 7.5974 8.2004 1.0000
50.0940 7.7508 8.2041 1.0000
50.0939 7.9045 8.2080 1.0000
50.0940 8.2120 8.2159 1.0000
50.0939 8.3661 8.2200 1.0000
50.0940 8.5203 8.2241 1.0000
50.0940 8.6746 8.2283 1.0000
50.0940 9.4489 8.2506 1.0000
50.0939 9.6042 8.2553 1.0000
50.0940 9.9155 8.2650 1.0000
50.0940 10.0714 8.2699 1.0000
50.0940 10.2275 8.2749 1.0000
50.0939 10.8538 8.2958 1.0000
50.0939 11.0109 8.3012 1.0000
50.0939 11.1682 8.3067 1.0000
50.0939 11.3256 8.3123 1.0000
50.0939 11.6413 8.3237 1.0000
50.0939 12.1164 8.3414 1.0000
50.0939 12.5936 8.3600 1.0000
50.0940 13.3937 8.3925 1.0000
50.0940 -13.2910 8.3882 1.0000
50.0940 -12.9705 8.3750 1.0000
50.0940 -12.8107 8.3686 1.0000
50.0940 -12.6511 8.3622 1.0000
50.0940 -12.4917 8.3559 1.0000
50.0940 -12.3325 8.3497 1.0000
50.0940 -12.0150 8.3376 1.0000
50.0940 -11.5403 8.3200 1.0000
50.0940 -10.7534 8.2924 1.0000
50.0940 -10.2838 8.2767 1.0000
50.0940 -10.1276 8.2717 1.0000
50.0940 -9.8159 8.2619 1.0000
50.0940 -9.5049 8.2523 1.0000
50.0940 -9.3496 8.2477 1.0000
50.0940 -9.1945 8.2431 1.0000
50.0940 -9.0396 8.2386 1.0000
50.0940 -8.7304 8.2299 1.0000
50.0940 -8.5759 8.2256 1.0000
50.0940 -8.4217 8.2214 1.0000
50.0940 -8.2676 8.2173 1.0000
50.0939 -7.4993 8.1980 1.0000
50.0939 -6.5819 8.1773 1.0000
50.0939 -6.4294 8.1742 1.0000
50.0939 -6.2771 8.1711 1.0000
50.0939 -6.1248 8.1680 1.0000
50.0939 -5.9727 8.1651 1.0000
50.0939 -5.8207 8.1622 1.0000
50.0939 -5.5170 8.1567 1.0000
50.0939 -4.9107 8.1465 1.0000
50.0939 -4.7594 8.1442 1.0000
50.0939 -4.6082 8.1419 1.0000
50.0939 -4.3059 8.1376 1.0000
50.0939 -4.1549 8.1355 1.0000
50.0939 -3.8531 8.1316 1.0000
50.0939 -3.7023 8.1298 1.0000
50.0939 -3.5516 8.1280 1.0000
50.0939 -3.4009 8.1263 1.0000
50.0939 -3.0998 8.1232 1.0000
50.0939 -2.7989 8.1203 1.0000
50.0939 -2.6485 8.1190 1.0000
50.0940 -2.3479 8.1166 1.0000
50.0939 -2.1976 8.1155 1.0000
50.0939 -2.0474 8.1144 1.0000
50.0939 -1.2969 8.1104 1.0000
50.0939 -1.1469 8.1098 1.0000
50.0940 -0.9969 8.1093 1.0000
50.0939 -0.8469 8.1088 1.0000
50.0939 -0.6969 8.1084 1.0000
50.0939 -0.3970 8.1079 1.0000
50.0939 -0.0971 8.1077 1.0000
50.0939 0.2027 8.1077 1.0000
50.0939 0.5026 8.1081 1.0000
50.0939 0.6526 8.1083 1.0000
50.0939 0.8025 8.1087 1.0000
50.0939 1.1025 8.1096 1.0000
50.0939 1.2525 8.1102 1.0000
50.0939 1.8529 8.1132 1.0000
50.0939 2.0030 8.1141 1.0000
50.0939 2.1532 8.1151 1.0000
50.0939 2.6041 8.1186 1.0000
50.0939 3.2058 8.1242 1.0000
50.0939 3.3564 8.1258 1.0000
50.0939 3.5070 8.1275 1.0000
50.0940 3.9593 8.1329 1.0000
50.0940 4.2612 8.1369 1.0000
50.0939 4.5634 8.1412 1.0000
50.0939 4.8660 8.1458 1.0000
50.0940 -0.2664 7.2418 1.0000
50.0940 0.0334 7.2417 1.0000
50.0940 0.1833 7.2417 1.0000
50.0940 0.7831 7.2426 1.0000
50.0940 1.2332 7.2439 1.0000
50.0940 1.3832 7.2444 1.0000
50.0940 1.5332 7.2451 1.0000
50.0940 1.9836 7.2474 1.0000
50.0940 2.1338 7.2482 1.0000
50.0940 2.5846 7.2513 1.0000
50.0940 3.1863 7.2563 1.0000
50.0940 3.3369 7.2577 1.0000
50.0940 4.0907 7.2658 1.0000
50.0940 4.5439 7.2714 1.0000
50.0940 4.6951 7.2734 1.0000
50.0940 4.8464 7.2755 1.0000
50.0940 4.9978 7.2776 1.0000
50.0940 5.4525 7.2844 1.0000
50.0939 5.9081 7.2919 1.0000
50.0940 6.0602 7.2945 1.0000
50.0940 6.3646 7.2999 1.0000
50.0940 6.5171 7.3027 1.0000
50.0940 6.8222 7.3085 1.0000
50.0940 6.9750 7.3115 1.0000
50.0940 7.1279 7.3146 1.0000
50.0939 7.2810 7.3178 1.0000
50.0940 7.4342 7.3210 1.0000
50.0940 7.5875 7.3243 1.0000
50.0939 7.7409 7.3276 1.0000
50.0940 8.0482 7.3345 1.0000
50.0939 8.6647 7.3492 1.0000
50.0940 8.8192 7.3531 1.0000
50.0939 9.1287 7.3609 1.0000
50.0939 9.4388 7.3691 1.0000
50.0940 9.5942 7.3733 1.0000
50.0940 9.7497 7.3776 1.0000
50.0940 10.0613 7.3863 1.0000
50.0940 10.3736 7.3953 1.0000
50.0940 10.5301 7.3999 1.0000
50.0940 10.8436 7.4094 1.0000
50.0939 11.0007 7.4142 1.0000
50.0940 11.3154 7.4241 1.0000
50.0939 11.6311 7.4343 1.0000
50.0940 11.7892 7.4395 1.0000
50.0940 11.9475 7.4448 1.0000
50.0940 12.2649 7.4556 1.0000
50.0940 12.4239 7.4611 1.0000
50.0940 12.5832 7.4667 1.0000
50.0940 12.9025 7.4780 1.0000
50.0940 13.3832 7.4957 1.0000
50.0940 -12.9809 7.4809 1.0000
50.0940 -12.8210 7.4751 1.0000
50.0940 -12.1839 7.4528 1.0000
50.0940 -12.0252 7.4474 1.0000
50.0940 -11.8668 7.4421 1.0000
50.0940 -11.5505 7.4317 1.0000
50.0940 -11.3927 7.4266 1.0000
50.0940 -10.9205 7.4118 1.0000
50.0940 -10.6068 7.4022 1.0000
50.0940 -10.4503 7.3976 1.0000
50.0940 -10.1378 7.3885 1.0000
50.0940 -9.9818 7.3840 1.0000
50.0940 -9.8259 7.3797 1.0000
50.0940 -9.6704 7.3754 1.0000
50.0940 -9.3597 7.3670 1.0000
50.0940 -9.0496 7.3589 1.0000
50.0940 -8.1236 7.3363 1.0000
50.0939 -7.2029 7.3162 1.0000
50.0939 -6.8971 7.3100 1.0000
50.0939 -6.7444 7.3070 1.0000
50.0939 -6.5917 7.3041 1.0000
50.0939 -6.4393 7.3013 1.0000
50.0939 -6.1347 7.2958 1.0000
50.0939 -5.9826 7.2931 1.0000
50.0939 -5.8305 7.2906 1.0000
50.0939 -5.6786 7.2881 1.0000
50.0939 -5.5268 7.2856 1.0000
50.0939 -5.3751 7.2832 1.0000
50.0939 -5.0720 7.2787 1.0000
50.0939 -4.6180 7.2724 1.0000
50.0939 -4.4668 7.2704 1.0000
50.0939 -4.0138 7.2649 1.0000
50.0939 -3.8629 7.2632 1.0000
50.0939 -3.7121 7.2615 1.0000
50.0939 -3.5613 7.2599 1.0000
50.0939 -3.2602 7.2570 1.0000
50.0939 -2.5079 7.2507 1.0000
50.0940 -2.3576 7.2497 1.0000
50.0940 -2.2074 7.2487 1.0000
50.0940 -1.9070 7.2469 1.0000
50.0940 -1.7569 7.2461 1.0000
50.0940 -1.6068 7.2454 1.0000
50.0940 -0.7067 7.2424 1.0000
50.0940 -0.5567 7.2421 1.0000
50.0940 -0.2568 7.2418 1.0000
50.0940 0.0431 7.2417 1.0000
50.0940 0.4929 7.2420 1.0000
50.0940 0.9428 7.2430 1.0000
50.0940 1.0928 7.2434 1.0000
50.0940 1.3929 7.2445 1.0000
50.0940 1.5429 7.2451 1.0000
50.0940 1.6930 7.2458 1.0000
50.0940 1.9933 7.2474 1.0000
50.0940 2.1435 7.2483 1.0000
50.0940 2.2937 7.2493 1.0000
50.0940 2.4440 7.2503 1.0000
50.0940 2.7446 7.2525 1.0000
50.0940 2.8951 7.2538 1.0000
50.0940 3.0455 7.2551 1.0000
50.0940 3.4973 7.2593 1.0000
50.0940 4.1005 7.2659 1.0000
50.0939 4.2515 7.2677 1.0000
50.0939 4.5537 7.2715 1.0000
50.0939 4.7049 7.2736 1.0000
50.0940 4.8562 7.2756 1.0000
50.0939 5.0076 7.2778 1.0000
50.0939 5.9179 7.2920 1.0000
50.0940 6.0700 7.2947 1.0000
50.0940 6.5269 7.3029 1.0000
50.0940 6.8321 7.3087 1.0000
50.0940 7.2909 7.3180 1.0000
50.0939 7.9045 7.3313 1.0000
50.0939 8.0582 7.3348 1.0000
50.0940 8.5203 7.3457 1.0000
50.0940 8.6746 7.3495 1.0000
50.0939 8.8292 7.3533 1.0000
50.0940 9.6042 7.3736 1.0000
50.0939 9.9155 7.3822 1.0000
50.0940 10.8538 7.4097 1.0000
50.0940 11.3256 7.4245 1.0000
50.0940 11.4833 7.4295 1.0000
50.0939 11.6413 7.4347 1.0000
50.0940 11.7994 7.4399 1.0000
50.0940 11.9578 7.4451 1.0000
50.0940 12.7531 7.4727 1.0000
50.0939 13.0729 7.4842 1.0000
50.0940 13.2331 7.4901 1.0000
50.0939 13.3937 7.4961 1.0000
50.0940 -13.2910 7.4922 1.0000
50.0940 -13.1307 7.4863 1.0000
50.0940 -12.8107 7.4747 1.0000
50.0940 -12.6511 7.4690 1.0000
50.0940 -12.0150 7.4471 1.0000
50.0940 -11.8565 7.4418 1.0000
50.0940 -11.6983 7.4365 1.0000
50.0940 -11.5403 7.4314 1.0000
50.0940 -11.3825 7.4263 1.0000
50.0940 -10.9104 7.4114 1.0000
50.0940 -10.7535 7.4067 1.0000
50.0940 -10.2838 7.3927 1.0000
50.0940 -9.9717 7.3838 1.0000
50.0940 -9.8159 7.3794 1.0000
50.0940 -9.5049 7.3709 1.0000
50.0940 -9.3496 7.3667 1.0000
50.0940 -9.1945 7.3627 1.0000
50.0940 -8.7304 7.3508 1.0000
50.0940 -8.4217 7.3433 1.0000
50.0940 -8.2676 7.3396 1.0000
50.0940 -8.1137 7.3361 1.0000
50.0940 -7.8062 7.3291 1.0000
50.0940 -7.6527 7.3257 1.0000
50.0939 -7.3461 7.3191 1.0000
50.0939 -7.1930 7.3159 1.0000
50.0939 -7.0400 7.3128 1.0000
50.0939 -6.7345 7.3068 1.0000
50.0939 -6.5819 7.3039 1.0000
50.0939 -6.4295 7.3011 1.0000
50.0939 -5.8207 7.2904 1.0000
50.0939 -5.5170 7.2855 1.0000
50.0939 -4.9108 7.2764 1.0000
50.0939 -4.6082 7.2723 1.0000
50.0939 -4.4570 7.2703 1.0000
50.0939 -4.3059 7.2684 1.0000
50.0939 -4.1549 7.2665 1.0000
50.0939 -3.8531 7.2631 1.0000
50.0939 -3.7023 7.2614 1.0000
50.0939 -3.4009 7.2583 1.0000
50.0939 -2.9494 7.2542 1.0000
50.0940 -2.3479 7.2496 1.0000
50.0940 -2.1977 7.2486 1.0000
50.0940 -1.4470 7.2447 1.0000
50.0940 -1.2970 7.2441 1.0000
50.0940 -1.1469 7.2436 1.0000
50.0940 -0.9969 7.2431 1.0000
50.0940 -0.8469 7.2427 1.0000
50.0940 -0.5470 7.2421 1.0000
50.0940 0.0528 7.2417 1.0000
50.0940 0.2027 7.2417 1.0000
50.0940 0.3527 7.2419 1.0000
50.0940 0.5026 7.2420 1.0000
50.0940 0.8025 7.2426 1.0000
50.0940 0.9525 7.2430 1.0000
50.0940 1.2525 7.2439 1.0000
50.0940 1.5526 7.2452 1.0000
50.0940 1.7027 7.2459 1.0000
50.0940 1.8529 7.2466 1.0000
50.0940 2.1532 7.2484 1.0000
50.0940 2.3034 7.2493 1.0000
50.0940 2.4537 7.2504 1.0000
50.0940 2.7543 7.2526 1.0000
50.0940 2.9048 7.2538 1.0000
50.0940 3.3564 7.2579 1.0000
50.0940 4.2612 7.2678 1.0000
50.0940 4.4123 7.2697 1.0000
50.0940 4.5634 7.2717 1.0000
50.0940 4.8659 7.2758 1.0000
50.0939 0.1834 6.3800 1.0000
50.0939 0.4832 6.3802 1.0000
50.0939 0.6332 6.3804 1.0000
50.0939 1.0832 6.3814 1.0000
50.0939 1.2332 6.3819 1.0000
50.0939 1.3832 6.3823 1.0000
50.0939 1.5333 6.3829 1.0000
50.0939 1.8335 6.3842 1.0000
50.0939 2.2840 6.3865 1.0000
50.0939 2.4343 6.3874 1.0000
50.0939 2.5846 6.3884 1.0000
50.0939 3.1864 6.3928 1.0000
50.0939 3.7890 6.3981 1.0000
50.0939 4.2417 6.4027 1.0000
50.0939 4.6951 6.4079 1.0000
50.0939 5.1493 6.4135 1.0000
50.0939 5.3009 6.4155 1.0000
50.0939 5.6043 6.4197 1.0000
50.0939 6.2124 6.4288 1.0000
50.0939 6.3646 6.4312 1.0000
50.0939 6.6696 6.4362 1.0000
50.0939 6.8223 6.4388 1.0000
50.0939 7.1280 6.4442 1.0000
50.0939 7.2810 6.4470 1.0000
50.0939 7.5875 6.4527 1.0000
50.0939 8.0482 6.4617 1.0000
50.0939 8.2021 6.4649 1.0000
50.0939 8.3562 6.4681 1.0000
50.0939 8.8192 6.4780 1.0000
50.0939 8.9739 6.4815 1.0000
50.0939 9.1287 6.4850 1.0000
50.0939 11.4732 6.5451 1.0000
50.0939 11.6311 6.5496 1.0000
50.0939 11.7893 6.5542 1.0000
50.0939 12.1062 6.5636 1.0000
50.0939 12.2650 6.5684 1.0000
50.0939 12.4240 6.5732 1.0000
50.0939 12.5832 6.5781 1.0000
50.0939 12.9025 6.5881 1.0000
50.0939 13.0625 6.5933 1.0000
50.0939 13.2228 6.5984 1.0000
50.0939 13.3833 6.6037 1.0000
50.0940 -13.1410 6.5958 1.0000
50.0940 -12.5020 6.5756 1.0000
50.0940 -11.8668 6.5565 1.0000
50.0940 -11.5505 6.5473 1.0000
50.0940 -11.2351 6.5384 1.0000
50.0940 -10.6068 6.5214 1.0000
50.0940 -10.1377 6.5093 1.0000
50.0940 -9.9818 6.5053 1.0000
50.0940 -9.8260 6.5015 1.0000
50.0940 -9.6704 6.4977 1.0000
50.0940 -9.5149 6.4940 1.0000
50.0940 -9.3596 6.4903 1.0000
50.0940 -9.2046 6.4867 1.0000
50.0940 -9.0496 6.4832 1.0000
50.0940 -8.7404 6.4763 1.0000
50.0940 -8.5859 6.4730 1.0000
50.0940 -8.4316 6.4697 1.0000
50.0940 -8.2775 6.4664 1.0000
50.0940 -8.1236 6.4633 1.0000
50.0939 -7.2029 6.4455 1.0000
50.0939 -7.0499 6.4428 1.0000
50.0939 -6.8971 6.4401 1.0000
50.0939 -6.7443 6.4375 1.0000
50.0939 -6.5918 6.4349 1.0000
50.0939 -6.2870 6.4300 1.0000
50.0939 -6.1346 6.4276 1.0000
50.0939 -5.6786 6.4208 1.0000
50.0939 -5.5268 6.4186 1.0000
50.0939 -5.3751 6.4165 1.0000
50.0939 -5.2235 6.4145 1.0000
50.0939 -4.9205 6.4106 1.0000
50.0939 -4.4668 6.4052 1.0000
50.0939 -4.0138 6.4004 1.0000
50.0939 -3.8629 6.3989 1.0000
50.0939 -3.7121 6.3974 1.0000
50.0939 -3.5614 6.3960 1.0000
50.0939 -3.4107 6.3947 1.0000
50.0939 -3.2601 6.3934 1.0000
50.0939 -3.1095 6.3922 1.0000
50.0939 -2.9591 6.3910 1.0000
50.0939 -2.8086 6.3899 1.0000
50.0939 -2.3575 6.3870 1.0000
50.0939 -2.2073 6.3861 1.0000
50.0939 -1.9069 6.3845 1.0000
50.0939 -1.7568 6.3838 1.0000
50.0939 -1.6067 6.3832 1.0000
50.0939 -1.4567 6.3826 1.0000
50.0939 -1.0066 6.3812 1.0000
50.0939 -0.8566 6.3808 1.0000
50.0939 -0.7066 6.3806 1.0000
50.0939 -0.5566 6.3803 1.0000
50.0939 -0.2568 6.3800 1.0000
50.0939 0.0431 6.3799 1.0000
50.0939 0.1931 6.3800 1.0000
50.0939 0.3430 6.3801 1.0000
50.0939 0.6429 6.3804 1.0000
50.0939 0.7929 6.3807 1.0000
50.0939 0.9429 6.3810 1.0000
50.0939 1.2429 6.3819 1.0000
50.0939 1.3929 6.3824 1.0000
50.0939 1.5430 6.3829 1.0000
50.0939 1.6931 6.3836 1.0000
50.0939 1.8432 6.3842 1.0000
50.0939 2.1436 6.3858 1.0000
50.0939 2.5944 6.3885 1.0000
50.0939 2.7447 6.3895 1.0000
50.0939 2.8951 6.3906 1.0000
50.0939 3.0456 6.3917 1.0000
50.0939 3.3467 6.3941 1.0000
50.0939 3.4973 6.3954 1.0000
50.0939 3.6480 6.3968 1.0000
50.0939 3.7988 6.3982 1.0000
50.0939 3.9496 6.3997 1.0000
50.0939 4.2515 6.4029 1.0000
50.0939 4.4025 6.4045 1.0000
50.0939 5.0076 6.4117 1.0000
50.0939 5.1591 6.4137 1.0000
50.0939 5.3106 6.4157 1.0000
50.0939 5.4623 6.4177 1.0000
50.0939 5.6141 6.4199 1.0000
50.0939 5.7660 6.4220 1.0000
50.0939 5.9179 6.4243 1.0000
50.0939 6.2222 6.4289 1.0000
50.0939 6.8321 6.4390 1.0000
50.0939 7.2909 6.4471 1.0000
50.0939 7.4441 6.4500 1.0000
50.0939 7.5974 6.4529 1.0000
50.0939 7.7508 6.4558 1.0000
50.0939 8.2121 6.4651 1.0000
50.0939 8.3661 6.4683 1.0000
50.0939 8.6746 6.4749 1.0000
50.0939 8.9839 6.4817 1.0000
50.0939 9.1387 6.4852 1.0000
50.0939 9.4489 6.4924 1.0000
50.0939 9.7598 6.4999 1.0000
50.0939 9.9155 6.5037 1.0000
50.0939 10.0714 6.5076 1.0000
50.0939 10.2275 6.5115 1.0000
50.0939 10.3838 6.5155 1.0000
50.0939 10.8538 6.5280 1.0000
50.0939 11.4834 6.5454 1.0000
50.0939 11.6413 6.5499 1.0000
50.0939 11.7994 6.5545 1.0000
50.0939 12.1164 6.5639 1.0000
50.0939 12.2752 6.5687 1.0000
50.0939 12.4343 6.5735 1.0000
50.0939 13.2332 6.5988 1.0000
50.0939 13.3937 6.6040 1.0000
50.0940 -13.1307 6.5955 1.0000
50.0940 -12.9705 6.5903 1.0000
50.0940 -12.6511 6.5802 1.0000
50.0940 -12.4917 6.5753 1.0000
50.0940 -12.0150 6.5609 1.0000
50.0940 -11.5403 6.5470 1.0000
50.0940 -11.2249 6.5381 1.0000
50.0940 -11.0676 6.5338 1.0000
50.0940 -10.7535 6.5253 1.0000
50.0940 -10.4402 6.5170 1.0000
50.0940 -10.2839 6.5130 1.0000
50.0940 -10.1277 6.5090 1.0000
50.0940 -9.9717 6.5051 1.0000
50.0940 -9.8159 6.5012 1.0000
50.0940 -9.6603 6.4975 1.0000
50.0940 -9.5049 6.4938 1.0000
50.0940 -9.3496 6.4901 1.0000
50.0940 -9.1945 6.4865 1.0000
50.0940 -8.5759 6.4727 1.0000
50.0940 -8.4217 6.4694 1.0000
50.0940 -8.2676 6.4662 1.0000
50.0940 -7.9598 6.4600 1.0000
50.0940 -7.8062 6.4569 1.0000
50.0940 -7.6527 6.4539 1.0000
50.0939 -7.1930 6.4454 1.0000
50.0939 -6.8872 6.4399 1.0000
50.0939 -6.7345 6.4373 1.0000
50.0939 -6.5819 6.4348 1.0000
50.0939 -6.4294 6.4322 1.0000
50.0939 -5.9727 6.4251 1.0000
50.0939 -5.6688 6.4206 1.0000
50.0939 -5.5170 6.4185 1.0000
50.0939 -5.3653 6.4164 1.0000
50.0939 -5.0622 6.4124 1.0000
50.0939 -4.9108 6.4105 1.0000
50.0939 -4.0040 6.4003 1.0000
50.0939 -3.8531 6.3988 1.0000
50.0939 -3.5516 6.3959 1.0000
50.0939 -3.4009 6.3946 1.0000
50.0939 -2.9493 6.3910 1.0000
50.0939 -2.4982 6.3878 1.0000
50.0939 -2.3479 6.3869 1.0000
50.0939 -1.8973 6.3845 1.0000
50.0939 -1.7471 6.3838 1.0000
50.0939 -1.1469 6.3816 1.0000
50.0939 -0.2471 6.3800 1.0000
50.0939 -0.0971 6.3799 1.0000
50.0939 0.5026 6.3802 1.0000
50.0939 0.8025 6.3807 1.0000
50.0939 1.1025 6.3815 1.0000
50.0939 1.5527 6.3830 1.0000
50.0939 1.7028 6.3836 1.0000
50.0939 2.3035 6.3867 1.0000
50.0939 2.4537 6.3876 1.0000
50.0939 2.6040 6.3885 1.0000
50.0939 2.9048 6.3906 1.0000
50.0939 3.3564 6.3942 1.0000
50.0939 3.5070 6.3955 1.0000
50.0939 3.6577 6.3969 1.0000
50.0939 4.1103 6.4014 1.0000
50.0939 4.4123 6.4046 1.0000
50.0939 4.5634 6.4063 1.0000
50.0939 4.8660 6.4099 1.0000
50.0939 0.0334 5.5219 1.0000
50.0939 0.1834 5.5219 1.0000
50.0939 0.3333 5.5220 1.0000
50.0939 0.4832 5.5221 1.0000
50.0939 0.6332 5.5223 1.0000
50.0939 1.0831 5.5231 1.0000
50.0939 1.2331 5.5235 1.0000
50.0939 1.3832 5.5240 1.0000
50.0939 1.5332 5.5244 1.0000
50.0939 1.6833 5.5250 1.0000
50.0939 1.8334 5.5255 1.0000
50.0939 1.9836 5.5262 1.0000
50.0939 2.1338 5.5269 1.0000
50.0939 2.4343 5.5284 1.0000
50.0939 2.5846 5.5292 1.0000
50.0939 2.7350 5.5301 1.0000
50.0939 3.1863 5.5330 1.0000
50.0939 3.4876 5.5352 1.0000
50.0939 3.6383 5.5364 1.0000
50.0939 3.7890 5.5376 1.0000
50.0939 3.9398 5.5389 1.0000
50.0939 4.8464 5.5476 1.0000
50.0939 5.1493 5.5510 1.0000
50.0939 5.3009 5.5527 1.0000
50.0939 5.4525 5.5545 1.0000
50.0939 5.6043 5.5563 1.0000
50.0939 5.7561 5.5582 1.0000
50.0939 5.9081 5.5601 1.0000
50.0939 6.0602 5.5621 1.0000
50.0939 6.2123 5.5642 1.0000
50.0939 6.3647 5.5662 1.0000
50.0939 6.5171 5.5684 1.0000
50.0939 6.6696 5.5706 1.0000
50.0939 7.1280 5.5775 1.0000
50.0939 7.4342 5.5823 1.0000
50.0939 7.5875 5.5848 1.0000
50.0939 8.3562 5.5981 1.0000
50.0939 8.6647 5.6038 1.0000
50.0939 8.8192 5.6068 1.0000
50.0939 9.2837 5.6159 1.0000
50.0939 9.4388 5.6190 1.0000
50.0939 9.5942 5.6222 1.0000
50.0939 9.7497 5.6255 1.0000
50.0939 10.3737 5.6390 1.0000
50.0939 10.5302 5.6425 1.0000
50.0939 10.8437 5.6497 1.0000
50.0939 11.0007 5.6534 1.0000
50.0939 11.6311 5.6687 1.0000
50.0939 11.9475 5.6767 1.0000
50.0939 12.2649 5.6849 1.0000
50.0939 12.5832 5.6934 1.0000
50.0939 12.9026 5.7021 1.0000
50.0939 13.2228 5.7110 1.0000
50.0940 -13.1410 5.7087 1.0000
50.0939 -12.8210 5.6998 1.0000
50.0939 -12.0252 5.6787 1.0000
50.0940 -11.8668 5.6747 1.0000
50.0939 -11.5504 5.6667 1.0000
50.0939 -11.0777 5.6553 1.0000
50.0939 -10.6068 5.6443 1.0000
50.0940 -10.2939 5.6372 1.0000
50.0940 -9.8259 5.6271 1.0000
50.0940 -9.5149 5.6206 1.0000
50.0940 -9.3596 5.6174 1.0000
50.0940 -9.2046 5.6143 1.0000
50.0940 -8.8949 5.6082 1.0000
50.0940 -8.4316 5.5995 1.0000
50.0940 -8.2775 5.5967 1.0000
50.0939 -7.8161 5.5887 1.0000
50.0939 -7.3560 5.5811 1.0000
50.0939 -6.8971 5.5739 1.0000
50.0939 -6.4393 5.5673 1.0000
50.0939 -6.2869 5.5652 1.0000
50.0939 -6.1346 5.5631 1.0000
50.0939 -5.6786 5.5572 1.0000
50.0939 -5.3751 5.5535 1.0000
50.0939 -5.0719 5.5501 1.0000
50.0939 -4.9205 5.5484 1.0000
50.0939 -4.7692 5.5468 1.0000
50.0939 -4.3157 5.5423 1.0000
50.0939 -4.1646 5.5409 1.0000
50.0939 -4.0137 5.5395 1.0000
50.0939 -3.8629 5.5382 1.0000
50.0939 -3.1095 5.5325 1.0000
50.0939 -2.8086 5.5305 1.0000
50.0939 -2.2073 5.5272 1.0000
50.0939 -2.0571 5.5265 1.0000
50.0939 -1.7569 5.5252 1.0000
50.0939 -1.3066 5.5237 1.0000
50.0939 -1.0066 5.5230 1.0000
50.0939 0.1930 5.5219 1.0000
50.0939 0.4929 5.5221 1.0000
50.0939 0.9428 5.5228 1.0000
50.0939 1.3929 5.5240 1.0000
50.0939 1.5429 5.5245 1.0000
50.0939 1.8432 5.5256 1.0000
50.0939 1.9933 5.5262 1.0000
50.0939 2.2938 5.5276 1.0000
50.0939 2.4440 5.5284 1.0000
50.0939 2.7447 5.5301 1.0000
50.0939 2.8951 5.5311 1.0000
50.0939 3.1961 5.5331 1.0000
50.0939 3.3467 5.5342 1.0000
50.0939 3.6480 5.5365 1.0000
50.0939 3.9496 5.5390 1.0000
50.0939 4.1005 5.5403 1.0000
50.0939 4.7049 5.5462 1.0000
50.0939 4.8562 5.5477 1.0000
50.0939 5.0076 5.5494 1.0000
50.0939 5.1591 5.5511 1.0000
50.0939 5.3106 5.5528 1.0000
50.0939 5.7659 5.5583 1.0000
50.0939 5.9179 5.5603 1.0000
50.0939 6.8321 5.5730 1.0000
50.0939 6.9849 5.5753 1.0000
50.0939 7.1378 5.5776 1.0000
50.0939 7.2909 5.5800 1.0000
50.0939 7.4441 5.5825 1.0000
50.0939 7.7509 5.5876 1.0000
50.0939 7.9045 5.5902 1.0000
50.0939 8.0582 5.5928 1.0000
50.0939 8.6746 5.6040 1.0000
50.0939 8.9838 5.6099 1.0000
50.0939 9.2937 5.6161 1.0000
50.0939 9.4489 5.6192 1.0000
50.0939 9.6043 5.6224 1.0000
50.0939 9.7598 5.6257 1.0000
50.0939 9.9155 5.6290 1.0000
50.0939 10.2275 5.6358 1.0000
50.0939 10.3837 5.6392 1.0000
50.0939 10.6969 5.6463 1.0000
50.0939 11.0109 5.6537 1.0000
50.0939 11.1681 5.6574 1.0000
50.0939 11.4834 5.6651 1.0000
50.0939 11.7994 5.6730 1.0000
50.0939 12.2752 5.6852 1.0000
50.0939 12.7531 5.6980 1.0000
50.0939 12.9129 5.7024 1.0000
50.0939 13.0729 5.7068 1.0000
50.0939 13.2331 5.7113 1.0000
50.0939 13.3937 5.7158 1.0000
50.0940 -13.1307 5.7084 1.0000
50.0940 -12.9705 5.7040 1.0000
50.0939 -12.8107 5.6996 1.0000
50.0939 -12.4916 5.6909 1.0000
50.0939 -12.3325 5.6867 1.0000
50.0940 -12.1736 5.6826 1.0000
50.0940 -11.6983 5.6704 1.0000
50.0939 -11.5403 5.6665 1.0000
50.0940 -11.0675 5.6550 1.0000
50.0940 -10.9104 5.6513 1.0000
50.0940 -10.4402 5.6405 1.0000
50.0939 -10.2838 5.6370 1.0000
50.0939 -9.9717 5.6302 1.0000
50.0939 -9.8159 5.6269 1.0000
50.0940 -9.6603 5.6236 1.0000
50.0940 -9.3496 5.6172 1.0000
50.0940 -9.1945 5.6141 1.0000
50.0939 -9.0396 5.6110 1.0000
50.0940 -8.8849 5.6080 1.0000
50.0939 -8.7304 5.6051 1.0000
50.0940 -8.5760 5.6022 1.0000
50.0939 -8.4217 5.5993 1.0000
50.0940 -8.2675 5.5966 1.0000
50.0940 -8.1136 5.5938 1.0000
50.0940 -7.9598 5.5911 1.0000
50.0939 -7.8061 5.5885 1.0000
50.0939 -7.6527 5.5859 1.0000
50.0939 -7.3461 5.5809 1.0000
50.0939 -6.7345 5.5715 1.0000
50.0939 -6.5819 5.5693 1.0000
50.0939 -6.4294 5.5671 1.0000
50.0939 -6.1248 5.5630 1.0000
50.0939 -5.8207 5.5590 1.0000
50.0939 -5.6688 5.5571 1.0000
50.0939 -5.5170 5.5552 1.0000
50.0939 -5.3653 5.5534 1.0000
50.0939 -5.0621 5.5500 1.0000
50.0939 -4.6082 5.5452 1.0000
50.0939 -3.8531 5.5382 1.0000
50.0939 -3.7023 5.5369 1.0000
50.0939 -3.4010 5.5346 1.0000
50.0939 -3.2504 5.5335 1.0000
50.0939 -3.0998 5.5324 1.0000
50.0939 -2.6485 5.5296 1.0000
50.0939 -2.4982 5.5287 1.0000
50.0939 -2.3479 5.5279 1.0000
50.0939 -2.1977 5.5272 1.0000
50.0939 -2.0475 5.5265 1.0000
50.0939 -1.8973 5.5258 1.0000
50.0939 -1.2970 5.5237 1.0000
50.0939 -0.9969 5.5229 1.0000
50.0939 -0.6970 5.5224 1.0000
50.0939 -0.5470 5.5222 1.0000
50.0939 -0.3970 5.5220 1.0000
50.0939 0.2027 5.5219 1.0000
50.0939 0.3527 5.5220 1.0000
50.0939 0.6526 5.5223 1.0000
50.0939 0.8025 5.5226 1.0000
50.0939 1.2525 5.5236 1.0000
50.0939 1.7027 5.5250 1.0000
50.0939 1.8529 5.5256 1.0000
50.0939 2.0030 5.5263 1.0000
50.0939 2.7544 5.5302 1.0000
50.0939 2.9048 5.5311 1.0000
50.0939 3.2058 5.5331 1.0000
50.0939 3.3564 5.5342 1.0000
50.0939 3.5070 5.5354 1.0000
50.0939 3.6577 5.5366 1.0000
50.0939 4.1102 5.5404 1.0000
50.0939 4.4123 5.5432 1.0000
50.0939 4.5634 5.5447 1.0000
50.0939 5.0174 5.5495 1.0000
50.0939 -0.1165 4.6670 1.0000
50.0939 0.0334 4.6670 1.0000
50.0939 0.4832 4.6672 1.0000
50.0939 0.6332 4.6674 1.0000
50.0939 1.0831 4.6681 1.0000
50.0939 1.3832 4.6688 1.0000
50.0939 1.5332 4.6692 1.0000
50.0939 1.8335 4.6701 1.0000
50.0939 1.9836 4.6706 1.0000
50.0939 2.1338 4.6712 1.0000
50.0939 2.4343 4.6725 1.0000
50.0939 2.8854 4.6747 1.0000
50.0939 3.0359 4.6755 1.0000
50.0939 3.1864 4.6764 1.0000
50.0939 3.4875 4.6783 1.0000
50.0939 3.6382 4.6793 1.0000
50.0939 4.2417 4.6837 1.0000
50.0939 4.3928 4.6849 1.0000
50.0939 4.5439 4.6861 1.0000
50.0939 4.8464 4.6888 1.0000
50.0939 4.9978 4.6902 1.0000
50.0939 5.1493 4.6916 1.0000
50.0939 5.4525 4.6945 1.0000
50.0939 5.7561 4.6977 1.0000
50.0939 5.9081 4.6993 1.0000
50.0939 6.2123 4.7027 1.0000
50.0939 6.3646 4.7045 1.0000
50.0939 6.6696 4.7082 1.0000
50.0939 6.8223 4.7101 1.0000
50.0939 6.9750 4.7120 1.0000
50.0939 7.1279 4.7140 1.0000
50.0939 7.4342 4.7181 1.0000
50.0939 8.2021 4.7291 1.0000
50.0939 8.3561 4.7315 1.0000
50.0939 8.5104 4.7339 1.0000
50.0939 8.6646 4.7363 1.0000
50.0939 8.8192 4.7388 1.0000
50.0939 8.9738 4.7413 1.0000
50.0939 9.2836 4.7465 1.0000
50.0939 9.4388 4.7491 1.0000
50.0939 9.9054 4.7573 1.0000
50.0939 10.2174 4.7631 1.0000
50.0939 10.3736 4.7660 1.0000
50.0939 10.8436 4.7751 1.0000
50.0939 11.1580 4.7814 1.0000
50.0939 11.3154 4.7846 1.0000
50.0939 11.4731 4.7878 1.0000
50.0939 11.6311 4.7911 1.0000
50.0939 11.7892 4.7945 1.0000
50.0939 11.9475 4.7979 1.0000
50.0939 12.1061 4.8013 1.0000
50.0939 12.2649 4.8048 1.0000
50.0939 12.7428 4.8156 1.0000
50.0939 13.0625 4.8230 1.0000
50.0939 13.2228 4.8268 1.0000
50.0939 13.3833 4.8307 1.0000
50.0939 -13.3013 4.8287 1.0000
50.0939 -13.1410 4.8249 1.0000
50.0939 -12.9809 4.8211 1.0000
50.0939 -12.8209 4.8174 1.0000
50.0939 -12.6613 4.8137 1.0000
50.0939 -12.3428 4.8066 1.0000
50.0939 -11.8667 4.7961 1.0000
50.0939 -11.2351 4.7829 1.0000
50.0939 -10.9205 4.7766 1.0000
50.0939 -10.7636 4.7735 1.0000
50.0939 -10.2939 4.7645 1.0000
50.0939 -10.1377 4.7616 1.0000
50.0939 -9.2045 4.7451 1.0000
50.0939 -9.0496 4.7425 1.0000
50.0939 -8.8949 4.7400 1.0000
50.0939 -8.7403 4.7375 1.0000
50.0939 -8.5859 4.7350 1.0000
50.0939 -8.4316 4.7326 1.0000
50.0939 -8.2775 4.7303 1.0000
50.0939 -8.1236 4.7280 1.0000
50.0939 -7.5092 4.7191 1.0000
50.0938 -7.2029 4.7150 1.0000
50.0938 -6.8970 4.7110 1.0000
50.0938 -6.7443 4.7091 1.0000
50.0938 -6.4392 4.7054 1.0000
50.0938 -6.2869 4.7036 1.0000
50.0938 -6.1347 4.7018 1.0000
50.0938 -5.2234 4.6923 1.0000
50.0938 -5.0720 4.6908 1.0000
50.0938 -4.9205 4.6894 1.0000
50.0938 -4.7691 4.6881 1.0000
50.0938 -4.6180 4.6868 1.0000
50.0938 -4.4667 4.6855 1.0000
50.0938 -4.3156 4.6843 1.0000
50.0938 -4.1647 4.6831 1.0000
50.0938 -4.0138 4.6819 1.0000
50.0938 -3.8629 4.6808 1.0000
50.0938 -3.4107 4.6778 1.0000
50.0938 -3.2601 4.6769 1.0000
50.0938 -3.1095 4.6760 1.0000
50.0938 -2.8086 4.6743 1.0000
50.0939 -2.6582 4.6735 1.0000
50.0938 -2.5079 4.6728 1.0000
50.0939 -2.3576 4.6721 1.0000
50.0939 -2.2074 4.6715 1.0000
50.0939 -1.9070 4.6704 1.0000
50.0939 -1.4567 4.6690 1.0000
50.0939 -1.3066 4.6686 1.0000
50.0939 -1.1566 4.6682 1.0000
50.0939 -0.7066 4.6674 1.0000
50.0939 -0.5567 4.6673 1.0000
50.0939 -0.4067 4.6671 1.0000
50.0939 0.0431 4.6670 1.0000
50.0939 0.1930 4.6670 1.0000
50.0939 0.3430 4.6671 1.0000
50.0939 0.4929 4.6672 1.0000
50.0939 0.6429 4.6674 1.0000
50.0939 0.7929 4.6676 1.0000
50.0939 0.9429 4.6678 1.0000
50.0939 1.2429 4.6684 1.0000
50.0939 1.3929 4.6688 1.0000
50.0939 1.8432 4.6701 1.0000
50.0939 2.2937 4.6719 1.0000
50.0939 2.5943 4.6732 1.0000
50.0939 2.7447 4.6740 1.0000
50.0939 2.8951 4.6748 1.0000
50.0939 3.1961 4.6765 1.0000
50.0939 3.3466 4.6774 1.0000
50.0939 3.6480 4.6793 1.0000
50.0939 3.7987 4.6804 1.0000
50.0939 3.9496 4.6815 1.0000
50.0939 4.1005 4.6826 1.0000
50.0939 4.2515 4.6838 1.0000
50.0939 4.5536 4.6862 1.0000
50.0939 5.0075 4.6902 1.0000
50.0939 5.3106 4.6931 1.0000
50.0939 5.4623 4.6946 1.0000
50.0939 5.9179 4.6994 1.0000
50.0939 6.0700 4.7011 1.0000
50.0939 6.2221 4.7028 1.0000
50.0939 6.3745 4.7046 1.0000
50.0939 7.4440 4.7182 1.0000
50.0939 7.7508 4.7225 1.0000
50.0939 7.9044 4.7247 1.0000
50.0939 8.2121 4.7293 1.0000
50.0939 8.3661 4.7316 1.0000
50.0939 8.6746 4.7364 1.0000
50.0939 8.8291 4.7389 1.0000
50.0939 8.9838 4.7414 1.0000
50.0939 9.1387 4.7440 1.0000
50.0939 9.2937 4.7466 1.0000
50.0939 9.4489 4.7493 1.0000
50.0939 9.6042 4.7520 1.0000
50.0939 9.9155 4.7575 1.0000
50.0939 10.0714 4.7604 1.0000
50.0939 10.6969 4.7722 1.0000
50.0939 10.8538 4.7753 1.0000
50.0939 11.1681 4.7816 1.0000
50.0939 11.4833 4.7880 1.0000
50.0939 11.6412 4.7913 1.0000
50.0939 11.9578 4.7981 1.0000
50.0939 12.2752 4.8051 1.0000
50.0939 12.7531 4.8158 1.0000
50.0939 13.2331 4.8271 1.0000
50.0939 -12.9705 4.8209 1.0000
50.0939 -12.3325 4.8063 1.0000
50.0939 -12.0149 4.7993 1.0000
50.0939 -11.8565 4.7959 1.0000
50.0939 -11.5403 4.7892 1.0000
50.0939 -11.2249 4.7827 1.0000
50.0939 -11.0675 4.7795 1.0000
50.0939 -10.7534 4.7733 1.0000
50.0939 -10.5966 4.7703 1.0000
50.0939 -9.9717 4.7585 1.0000
50.0939 -9.8159 4.7557 1.0000
50.0939 -9.5048 4.7502 1.0000
50.0939 -9.3496 4.7476 1.0000
50.0939 -9.1945 4.7449 1.0000
50.0939 -9.0396 4.7424 1.0000
50.0939 -8.5759 4.7349 1.0000
50.0939 -8.4216 4.7325 1.0000
50.0939 -8.2676 4.7301 1.0000
50.0939 -8.1136 4.7278 1.0000
50.0939 -7.9598 4.7255 1.0000
50.0939 -7.8062 4.7233 1.0000
50.0938 -6.8871 4.7109 1.0000
50.0938 -6.7345 4.7090 1.0000
50.0938 -6.4294 4.7053 1.0000
50.0938 -6.2770 4.7035 1.0000
50.0938 -6.1248 4.7017 1.0000
50.0938 -5.6688 4.6968 1.0000
50.0938 -5.5170 4.6952 1.0000
50.0938 -5.3653 4.6937 1.0000
50.0938 -5.2137 4.6922 1.0000
50.0938 -4.6082 4.6867 1.0000
50.0938 -4.4570 4.6854 1.0000
50.0938 -4.3059 4.6842 1.0000
50.0938 -4.1549 4.6830 1.0000
50.0938 -3.8531 4.6808 1.0000
50.0938 -3.7023 4.6797 1.0000
50.0938 -3.4009 4.6777 1.0000
50.0938 -3.2504 4.6768 1.0000
50.0938 -3.0998 4.6759 1.0000
50.0938 -2.9493 4.6751 1.0000
50.0938 -2.6485 4.6735 1.0000
50.0939 -2.4982 4.6728 1.0000
50.0939 -2.1977 4.6715 1.0000
50.0939 -1.5971 4.6694 1.0000
50.0939 -0.2471 4.6670 1.0000
50.0939 -0.0971 4.6670 1.0000
50.0939 0.0528 4.6670 1.0000
50.0939 0.2027 4.6670 1.0000
50.0939 0.8025 4.6676 1.0000
50.0939 0.9525 4.6678 1.0000
50.0939 1.1025 4.6681 1.0000
50.0939 1.2525 4.6684 1.0000
50.0939 1.4026 4.6688 1.0000
50.0939 1.5526 4.6692 1.0000
50.0939 1.7027 4.6697 1.0000
50.0939 1.8529 4.6702 1.0000
50.0939 2.0030 4.6707 1.0000
50.0939 2.1532 4.6713 1.0000
50.0939 2.3034 4.6719 1.0000
50.0939 2.6040 4.6733 1.0000
50.0939 3.0553 4.6756 1.0000
50.0939 4.1103 4.6827 1.0000
50.0939 4.2612 4.6838 1.0000
50.0939 4.4123 4.6850 1.0000
50.0939 4.5634 4.6863 1.0000
50.0939 4.7146 4.6876 1.0000
50.0939 5.0174 4.6903 1.0000
50.0939 -0.4164 3.8149 1.0000
50.0939 0.0334 3.8148 1.0000
50.0939 0.7832 3.8153 1.0000
50.0939 1.3832 3.8163 1.0000
50.0939 1.5333 3.8166 1.0000
50.0939 1.9836 3.8178 1.0000
50.0939 2.5846 3.8199 1.0000
50.0939 2.7350 3.8205 1.0000
50.0939 3.1864 3.8225 1.0000
50.0939 3.3370 3.8232 1.0000
50.0939 3.4876 3.8240 1.0000
50.0939 3.7890 3.8257 1.0000
50.0939 4.2418 3.8284 1.0000
50.0939 4.3928 3.8294 1.0000
50.0939 4.5439 3.8305 1.0000
50.0939 4.8464 3.8326 1.0000
50.0939 4.9979 3.8337 1.0000
50.0939 5.6043 3.8386 1.0000
50.0939 6.0602 3.8426 1.0000
50.0939 6.3647 3.8455 1.0000
50.0939 6.6696 3.8485 1.0000
50.0939 6.9750 3.8516 1.0000
50.0939 7.2810 3.8549 1.0000
50.0939 7.5875 3.8583 1.0000
50.0939 7.8945 3.8619 1.0000
50.0939 8.2021 3.8656 1.0000
50.0939 8.3562 3.8675 1.0000
50.0939 8.5104 3.8695 1.0000
50.0939 8.8192 3.8735 1.0000
50.0939 9.4389 3.8819 1.0000
50.0939 9.7497 3.8864 1.0000
50.0939 10.2174 3.8933 1.0000
50.0939 10.6868 3.9006 1.0000
50.0939 11.3155 3.9109 1.0000
50.0939 11.4732 3.9136 1.0000
50.0939 11.6311 3.9163 1.0000
50.0939 11.9475 3.9218 1.0000
50.0939 12.5832 3.9333 1.0000
50.0939 12.7428 3.9363 1.0000
50.0939 12.9025 3.9393 1.0000
50.0939 13.0625 3.9424 1.0000
50.0939 13.2228 3.9455 1.0000
50.0939 13.3833 3.9486 1.0000
50.0939 -13.3014 3.9470 1.0000
50.0939 -13.1410 3.9439 1.0000
50.0939 -12.8210 3.9378 1.0000
50.0939 -12.6613 3.9348 1.0000
50.0939 -12.5019 3.9318 1.0000
50.0939 -12.3428 3.9289 1.0000
50.0939 -12.0251 3.9232 1.0000
50.0939 -11.8667 3.9204 1.0000
50.0939 -11.5504 3.9149 1.0000
50.0939 -11.3927 3.9122 1.0000
50.0939 -11.2350 3.9096 1.0000
50.0939 -10.9205 3.9044 1.0000
50.0939 -10.7636 3.9019 1.0000
50.0939 -10.6068 3.8994 1.0000
50.0939 -10.4503 3.8969 1.0000
50.0939 -10.2939 3.8945 1.0000
50.0939 -9.9818 3.8898 1.0000
50.0939 -9.8260 3.8875 1.0000
50.0939 -9.6703 3.8852 1.0000
50.0939 -9.5149 3.8830 1.0000
50.0939 -9.3596 3.8808 1.0000
50.0939 -9.0496 3.8765 1.0000
50.0939 -8.8949 3.8745 1.0000
50.0939 -8.7403 3.8724 1.0000
50.0939 -8.1236 3.8646 1.0000
50.0939 -7.9697 3.8628 1.0000
50.0939 -7.6626 3.8592 1.0000
50.0939 -7.5092 3.8574 1.0000
50.0938 -7.2029 3.8540 1.0000
50.0938 -7.0499 3.8524 1.0000
50.0938 -6.4393 3.8462 1.0000
50.0938 -6.1346 3.8433 1.0000
50.0938 -5.8305 3.8405 1.0000
50.0938 -5.3751 3.8367 1.0000
50.0938 -5.2234 3.8355 1.0000
50.0938 -5.0719 3.8343 1.0000
50.0938 -4.9205 3.8332 1.0000
50.0938 -4.7692 3.8320 1.0000
50.0938 -4.6179 3.8310 1.0000
50.0938 -4.3157 3.8289 1.0000
50.0938 -3.8629 3.8261 1.0000
50.0938 -3.7121 3.8253 1.0000
50.0938 -3.4107 3.8236 1.0000
50.0938 -3.2600 3.8229 1.0000
50.0938 -2.9591 3.8214 1.0000
50.0938 -2.8086 3.8208 1.0000
50.0939 -2.6582 3.8202 1.0000
50.0938 -2.5079 3.8196 1.0000
50.0939 -2.3576 3.8190 1.0000
50.0939 -2.2073 3.8185 1.0000
50.0939 -1.7568 3.8171 1.0000
50.0939 -1.6067 3.8168 1.0000
50.0939 -1.4566 3.8164 1.0000
50.0939 -1.1565 3.8158 1.0000
50.0939 -0.8565 3.8154 1.0000
50.0939 -0.5566 3.8150 1.0000
50.0939 0.0432 3.8148 1.0000
50.0939 0.1931 3.8148 1.0000
50.0939 0.4929 3.8150 1.0000
50.0939 0.6429 3.8151 1.0000
50.0939 0.7929 3.8153 1.0000
50.0939 1.6931 3.8170 1.0000
50.0939 1.8432 3.8174 1.0000
50.0939 2.2938 3.8188 1.0000
50.0939 2.7447 3.8205 1.0000
50.0939 2.8952 3.8212 1.0000
50.0939 3.1961 3.8225 1.0000
50.0939 3.3467 3.8233 1.0000
50.0939 3.4973 3.8241 1.0000
50.0939 3.6480 3.8249 1.0000
50.0939 3.7987 3.8257 1.0000
50.0939 3.9496 3.8266 1.0000
50.0939 4.4025 3.8295 1.0000
50.0939 4.7049 3.8316 1.0000
50.0939 5.0075 3.8338 1.0000
50.0939 5.1591 3.8350 1.0000
50.0939 5.3107 3.8362 1.0000
50.0939 5.4623 3.8374 1.0000
50.0939 5.6141 3.8387 1.0000
50.0939 5.7660 3.8400 1.0000
50.0939 5.9179 3.8413 1.0000
50.0939 6.0700 3.8427 1.0000
50.0939 6.2222 3.8441 1.0000
50.0939 6.3745 3.8456 1.0000
50.0939 6.5269 3.8470 1.0000
50.0939 7.1379 3.8533 1.0000
50.0939 7.2909 3.8550 1.0000
50.0939 7.4441 3.8567 1.0000
50.0939 8.0582 3.8638 1.0000
50.0939 8.2121 3.8657 1.0000
50.0939 8.6746 3.8716 1.0000
50.0939 8.8292 3.8736 1.0000
50.0939 9.1387 3.8778 1.0000
50.0939 9.2937 3.8799 1.0000
50.0939 9.4489 3.8821 1.0000
50.0939 10.0714 3.8911 1.0000
50.0939 10.3838 3.8959 1.0000
50.0939 10.6969 3.9008 1.0000
50.0939 10.8538 3.9033 1.0000
50.0939 11.0109 3.9059 1.0000
50.0939 11.3257 3.9111 1.0000
50.0939 11.4833 3.9137 1.0000
50.0939 11.6413 3.9164 1.0000
50.0939 11.7994 3.9192 1.0000
50.0939 12.1164 3.9248 1.0000
50.0939 12.4343 3.9306 1.0000
50.0939 12.7531 3.9365 1.0000
50.0939 12.9129 3.9395 1.0000
50.0939 13.2332 3.9457 1.0000
50.0939 13.3937 3.9488 1.0000
50.0939 -13.2910 3.9468 1.0000
50.0939 -13.1306 3.9437 1.0000
50.0939 -12.3325 3.9287 1.0000
50.0939 -12.1736 3.9258 1.0000
50.0939 -12.0149 3.9230 1.0000
50.0939 -11.2249 3.9094 1.0000
50.0939 -10.5967 3.8992 1.0000
50.0939 -10.4402 3.8968 1.0000
50.0939 -10.2838 3.8944 1.0000
50.0939 -10.1276 3.8920 1.0000
50.0939 -9.9717 3.8896 1.0000
50.0939 -9.6603 3.8851 1.0000
50.0939 -9.1945 3.8785 1.0000
50.0939 -9.0396 3.8764 1.0000
50.0939 -8.8849 3.8743 1.0000
50.0939 -8.7304 3.8723 1.0000
50.0939 -8.2675 3.8664 1.0000
50.0939 -7.9598 3.8627 1.0000
50.0939 -7.8062 3.8608 1.0000
50.0938 -7.4993 3.8573 1.0000
50.0938 -7.3461 3.8556 1.0000
50.0938 -6.7345 3.8491 1.0000
50.0938 -6.5818 3.8476 1.0000
50.0938 -5.9727 3.8418 1.0000
50.0938 -5.8207 3.8405 1.0000
50.0938 -5.3653 3.8366 1.0000
50.0938 -4.9107 3.8331 1.0000
50.0938 -4.7594 3.8320 1.0000
50.0938 -4.6082 3.8309 1.0000
50.0938 -4.4570 3.8299 1.0000
50.0938 -4.1549 3.8279 1.0000
50.0938 -3.8531 3.8261 1.0000
50.0938 -3.0998 3.8221 1.0000
50.0938 -2.6485 3.8201 1.0000
50.0938 -2.4982 3.8195 1.0000
50.0939 -2.3479 3.8190 1.0000
50.0939 -2.0474 3.8180 1.0000
50.0939 -1.8972 3.8175 1.0000
50.0939 -1.7471 3.8171 1.0000
50.0939 -1.5970 3.8167 1.0000
50.0939 -1.2968 3.8161 1.0000
50.0939 -1.1469 3.8158 1.0000
50.0939 -0.9968 3.8155 1.0000
50.0939 -0.6969 3.8152 1.0000
50.0939 -0.2471 3.8148 1.0000
50.0939 -0.0971 3.8148 1.0000
50.0939 0.3527 3.8149 1.0000
50.0939 0.5026 3.8150 1.0000
50.0939 0.6526 3.8151 1.0000
50.0939 1.1025 3.8157 1.0000
50.0939 1.2526 3.8160 1.0000
50.0939 1.4026 3.8163 1.0000
50.0939 1.7028 3.8170 1.0000
50.0939 1.8529 3.8174 1.0000
50.0939 2.0031 3.8178 1.0000
50.0939 2.1532 3.8183 1.0000
50.0939 2.4537 3.8194 1.0000
50.0939 2.9048 3.8212 1.0000
50.0939 3.0554 3.8219 1.0000
50.0939 4.1103 3.8276 1.0000
50.0939 4.2613 3.8286 1.0000
50.0939 4.4123 3.8296 1.0000
50.0939 4.8660 3.8328 1.0000
50.0939 5.0174 3.8339 1.0000
50.0939 -0.4164 2.9649 1.0000
50.0939 0.0334 2.9648 1.0000
50.0939 0.3333 2.9649 1.0000
50.0939 0.7832 2.9652 1.0000
50.0939 0.9331 2.9653 1.0000
50.0939 1.2331 2.9657 1.0000
50.0939 1.3832 2.9659 1.0000
50.0939 1.5333 2.9662 1.0000
50.0939 1.6834 2.9665 1.0000
50.0939 1.9836 2.9671 1.0000
50.0939 2.1338 2.9675 1.0000
50.0939 2.2841 2.9679 1.0000
50.0939 2.4343 2.9683 1.0000
50.0939 2.8854 2.9697 1.0000
50.0939 3.0359 2.9702 1.0000
50.0939 3.1864 2.9708 1.0000
50.0939 3.3370 2.9714 1.0000
50.0939 3.6383 2.9726 1.0000
50.0939 4.0907 2.9747 1.0000
50.0939 4.2417 2.9754 1.0000
50.0939 4.3928 2.9762 1.0000
50.0939 4.5439 2.9770 1.0000
50.0939 4.6952 2.9778 1.0000
50.0939 5.1492 2.9804 1.0000
50.0939 5.3009 2.9814 1.0000
50.0939 5.6043 2.9833 1.0000
50.0939 5.7561 2.9843 1.0000
50.0939 5.9081 2.9854 1.0000
50.0939 6.0602 2.9864 1.0000
50.0939 6.2123 2.9875 1.0000
50.0939 6.3646 2.9886 1.0000
50.0939 6.8223 2.9922 1.0000
50.0939 6.9750 2.9934 1.0000
50.0939 7.1280 2.9947 1.0000
50.0939 8.3561 3.0058 1.0000
50.0939 8.6647 3.0088 1.0000
50.0939 8.8192 3.0104 1.0000
50.0939 9.2837 3.0153 1.0000
50.0939 9.4388 3.0170 1.0000
50.0939 9.5942 3.0187 1.0000
50.0939 9.7497 3.0204 1.0000
50.0939 9.9054 3.0222 1.0000
50.0939 10.2174 3.0258 1.0000
50.0939 10.5302 3.0296 1.0000
50.0939 10.6868 3.0315 1.0000
50.0939 11.6311 3.0437 1.0000
50.0939 12.1061 3.0501 1.0000
50.0939 12.2649 3.0524 1.0000
50.0939 12.5833 3.0569 1.0000
50.0939 12.9025 3.0616 1.0000
50.0939 13.2227 3.0664 1.0000
50.0939 13.3833 3.0688 1.0000
50.0939 -13.3014 3.0675 1.0000
50.0939 -12.9808 3.0627 1.0000
50.0939 -12.5020 3.0557 1.0000
50.0939 -12.3428 3.0535 1.0000
50.0939 -12.0251 3.0490 1.0000
50.0939 -11.7084 3.0447 1.0000
50.0939 -11.3926 3.0405 1.0000
50.0939 -11.2350 3.0385 1.0000
50.0939 -10.6068 3.0305 1.0000
50.0939 -10.4502 3.0286 1.0000
50.0939 -10.2939 3.0268 1.0000
50.0939 -10.1377 3.0249 1.0000
50.0939 -9.6703 3.0195 1.0000
50.0939 -9.3596 3.0161 1.0000
50.0939 -9.0496 3.0128 1.0000
50.0939 -8.5859 3.0080 1.0000
50.0939 -8.4316 3.0065 1.0000
50.0939 -8.2775 3.0050 1.0000
50.0939 -8.1236 3.0035 1.0000
50.0939 -7.8161 3.0007 1.0000
50.0938 -7.3560 2.9966 1.0000
50.0938 -7.2029 2.9953 1.0000
50.0938 -6.7443 2.9916 1.0000
50.0938 -6.4393 2.9892 1.0000
50.0938 -6.1346 2.9870 1.0000
50.0938 -5.8305 2.9848 1.0000
50.0938 -5.2234 2.9809 1.0000
50.0938 -5.0719 2.9800 1.0000
50.0938 -4.9205 2.9791 1.0000
50.0938 -4.7692 2.9782 1.0000
50.0938 -4.4668 2.9766 1.0000
50.0938 -4.0137 2.9743 1.0000
