ply
format ascii 1.0
element vertex 1603
property float32 x
property float32 y
property float32 z
property float32 I
end_header
45.0348 0.2550 0.3803 1.0000
45.0423 0.5248 0.3804 1.0000
45.2050 0.7975 0.3818 1.0000
45.2000 0.9328 0.3818 1.0000
45.1962 1.0681 0.3818 1.0000
45.1939 1.2035 0.3818 1.0000
45.1922 1.3389 0.3818 1.0000
45.0800 1.4707 0.3809 1.0000
45.1924 1.6099 0.3819 1.0000
45.1938 1.7454 0.3820 1.0000
45.1975 1.8811 0.3820 1.0000
45.2023 2.0169 0.3821 1.0000
45.2086 2.1529 0.3822 1.0000
45.2149 2.2889 0.3823 1.0000
50.0938 3.1378 0.4239 1.0000
50.0938 3.2884 0.4240 1.0000
50.0939 3.7406 0.4242 1.0000
50.0939 3.8915 0.4243 1.0000
50.0937 -4.8530 -0.4250 1.0000
50.0937 -4.7017 -0.4249 1.0000
50.0937 -4.5504 -0.4248 1.0000
50.0937 -4.3992 -0.4247 1.0000
50.0937 -4.2481 -0.4246 1.0000
50.0937 -4.0971 -0.4245 1.0000
50.0937 -3.7952 -0.4243 1.0000
50.0937 -3.4936 -0.4241 1.0000
50.0937 -3.1922 -0.4239 1.0000
50.0937 -2.8912 -0.4238 1.0000
50.0937 -2.4398 -0.4236 1.0000
50.0938 -2.1392 -0.4234 1.0000
50.0938 -1.9889 -0.4234 1.0000
44.8256 -1.5109 -0.3788 1.0000
44.8296 -1.3767 -0.3788 1.0000
44.8316 -1.1081 -0.3787 1.0000
44.8279 -0.9737 -0.3787 1.0000
50.0938 -0.7879 -0.4231 1.0000
50.0938 -0.4878 -0.4231 1.0000
50.0938 -0.1879 -0.4231 1.0000
50.0938 0.4122 -0.4231 1.0000
50.0938 0.5622 -0.4231 1.0000
50.0938 0.7122 -0.4231 1.0000
50.0938 0.8623 -0.4231 1.0000
44.9649 1.0434 -0.3798 1.0000
44.9690 1.1782 -0.3799 1.0000
44.9727 1.3130 -0.3800 1.0000
44.9732 1.5827 -0.3801 1.0000
44.9697 1.7174 -0.3801 1.0000
44.9656 1.8521 -0.3801 1.0000
50.0938 2.2136 -0.4235 1.0000
50.0938 2.5143 -0.4236 1.0000
50.0938 2.8152 -0.4237 1.0000
50.0938 2.9657 -0.4238 1.0000
50.0938 3.1163 -0.4239 1.0000
50.0938 3.2668 -0.4240 1.0000
50.0938 3.4175 -0.4240 1.0000
50.0938 3.5682 -0.4241 1.0000
50.0938 3.7190 -0.4242 1.0000
50.0938 3.8699 -0.4243 1.0000
50.0938 4.1719 -0.4245 1.0000
50.0938 4.3229 -0.4246 1.0000
50.0938 4.4741 -0.4247 1.0000
50.0938 4.6253 -0.4249 1.0000
50.0938 5.0796 -0.4252 1.0000
50.0938 5.2312 -0.4254 1.0000
50.0938 5.8385 -0.4259 1.0000
50.0938 5.9905 -0.4261 1.0000
50.0938 6.1428 -0.4262 1.0000
50.0938 6.4475 -0.4266 1.0000
50.0938 6.6001 -0.4267 1.0000
50.0938 6.9055 -0.4271 1.0000
50.0938 7.0584 -0.4272 1.0000
50.0938 7.2115 -0.4274 1.0000
50.0938 7.5180 -0.4278 1.0000
50.0938 7.6715 -0.4280 1.0000
50.0938 7.8250 -0.4282 1.0000
50.0938 7.9787 -0.4284 1.0000
50.0938 8.1327 -0.4286 1.0000
50.0938 8.2867 -0.4288 1.0000
50.0938 8.4409 -0.4290 1.0000
50.0938 8.5952 -0.4292 1.0000
50.0938 8.7497 -0.4295 1.0000
50.0938 9.0592 -0.4299 1.0000
50.0938 9.2142 -0.4302 1.0000
50.0938 9.5247 -0.4306 1.0000
50.0938 9.8359 -0.4311 1.0000
50.0938 9.9918 -0.4314 1.0000
50.0938 10.4605 -0.4322 1.0000
50.0938 10.7741 -0.4327 1.0000
50.0938 11.4035 -0.4339 1.0000
50.0938 11.5613 -0.4342 1.0000
50.0938 11.7195 -0.4345 1.0000
50.0938 11.8778 -0.4348 1.0000
50.0938 12.3541 -0.4357 1.0000
50.0938 12.8326 -0.4367 1.0000
50.0938 13.1527 -0.4374 1.0000
50.0938 13.3132 -0.4377 1.0000
50.0938 -13.3713 -0.4379 1.0000
50.0938 -13.2107 -0.4375 1.0000
50.0938 -13.0504 -0.4372 1.0000
50.0938 -12.5710 -0.4362 1.0000
50.0938 -11.9350 -0.4349 1.0000
50.0938 -11.6184 -0.4343 1.0000
50.0938 -11.3028 -0.4337 1.0000
50.0938 -11.1452 -0.4334 1.0000
50.0938 -10.9879 -0.4331 1.0000
50.0938 -10.8307 -0.4328 1.0000
50.0938 -10.6739 -0.4326 1.0000
50.0938 -10.3607 -0.4320 1.0000
50.0938 -9.8922 -0.4312 1.0000
50.0938 -9.7365 -0.4310 1.0000
50.0938 -9.1152 -0.4300 1.0000
50.0938 -8.9603 -0.4298 1.0000
50.0938 -8.8056 -0.4295 1.0000
50.0938 -8.1883 -0.4287 1.0000
50.0938 -8.0343 -0.4285 1.0000
50.0937 -7.2669 -0.4275 1.0000
50.0938 -7.1138 -0.4273 1.0000
50.0937 -6.9608 -0.4271 1.0000
50.0937 -6.8080 -0.4269 1.0000
50.0937 -6.5027 -0.4266 1.0000
50.0937 -5.7414 -0.4258 1.0000
50.0937 -5.5895 -0.4257 1.0000
50.0937 -5.2860 -0.4254 1.0000
50.0937 -5.1344 -0.4253 1.0000
50.0937 -4.8314 -0.4250 1.0000
50.0937 -4.2264 -0.4246 1.0000
50.0937 -3.7736 -0.4243 1.0000
50.0937 -3.4720 -0.4241 1.0000
50.0937 -3.3213 -0.4240 1.0000
50.0937 -3.1707 -0.4239 1.0000
50.0937 -2.7191 -0.4237 1.0000
50.0937 -2.5687 -0.4236 1.0000
50.0937 -2.4183 -0.4236 1.0000
50.0938 -2.2680 -0.4235 1.0000
50.0938 -2.1177 -0.4234 1.0000
50.0938 -1.9674 -0.4234 1.0000
44.8220 -1.6260 -0.3788 1.0000
44.8261 -1.4917 -0.3788 1.0000
44.8302 -1.3575 -0.3788 1.0000
44.8230 -0.8200 -0.3786 1.0000
50.0938 -0.3164 -0.4231 1.0000
50.0938 0.2836 -0.4231 1.0000
50.0938 0.4337 -0.4231 1.0000
50.0938 0.5837 -0.4231 1.0000
50.0938 0.7337 -0.4231 1.0000
50.0938 0.8837 -0.4231 1.0000
44.9655 1.0627 -0.3799 1.0000
44.9696 1.1975 -0.3799 1.0000
44.9750 1.4672 -0.3800 1.0000
44.9728 1.6020 -0.3801 1.0000
50.0938 2.2352 -0.4235 1.0000
50.0938 2.3855 -0.4235 1.0000
50.0938 2.5359 -0.4236 1.0000
50.0938 3.1378 -0.4239 1.0000
50.0938 3.2884 -0.4240 1.0000
50.0938 4.0425 -0.4244 1.0000
27.4796 -2.7452 -0.6998 1.0000
27.4887 -2.6630 -0.6998 1.0000
27.4975 -2.5809 -0.6999 1.0000
27.5062 -2.4985 -0.6999 1.0000
27.5304 -2.2516 -0.7000 1.0000
27.5452 -2.0869 -0.7000 1.0000
27.5591 -1.9221 -0.7001 1.0000
27.5657 -1.8395 -0.7001 1.0000
27.5721 -1.7571 -0.7001 1.0000
27.5782 -1.6745 -0.7001 1.0000
27.5841 -1.5920 -0.7002 1.0000
27.5896 -1.5096 -0.7002 1.0000
27.5948 -1.4269 -0.7002 1.0000
27.6095 -1.1791 -0.7003 1.0000
27.6219 -0.9312 -0.7004 1.0000
27.6287 -0.7656 -0.7004 1.0000
27.6320 -0.6830 -0.7004 1.0000
27.6418 -0.3520 -0.7005 1.0000
27.6454 -0.1864 -0.7006 1.0000
27.6466 -0.1037 -0.7006 1.0000
27.6486 0.0619 -0.7006 1.0000
27.6496 0.2276 -0.7007 1.0000
27.6496 0.3931 -0.7007 1.0000
27.6492 0.4758 -0.7008 1.0000
27.6486 0.5587 -0.7008 1.0000
27.6467 0.7244 -0.7008 1.0000
27.6452 0.8072 -0.7009 1.0000
27.6437 0.8900 -0.7009 1.0000
27.6418 0.9728 -0.7009 1.0000
27.6256 1.4695 -0.7010 1.0000
27.6137 1.7178 -0.7011 1.0000
27.6094 1.8005 -0.7011 1.0000
27.5999 1.9659 -0.7012 1.0000
27.5893 2.1313 -0.7012 1.0000
27.5655 2.4620 -0.7013 1.0000
27.5589 2.5446 -0.7013 1.0000
27.5521 2.6271 -0.7014 1.0000
27.5450 2.7097 -0.7014 1.0000
27.5301 2.8749 -0.7014 1.0000
27.5223 2.9573 -0.7014 1.0000
27.5142 3.0399 -0.7015 1.0000
27.5056 3.1223 -0.7015 1.0000
27.4699 3.4521 -0.7016 1.0000
27.4404 3.6990 -0.7017 1.0000
27.4300 3.7813 -0.7017 1.0000
27.4196 3.8635 -0.7017 1.0000
27.3976 4.0280 -0.7017 1.0000
27.3861 4.1101 -0.7018 1.0000
27.3748 4.1922 -0.7018 1.0000
27.3628 4.2743 -0.7018 1.0000
27.3384 4.4384 -0.7018 1.0000
27.3131 4.6023 -0.7019 1.0000
27.3000 4.6842 -0.7019 1.0000
27.2731 4.8479 -0.7020 1.0000
27.2594 4.9298 -0.7020 1.0000
27.2451 5.0114 -0.7020 1.0000
27.2164 5.1748 -0.7020 1.0000
27.2017 5.2565 -0.7021 1.0000
27.1400 5.5826 -0.7021 1.0000
27.0912 5.8268 -0.7022 1.0000
27.0575 5.9892 -0.7023 1.0000
27.0402 6.0705 -0.7023 1.0000
27.0050 6.2326 -0.7023 1.0000
26.9870 6.3136 -0.7023 1.0000
26.9688 6.3946 -0.7024 1.0000
26.9502 6.4755 -0.7024 1.0000
26.9127 6.6372 -0.7024 1.0000
26.8934 6.7180 -0.7024 1.0000
26.8544 6.8793 -0.7025 1.0000
26.8343 6.9598 -0.7025 1.0000
26.8142 7.0404 -0.7025 1.0000
26.7938 7.1209 -0.7025 1.0000
26.6311 -7.1085 -0.6985 1.0000
26.7180 -6.7900 -0.6986 1.0000
26.8014 -6.4705 -0.6987 1.0000
26.8217 -6.3904 -0.6987 1.0000
26.8416 -6.3102 -0.6987 1.0000
26.9190 -5.9891 -0.6988 1.0000
26.9380 -5.9088 -0.6989 1.0000
26.9929 -5.6671 -0.6989 1.0000
27.0106 -5.5866 -0.6990 1.0000
27.1286 -5.0204 -0.6991 1.0000
27.1444 -4.9393 -0.6992 1.0000
27.1755 -4.7770 -0.6992 1.0000
27.1906 -4.6957 -0.6992 1.0000
27.2056 -4.6145 -0.6993 1.0000
27.2203 -4.5331 -0.6993 1.0000
27.3032 -4.0443 -0.6994 1.0000
27.3160 -3.9625 -0.6995 1.0000
27.3412 -3.7991 -0.6995 1.0000
27.4215 -3.2262 -0.6997 1.0000
27.4322 -3.1441 -0.6997 1.0000
27.4425 -3.0620 -0.6997 1.0000
27.4524 -2.9799 -0.6998 1.0000
27.4621 -2.8978 -0.6998 1.0000
27.4987 -2.5690 -0.6999 1.0000
27.5235 -2.3222 -0.6999 1.0000
27.5389 -2.1575 -0.7000 1.0000
27.5601 -1.9102 -0.7001 1.0000
27.5666 -1.8277 -0.7001 1.0000
27.5789 -1.6627 -0.7001 1.0000
27.5848 -1.5802 -0.7002 1.0000
27.6007 -1.3324 -0.7002 1.0000
27.6055 -1.2498 -0.7003 1.0000
27.6102 -1.1672 -0.7003 1.0000
27.6144 -1.0846 -0.7003 1.0000
27.6185 -1.0019 -0.7003 1.0000
27.6223 -0.9192 -0.7004 1.0000
27.6260 -0.8366 -0.7004 1.0000
27.6293 -0.7539 -0.7004 1.0000
27.6323 -0.6711 -0.7004 1.0000
27.6376 -0.5057 -0.7005 1.0000
27.6402 -0.4229 -0.7005 1.0000
27.6421 -0.3401 -0.7005 1.0000
27.6440 -0.2573 -0.7005 1.0000
27.6455 -0.1746 -0.7006 1.0000
27.6468 -0.0919 -0.7006 1.0000
27.6480 -0.0092 -0.7006 1.0000
27.6488 0.0737 -0.7006 1.0000
27.6494 0.1565 -0.7007 1.0000
27.6497 0.2393 -0.7007 1.0000
27.6498 0.3222 -0.7007 1.0000
27.6498 0.4050 -0.7007 1.0000
27.6492 0.4878 -0.7008 1.0000
27.6486 0.5705 -0.7008 1.0000
27.6466 0.7362 -0.7008 1.0000
27.6452 0.8190 -0.7009 1.0000
27.6435 0.9018 -0.7009 1.0000
27.6342 1.2330 -0.7010 1.0000
27.6314 1.3159 -0.7010 1.0000
27.6283 1.3986 -0.7010 1.0000
27.6249 1.4814 -0.7010 1.0000
27.6213 1.5642 -0.7011 1.0000
27.6131 1.7296 -0.7011 1.0000
27.5886 2.1432 -0.7012 1.0000
16.4572 -1.6441 -0.6988 1.0000
16.4624 -1.5948 -0.6988 1.0000
16.4673 -1.5455 -0.6988 1.0000
16.4770 -1.4469 -0.6988 1.0000
16.4904 -1.2990 -0.6989 1.0000
16.4986 -1.2003 -0.6989 1.0000
16.5024 -1.1509 -0.6989 1.0000
16.5061 -1.1014 -0.6989 1.0000
16.5132 -1.0027 -0.6990 1.0000
16.5164 -0.9532 -0.6990 1.0000
16.5225 -0.8544 -0.6990 1.0000
16.5280 -0.7554 -0.6990 1.0000
16.5329 -0.6564 -0.6991 1.0000
16.5351 -0.6070 -0.6991 1.0000
16.5372 -0.5575 -0.6991 1.0000
16.5391 -0.5080 -0.6991 1.0000
16.5441 -0.3593 -0.6992 1.0000
16.5485 -0.1611 -0.6992 1.0000
16.5498 -0.0621 -0.6992 1.0000
16.5503 -0.0126 -0.6993 1.0000
16.5505 0.0371 -0.6993 1.0000
16.5508 0.0865 -0.6993 1.0000
16.5506 0.1858 -0.6993 1.0000
16.5493 0.3344 -0.6994 1.0000
16.5486 0.3840 -0.6994 1.0000
16.5454 0.5326 -0.6994 1.0000
16.5440 0.5822 -0.6994 1.0000
16.5409 0.6813 -0.6995 1.0000
16.5392 0.7308 -0.6995 1.0000
16.5351 0.8299 -0.6995 1.0000
16.5253 1.0279 -0.6996 1.0000
16.5195 1.1270 -0.6996 1.0000
16.4985 1.4237 -0.6997 1.0000
16.4944 1.4731 -0.6997 1.0000
16.4860 1.5720 -0.6997 1.0000
16.4816 1.6213 -0.6997 1.0000
16.4721 1.7201 -0.6997 1.0000
16.4673 1.7695 -0.6998 1.0000
16.4622 1.8189 -0.6998 1.0000
16.4571 1.8682 -0.6998 1.0000
16.4517 1.9174 -0.6998 1.0000
16.4405 2.0160 -0.6998 1.0000
16.4347 2.0653 -0.6998 1.0000
16.4288 2.1146 -0.6999 1.0000
16.4164 2.2130 -0.6999 1.0000
16.4035 2.3113 -0.6999 1.0000
16.3968 2.3605 -0.6999 1.0000
16.3900 2.4096 -0.6999 1.0000
16.3829 2.4588 -0.6999 1.0000
16.3536 2.6549 -0.7000 1.0000
16.3300 2.8019 -0.7000 1.0000
16.3218 2.8510 -0.7000 1.0000
16.2964 2.9975 -0.7001 1.0000
16.2789 3.0952 -0.7001 1.0000
16.2606 3.1926 -0.7001 1.0000
16.2124 3.4362 -0.7002 1.0000
16.1921 3.5334 -0.7002 1.0000
16.1712 3.6304 -0.7003 1.0000
16.1606 3.6788 -0.7003 1.0000
16.1497 3.7273 -0.7003 1.0000
16.1388 3.7757 -0.7003 1.0000
16.1165 3.8724 -0.7003 1.0000
16.1050 3.9206 -0.7003 1.0000
16.0936 3.9689 -0.7003 1.0000
16.0819 4.0173 -0.7004 1.0000
16.0338 4.2099 -0.7004 1.0000
15.9612 -4.2605 -0.6980 1.0000
15.9871 -4.1650 -0.6980 1.0000
15.9998 -4.1172 -0.6980 1.0000
16.0494 -3.9257 -0.6981 1.0000
16.1081 -3.6853 -0.6982 1.0000
16.1416 -3.5406 -0.6982 1.0000
16.1633 -3.4440 -0.6982 1.0000
16.1843 -3.3474 -0.6983 1.0000
16.1945 -3.2988 -0.6983 1.0000
16.2048 -3.2504 -0.6983 1.0000
16.2148 -3.2020 -0.6983 1.0000
16.2246 -3.1535 -0.6983 1.0000
16.2533 -3.0078 -0.6984 1.0000
16.2626 -2.9592 -0.6984 1.0000
16.2807 -2.8619 -0.6984 1.0000
16.2895 -2.8132 -0.6984 1.0000
16.2984 -2.7644 -0.6984 1.0000
16.3068 -2.7157 -0.6985 1.0000
16.3152 -2.6669 -0.6985 1.0000
16.3316 -2.5692 -0.6985 1.0000
16.3474 -2.4715 -0.6985 1.0000
16.3551 -2.4227 -0.6986 1.0000
16.3627 -2.3736 -0.6986 1.0000
16.3700 -2.3246 -0.6986 1.0000
16.3844 -2.2266 -0.6986 1.0000
16.3912 -2.1777 -0.6986 1.0000
16.4357 -1.8339 -0.6987 1.0000
16.4472 -1.7355 -0.6988 1.0000
16.4525 -1.6863 -0.6988 1.0000
16.4579 -1.6370 -0.6988 1.0000
16.4631 -1.5878 -0.6988 1.0000
16.4730 -1.4892 -0.6988 1.0000
16.4868 -1.3413 -0.6989 1.0000
16.4952 -1.2425 -0.6989 1.0000
16.4991 -1.1932 -0.6989 1.0000
16.5102 -1.0450 -0.6990 1.0000
16.5309 -0.6988 -0.6991 1.0000
16.5355 -0.5999 -0.6991 1.0000
16.5376 -0.5504 -0.6991 1.0000
16.5412 -0.4514 -0.6991 1.0000
16.5428 -0.4017 -0.6992 1.0000
16.5467 -0.2532 -0.6992 1.0000
16.5493 -0.1046 -0.6992 1.0000
16.5499 -0.0550 -0.6993 1.0000
16.5504 -0.0054 -0.6993 1.0000
16.5506 0.0442 -0.6993 1.0000
16.5507 0.0938 -0.6993 1.0000
16.5508 0.1433 -0.6993 1.0000
16.5505 0.1929 -0.6993 1.0000
16.5491 0.3416 -0.6994 1.0000
16.5464 0.4901 -0.6994 1.0000
16.5423 0.6389 -0.6994 1.0000
16.5389 0.7380 -0.6995 1.0000
16.5326 0.8866 -0.6995 1.0000
16.5276 0.9856 -0.6995 1.0000
16.5249 1.0352 -0.6996 1.0000
16.5220 1.0846 -0.6996 1.0000
16.5191 1.1341 -0.6996 1.0000
16.5159 1.1837 -0.6996 1.0000
11.7409 -1.1730 -0.6983 1.0000
11.7446 -1.1378 -0.6984 1.0000
11.7515 -1.0674 -0.6984 1.0000
11.7548 -1.0323 -0.6984 1.0000
11.7612 -0.9619 -0.6984 1.0000
11.7642 -0.9266 -0.6984 1.0000
11.7698 -0.8563 -0.6984 1.0000
11.7822 -0.6800 -0.6985 1.0000
11.7884 -0.5741 -0.6985 1.0000
11.7902 -0.5389 -0.6985 1.0000
11.7936 -0.4682 -0.6986 1.0000
11.7952 -0.4329 -0.6986 1.0000
11.7966 -0.3976 -0.6986 1.0000
11.7978 -0.3623 -0.6986 1.0000
11.7990 -0.3269 -0.6986 1.0000
11.8011 -0.2563 -0.6986 1.0000
11.8020 -0.2209 -0.6986 1.0000
11.8035 -0.1503 -0.6986 1.0000
11.8040 -0.1149 -0.6987 1.0000
11.8045 -0.0796 -0.6987 1.0000
11.8048 -0.0443 -0.6987 1.0000
11.8053 0.0618 -0.6987 1.0000
11.8052 0.0972 -0.6987 1.0000
11.8050 0.1325 -0.6987 1.0000
11.8044 0.2032 -0.6987 1.0000
11.8033 0.2738 -0.6988 1.0000
11.8018 0.3446 -0.6988 1.0000
11.8008 0.3800 -0.6988 1.0000
11.7998 0.4154 -0.6988 1.0000
11.7974 0.4858 -0.6988 1.0000
11.7947 0.5567 -0.6988 1.0000
11.7914 0.6273 -0.6989 1.0000
11.7897 0.6626 -0.6989 1.0000
11.7878 0.6979 -0.6989 1.0000
11.7838 0.7685 -0.6989 1.0000
11.7816 0.8037 -0.6989 1.0000
11.7793 0.8390 -0.6989 1.0000
11.7744 0.9095 -0.6989 1.0000
11.7691 0.9802 -0.6990 1.0000
11.7662 1.0154 -0.6990 1.0000
11.7633 1.0506 -0.6990 1.0000
11.7602 1.0858 -0.6990 1.0000
11.7505 1.1915 -0.6990 1.0000
11.7471 1.2268 -0.6990 1.0000
11.7398 1.2971 -0.6990 1.0000
11.7360 1.3322 -0.6991 1.0000
11.7322 1.3674 -0.6991 1.0000
11.7241 1.4377 -0.6991 1.0000
11.7155 1.5079 -0.6991 1.0000
11.7112 1.5430 -0.6991 1.0000
11.6973 1.6483 -0.6991 1.0000
11.6773 1.7882 -0.6992 1.0000
11.6668 1.8582 -0.6992 1.0000
11.6613 1.8932 -0.6992 1.0000
11.6500 1.9631 -0.6992 1.0000
11.6324 2.0677 -0.6993 1.0000
11.6263 2.1025 -0.6993 1.0000
11.6201 2.1375 -0.6993 1.0000
11.6138 2.1722 -0.6993 1.0000
11.6009 2.2418 -0.6993 1.0000
11.5876 2.3113 -0.6993 1.0000
11.5807 2.3460 -0.6993 1.0000
11.5596 2.4500 -0.6994 1.0000
11.5524 2.4847 -0.6994 1.0000
11.5376 2.5539 -0.6994 1.0000
11.5146 2.6575 -0.6994 1.0000
11.5068 2.6920 -0.6994 1.0000
11.4988 2.7265 -0.6994 1.0000
11.4907 2.7610 -0.6994 1.0000
11.4825 2.7953 -0.6994 1.0000
11.4743 2.8298 -0.6995 1.0000
11.4659 2.8642 -0.6995 1.0000
11.4574 2.8984 -0.6995 1.0000
11.4488 2.9329 -0.6995 1.0000
11.3909 -3.0406 -0.6978 1.0000
11.4001 -3.0064 -0.6978 1.0000
11.4182 -2.9382 -0.6978 1.0000
11.4786 -2.6985 -0.6979 1.0000
11.5029 -2.5954 -0.6979 1.0000
11.5186 -2.5265 -0.6979 1.0000
11.5487 -2.3886 -0.6980 1.0000
11.5560 -2.3541 -0.6980 1.0000
11.5632 -2.3194 -0.6980 1.0000
11.5772 -2.2502 -0.6980 1.0000
11.6040 -2.1116 -0.6981 1.0000
11.6105 -2.0767 -0.6981 1.0000
11.6169 -2.0420 -0.6981 1.0000
11.6353 -1.9377 -0.6981 1.0000
11.6583 -1.7983 -0.6982 1.0000
11.6693 -1.7285 -0.6982 1.0000
11.6898 -1.5887 -0.6982 1.0000
11.6947 -1.5537 -0.6982 1.0000
11.7041 -1.4837 -0.6983 1.0000
11.7087 -1.4487 -0.6983 1.0000
11.7175 -1.3785 -0.6983 1.0000
11.7300 -1.2733 -0.6983 1.0000
11.7520 -1.0625 -0.6984 1.0000
11.7585 -0.9921 -0.6984 1.0000
11.7616 -0.9569 -0.6984 1.0000
11.7675 -0.8864 -0.6984 1.0000
11.7703 -0.8512 -0.6984 1.0000
11.7729 -0.8160 -0.6984 1.0000
11.7803 -0.7103 -0.6985 1.0000
11.7867 -0.6044 -0.6985 1.0000
11.7886 -0.5691 -0.6985 1.0000
11.7905 -0.5339 -0.6985 1.0000
11.7922 -0.4984 -0.6985 1.0000
11.7953 -0.4279 -0.6986 1.0000
11.7980 -0.3572 -0.6986 1.0000
11.7992 -0.3220 -0.6986 1.0000
11.8013 -0.2513 -0.6986 1.0000
11.8029 -0.1806 -0.6986 1.0000
11.8036 -0.1452 -0.6986 1.0000
11.8041 -0.1099 -0.6987 1.0000
11.8046 -0.0746 -0.6987 1.0000
11.8051 -0.0039 -0.6987 1.0000
11.8053 0.0315 -0.6987 1.0000
11.8053 0.0669 -0.6987 1.0000
11.8050 0.1375 -0.6987 1.0000
11.8038 0.2436 -0.6988 1.0000
11.8017 0.3496 -0.6988 1.0000
11.7997 0.4203 -0.6988 1.0000
11.7945 0.5616 -0.6988 1.0000
11.7929 0.5970 -0.6989 1.0000
11.7894 0.6677 -0.6989 1.0000
11.7856 0.7382 -0.6989 1.0000
11.7834 0.7735 -0.6989 1.0000
11.7812 0.8088 -0.6989 1.0000
11.7789 0.8441 -0.6989 1.0000
11.7740 0.9147 -0.6989 1.0000
11.7713 0.9499 -0.6990 1.0000
9.1217 -0.9113 -0.6981 1.0000
9.1298 -0.8294 -0.6981 1.0000
9.1348 -0.7746 -0.6981 1.0000
9.1372 -0.7473 -0.6981 1.0000
9.1417 -0.6926 -0.6982 1.0000
9.1439 -0.6652 -0.6982 1.0000
9.1459 -0.6378 -0.6982 1.0000
9.1533 -0.5283 -0.6982 1.0000
9.1550 -0.5009 -0.6982 1.0000
9.1565 -0.4735 -0.6982 1.0000
9.1580 -0.4460 -0.6982 1.0000
9.1594 -0.4186 -0.6982 1.0000
9.1652 -0.2815 -0.6983 1.0000
9.1661 -0.2541 -0.6983 1.0000
9.1669 -0.2266 -0.6983 1.0000
9.1683 -0.1717 -0.6983 1.0000
9.1694 -0.1168 -0.6983 1.0000
9.1698 -0.0893 -0.6983 1.0000
9.1701 -0.0619 -0.6983 1.0000
9.1706 0.0205 -0.6984 1.0000
9.1704 0.1029 -0.6984 1.0000
9.1694 0.1854 -0.6984 1.0000
9.1689 0.2127 -0.6984 1.0000
9.1669 0.2951 -0.6984 1.0000
9.1642 0.3775 -0.6985 1.0000
9.1631 0.4049 -0.6985 1.0000
9.1620 0.4324 -0.6985 1.0000
9.1607 0.4598 -0.6985 1.0000
9.1580 0.5147 -0.6985 1.0000
9.1565 0.5421 -0.6985 1.0000
9.1550 0.5696 -0.6985 1.0000
9.1533 0.5969 -0.6985 1.0000
9.1516 0.6244 -0.6985 1.0000
9.1459 0.7065 -0.6986 1.0000
9.1395 0.7886 -0.6986 1.0000
9.1372 0.8161 -0.6986 1.0000
9.1323 0.8709 -0.6986 1.0000
9.1245 0.9528 -0.6986 1.0000
9.1187 1.0075 -0.6986 1.0000
9.1158 1.0347 -0.6987 1.0000
9.1064 1.1167 -0.6987 1.0000
9.0997 1.1713 -0.6987 1.0000
9.0778 1.3346 -0.6987 1.0000
9.0573 1.4704 -0.6988 1.0000
9.0485 1.5247 -0.6988 1.0000
9.0440 1.5517 -0.6988 1.0000
9.0394 1.5788 -0.6988 1.0000
9.0251 1.6601 -0.6988 1.0000
9.0049 1.7681 -0.6988 1.0000
8.9997 1.7951 -0.6989 1.0000
8.9944 1.8220 -0.6989 1.0000
8.9835 1.8760 -0.6989 1.0000
8.9722 1.9297 -0.6989 1.0000
8.9367 2.0907 -0.6989 1.0000
8.9242 2.1443 -0.6989 1.0000
8.9114 2.1976 -0.6990 1.0000
8.9048 2.2244 -0.6990 1.0000
8.8982 2.2512 -0.6990 1.0000
8.8513 -2.3626 -0.6977 1.0000
8.8585 -2.3361 -0.6977 1.0000
8.8655 -2.3097 -0.6977 1.0000
8.8862 -2.2300 -0.6977 1.0000
8.8997 -2.1768 -0.6977 1.0000
8.9128 -2.1235 -0.6977 1.0000
8.9255 -2.0702 -0.6977 1.0000
8.9318 -2.0434 -0.6978 1.0000
8.9501 -1.9632 -0.6978 1.0000
8.9560 -1.9364 -0.6978 1.0000
8.9619 -1.9096 -0.6978 1.0000
8.9677 -1.8828 -0.6978 1.0000
8.9734 -1.8560 -0.6978 1.0000
8.9790 -1.8291 -0.6978 1.0000
8.9900 -1.7753 -0.6978 1.0000
8.9954 -1.7484 -0.6978 1.0000
9.0059 -1.6945 -0.6979 1.0000
9.0211 -1.6136 -0.6979 1.0000
9.0260 -1.5866 -0.6979 1.0000
9.0448 -1.4785 -0.6979 1.0000
9.0580 -1.3972 -0.6980 1.0000
9.0623 -1.3701 -0.6980 1.0000
9.0664 -1.3429 -0.6980 1.0000
9.0823 -1.2343 -0.6980 1.0000
9.0861 -1.2071 -0.6980 1.0000
9.0934 -1.1527 -0.6980 1.0000
9.0969 -1.1255 -0.6980 1.0000
9.1069 -1.0438 -0.6981 1.0000
9.1132 -0.9892 -0.6981 1.0000
9.1163 -0.9619 -0.6981 1.0000
9.1192 -0.9347 -0.6981 1.0000
9.1249 -0.8800 -0.6981 1.0000
9.1302 -0.8255 -0.6981 1.0000
9.1352 -0.7707 -0.6981 1.0000
9.1376 -0.7434 -0.6981 1.0000
9.1398 -0.7160 -0.6982 1.0000
9.1421 -0.6887 -0.6982 1.0000
9.1441 -0.6613 -0.6982 1.0000
9.1501 -0.5791 -0.6982 1.0000
9.1519 -0.5517 -0.6982 1.0000
9.1552 -0.4970 -0.6982 1.0000
9.1582 -0.4421 -0.6982 1.0000
9.1621 -0.3598 -0.6983 1.0000
9.1644 -0.3049 -0.6983 1.0000
9.1653 -0.2776 -0.6983 1.0000
9.1670 -0.2227 -0.6983 1.0000
9.1677 -0.1951 -0.6983 1.0000
9.1689 -0.1404 -0.6983 1.0000
9.1695 -0.1128 -0.6983 1.0000
9.1706 0.0244 -0.6984 1.0000
9.1701 0.1343 -0.6984 1.0000
9.1697 0.1618 -0.6984 1.0000
9.1693 0.1892 -0.6984 1.0000
9.1688 0.2166 -0.6984 1.0000
9.1682 0.2441 -0.6984 1.0000
9.1675 0.2716 -0.6984 1.0000
9.1668 0.2990 -0.6984 1.0000
9.1650 0.3540 -0.6985 1.0000
9.1640 0.3814 -0.6985 1.0000
9.1630 0.4088 -0.6985 1.0000
9.1592 0.4912 -0.6985 1.0000
9.1578 0.5187 -0.6985 1.0000
9.1513 0.6283 -0.6985 1.0000
9.1495 0.6557 -0.6985 1.0000
9.1476 0.6830 -0.6986 1.0000
9.1456 0.7104 -0.6986 1.0000
9.1435 0.7379 -0.6986 1.0000
7.4544 -0.7447 -0.6979 1.0000
7.4651 -0.6329 -0.6980 1.0000
7.4707 -0.5659 -0.6980 1.0000
7.4724 -0.5437 -0.6980 1.0000
7.4740 -0.5213 -0.6980 1.0000
7.4787 -0.4541 -0.6980 1.0000
7.4800 -0.4317 -0.6980 1.0000
7.4814 -0.4093 -0.6980 1.0000
7.4827 -0.3869 -0.6980 1.0000
7.4850 -0.3421 -0.6981 1.0000
7.4860 -0.3196 -0.6981 1.0000
7.4888 -0.2524 -0.6981 1.0000
7.4896 -0.2300 -0.6981 1.0000
7.4910 -0.1851 -0.6981 1.0000
7.4921 -0.1404 -0.6981 1.0000
7.4929 -0.0954 -0.6981 1.0000
7.4933 -0.0729 -0.6981 1.0000
7.4937 -0.0281 -0.6982 1.0000
7.4934 0.1065 -0.6982 1.0000
7.4928 0.1515 -0.6982 1.0000
7.4923 0.1738 -0.6982 1.0000
7.4918 0.1963 -0.6982 1.0000
7.4875 0.3308 -0.6983 1.0000
7.4855 0.3758 -0.6983 1.0000
7.4833 0.4206 -0.6983 1.0000
7.4821 0.4430 -0.6983 1.0000
7.4794 0.4878 -0.6983 1.0000
7.4765 0.5325 -0.6983 1.0000
7.4716 0.5997 -0.6983 1.0000
7.4680 0.6445 -0.6983 1.0000
7.4661 0.6668 -0.6983 1.0000
7.4579 0.7562 -0.6984 1.0000
7.4533 0.8008 -0.6984 1.0000
7.4509 0.8231 -0.6984 1.0000
7.4485 0.8455 -0.6984 1.0000
7.4460 0.8678 -0.6984 1.0000
7.4408 0.9124 -0.6984 1.0000
7.4325 0.9793 -0.6984 1.0000
7.4296 1.0015 -0.6984 1.0000
7.4266 1.0237 -0.6984 1.0000
7.4236 1.0461 -0.6984 1.0000
7.4205 1.0682 -0.6985 1.0000
7.4173 1.0905 -0.6985 1.0000
7.4141 1.1127 -0.6985 1.0000
7.4040 1.1793 -0.6985 1.0000
7.4005 1.2014 -0.6985 1.0000
7.3933 1.2458 -0.6985 1.0000
7.3896 1.2679 -0.6985 1.0000
7.3858 1.2901 -0.6985 1.0000
7.3820 1.3122 -0.6985 1.0000
7.3701 1.3785 -0.6985 1.0000
7.3618 1.4226 -0.6985 1.0000
7.3576 1.4446 -0.6986 1.0000
7.3445 1.5108 -0.6986 1.0000
7.3354 1.5546 -0.6986 1.0000
7.3308 1.5767 -0.6986 1.0000
7.3213 1.6205 -0.6986 1.0000
7.3116 1.6644 -0.6986 1.0000
7.3067 1.6863 -0.6986 1.0000
7.3016 1.7083 -0.6986 1.0000
7.2965 1.7301 -0.6986 1.0000
7.2914 1.7520 -0.6986 1.0000
7.2862 1.7738 -0.6986 1.0000
7.2755 1.8175 -0.6986 1.0000
7.2646 1.8610 -0.6987 1.0000
7.2591 1.8827 -0.6987 1.0000
7.2343 -1.9311 -0.6976 1.0000
7.2459 -1.8877 -0.6976 1.0000
7.2683 -1.8008 -0.6976 1.0000
7.2790 -1.7574 -0.6976 1.0000
7.2896 -1.7137 -0.6976 1.0000
7.2999 -1.6700 -0.6977 1.0000
7.3148 -1.6044 -0.6977 1.0000
7.3196 -1.5826 -0.6977 1.0000
7.3429 -1.4729 -0.6977 1.0000
7.3517 -1.4289 -0.6977 1.0000
7.3603 -1.3849 -0.6977 1.0000
7.3645 -1.3628 -0.6978 1.0000
7.3686 -1.3408 -0.6978 1.0000
7.3726 -1.3187 -0.6978 1.0000
7.3806 -1.2746 -0.6978 1.0000
7.3844 -1.2525 -0.6978 1.0000
7.3882 -1.2304 -0.6978 1.0000
7.3919 -1.2083 -0.6978 1.0000
7.3992 -1.1641 -0.6978 1.0000
7.4095 -1.0975 -0.6978 1.0000
7.4161 -1.0531 -0.6978 1.0000
7.4285 -0.9643 -0.6979 1.0000
7.4314 -0.9420 -0.6979 1.0000
7.4398 -0.8753 -0.6979 1.0000
7.4424 -0.8529 -0.6979 1.0000
7.4500 -0.7862 -0.6979 1.0000
7.4570 -0.7193 -0.6979 1.0000
7.4654 -0.6298 -0.6980 1.0000
7.4691 -0.5851 -0.6980 1.0000
7.4709 -0.5628 -0.6980 1.0000
7.4759 -0.4956 -0.6980 1.0000
7.4788 -0.4509 -0.6980 1.0000
7.4803 -0.4285 -0.6980 1.0000
7.4862 -0.3165 -0.6981 1.0000
7.4871 -0.2940 -0.6981 1.0000
7.4881 -0.2717 -0.6981 1.0000
7.4889 -0.2492 -0.6981 1.0000
7.4904 -0.2044 -0.6981 1.0000
7.4911 -0.1820 -0.6981 1.0000
7.4916 -0.1595 -0.6981 1.0000
7.4926 -0.1146 -0.6981 1.0000
7.4930 -0.0922 -0.6981 1.0000
7.4933 -0.0697 -0.6981 1.0000
7.4937 -0.0250 -0.6982 1.0000
7.4938 -0.0025 -0.6982 1.0000
7.4938 0.0200 -0.6982 1.0000
7.4938 0.0424 -0.6982 1.0000
7.4936 0.0873 -0.6982 1.0000
7.4933 0.1097 -0.6982 1.0000
7.4923 0.1770 -0.6982 1.0000
7.4912 0.2219 -0.6982 1.0000
7.4906 0.2444 -0.6982 1.0000
7.4899 0.2669 -0.6982 1.0000
7.4891 0.2893 -0.6982 1.0000
7.4864 0.3565 -0.6983 1.0000
7.4843 0.4014 -0.6983 1.0000
7.4819 0.4462 -0.6983 1.0000
7.4792 0.4911 -0.6983 1.0000
7.4763 0.5357 -0.6983 1.0000
7.4731 0.5805 -0.6983 1.0000
6.2994 -0.6293 -0.6978 1.0000
6.3013 -0.6104 -0.6978 1.0000
6.3031 -0.5916 -0.6978 1.0000
6.3049 -0.5728 -0.6979 1.0000
6.3066 -0.5539 -0.6979 1.0000
6.3099 -0.5161 -0.6979 1.0000
6.3115 -0.4971 -0.6979 1.0000
6.3145 -0.4593 -0.6979 1.0000
6.3159 -0.4405 -0.6979 1.0000
6.3197 -0.3837 -0.6979 1.0000
6.3209 -0.3648 -0.6979 1.0000
6.3241 -0.3080 -0.6979 1.0000
6.3250 -0.2891 -0.6979 1.0000
6.3267 -0.2512 -0.6979 1.0000
6.3282 -0.2133 -0.6980 1.0000
6.3289 -0.1944 -0.6980 1.0000
6.3295 -0.1754 -0.6980 1.0000
6.3300 -0.1565 -0.6980 1.0000
6.3313 -0.0996 -0.6980 1.0000
6.3316 -0.0806 -0.6980 1.0000
6.3319 -0.0616 -0.6980 1.0000
6.3323 -0.0238 -0.6980 1.0000
6.3324 0.0141 -0.6980 1.0000
6.3324 0.0332 -0.6980 1.0000
6.3322 0.0711 -0.6980 1.0000
6.3311 0.1469 -0.6981 1.0000
6.3306 0.1658 -0.6981 1.0000
6.3296 0.2037 -0.6981 1.0000
6.3277 0.2607 -0.6981 1.0000
6.3269 0.2796 -0.6981 1.0000
6.3261 0.2986 -0.6981 1.0000
6.3252 0.3175 -0.6981 1.0000
6.3243 0.3364 -0.6981 1.0000
6.3233 0.3554 -0.6981 1.0000
6.3223 0.3743 -0.6981 1.0000
6.3212 0.3933 -0.6981 1.0000
6.3187 0.4311 -0.6981 1.0000
6.3148 0.4879 -0.6982 1.0000
6.3134 0.5067 -0.6982 1.0000
6.3119 0.5257 -0.6982 1.0000
6.3087 0.5635 -0.6982 1.0000
6.3070 0.5823 -0.6982 1.0000
6.3035 0.6202 -0.6982 1.0000
6.2998 0.6579 -0.6982 1.0000
6.2916 0.7333 -0.6982 1.0000
6.2872 0.7710 -0.6982 1.0000
6.2849 0.7898 -0.6982 1.0000
6.2778 0.8463 -0.6983 1.0000
6.2752 0.8651 -0.6983 1.0000
6.2673 0.9214 -0.6983 1.0000
6.2646 0.9402 -0.6983 1.0000
6.2560 0.9964 -0.6983 1.0000
6.2531 1.0152 -0.6983 1.0000
6.2500 1.0339 -0.6983 1.0000
6.2438 1.0713 -0.6983 1.0000
6.2406 1.0901 -0.6983 1.0000
6.2307 1.1461 -0.6983 1.0000
6.2238 1.1834 -0.6983 1.0000
6.2131 1.2392 -0.6984 1.0000
6.2094 1.2579 -0.6984 1.0000
6.2056 1.2764 -0.6984 1.0000
6.2018 1.2951 -0.6984 1.0000
6.1979 1.3136 -0.6984 1.0000
6.1901 1.3508 -0.6984 1.0000
6.1819 1.3878 -0.6984 1.0000
6.1778 1.4063 -0.6984 1.0000
6.1736 1.4248 -0.6984 1.0000
6.1607 1.4802 -0.6984 1.0000
6.1562 1.4987 -0.6984 1.0000
6.1426 1.5540 -0.6984 1.0000
6.1380 1.5723 -0.6984 1.0000
6.1188 -1.6136 -0.6975 1.0000
6.1285 -1.5771 -0.6975 1.0000
6.1332 -1.5587 -0.6975 1.0000
6.1379 -1.5402 -0.6976 1.0000
6.1425 -1.5219 -0.6976 1.0000
6.1471 -1.5035 -0.6976 1.0000
6.1516 -1.4852 -0.6976 1.0000
6.1605 -1.4482 -0.6976 1.0000
6.1692 -1.4114 -0.6976 1.0000
6.1734 -1.3929 -0.6976 1.0000
6.1818 -1.3559 -0.6976 1.0000
6.1898 -1.3190 -0.6976 1.0000
6.1977 -1.2819 -0.6976 1.0000
6.2016 -1.2633 -0.6976 1.0000
6.2129 -1.2076 -0.6977 1.0000
6.2165 -1.1891 -0.6977 1.0000
6.2201 -1.1704 -0.6977 1.0000
6.2236 -1.1518 -0.6977 1.0000
6.2271 -1.1331 -0.6977 1.0000
6.2305 -1.1145 -0.6977 1.0000
6.2339 -1.0958 -0.6977 1.0000
6.2372 -1.0772 -0.6977 1.0000
6.2404 -1.0585 -0.6977 1.0000
6.2467 -1.0212 -0.6977 1.0000
6.2498 -1.0024 -0.6977 1.0000
6.2529 -0.9837 -0.6977 1.0000
6.2558 -0.9649 -0.6977 1.0000
6.2587 -0.9462 -0.6977 1.0000
6.2616 -0.9275 -0.6977 1.0000
6.2644 -0.9088 -0.6977 1.0000
6.2671 -0.8900 -0.6978 1.0000
6.2698 -0.8712 -0.6978 1.0000
6.2776 -0.8149 -0.6978 1.0000
6.2824 -0.7773 -0.6978 1.0000
6.2893 -0.7208 -0.6978 1.0000
6.2915 -0.7021 -0.6978 1.0000
6.2936 -0.6832 -0.6978 1.0000
6.2996 -0.6267 -0.6978 1.0000
6.3015 -0.6078 -0.6978 1.0000
6.3069 -0.5511 -0.6979 1.0000
6.3086 -0.5322 -0.6979 1.0000
6.3102 -0.5133 -0.6979 1.0000
6.3147 -0.4567 -0.6979 1.0000
6.3174 -0.4189 -0.6979 1.0000
6.3199 -0.3810 -0.6979 1.0000
6.3222 -0.3432 -0.6979 1.0000
6.3232 -0.3242 -0.6979 1.0000
6.3242 -0.3053 -0.6979 1.0000
6.3252 -0.2864 -0.6979 1.0000
6.3269 -0.2485 -0.6979 1.0000
6.3289 -0.1917 -0.6980 1.0000
6.3296 -0.1727 -0.6980 1.0000
6.3302 -0.1537 -0.6980 1.0000
6.3306 -0.1347 -0.6980 1.0000
6.3314 -0.0969 -0.6980 1.0000
6.3320 -0.0590 -0.6980 1.0000
6.3323 -0.0211 -0.6980 1.0000
6.3324 -0.0021 -0.6980 1.0000
6.3321 0.0737 -0.6980 1.0000
6.3317 0.1117 -0.6980 1.0000
6.3314 0.1307 -0.6981 1.0000
6.3301 0.1875 -0.6981 1.0000
6.3296 0.2066 -0.6981 1.0000
6.3289 0.2255 -0.6981 1.0000
6.3283 0.2444 -0.6981 1.0000
6.3276 0.2633 -0.6981 1.0000
6.3268 0.2823 -0.6981 1.0000
6.3231 0.3580 -0.6981 1.0000
6.3210 0.3960 -0.6981 1.0000
6.3198 0.4149 -0.6981 1.0000
6.3146 0.4905 -0.6982 1.0000
6.3131 0.5095 -0.6982 1.0000
5.4515 -0.5446 -0.6978 1.0000
5.4531 -0.5283 -0.6978 1.0000
5.4563 -0.4957 -0.6978 1.0000
5.4592 -0.4630 -0.6978 1.0000
5.4606 -0.4466 -0.6978 1.0000
5.4620 -0.4302 -0.6978 1.0000
5.4657 -0.3812 -0.6978 1.0000
5.4691 -0.3321 -0.6978 1.0000
5.4701 -0.3158 -0.6978 1.0000
5.4719 -0.2830 -0.6978 1.0000
5.4736 -0.2501 -0.6978 1.0000
5.4751 -0.2173 -0.6978 1.0000
5.4758 -0.2010 -0.6979 1.0000
5.4763 -0.1846 -0.6979 1.0000
5.4775 -0.1518 -0.6979 1.0000
5.4783 -0.1190 -0.6979 1.0000
5.4790 -0.0862 -0.6979 1.0000
5.4795 -0.0533 -0.6979 1.0000
5.4797 -0.0369 -0.6979 1.0000
5.4799 0.0287 -0.6979 1.0000
5.4790 0.1107 -0.6979 1.0000
5.4783 0.1435 -0.6980 1.0000
5.4763 0.2092 -0.6980 1.0000
5.4751 0.2420 -0.6980 1.0000
5.4728 0.2911 -0.6980 1.0000
5.4719 0.3075 -0.6980 1.0000
5.4710 0.3239 -0.6980 1.0000
5.4701 0.3402 -0.6980 1.0000
5.4691 0.3567 -0.6980 1.0000
5.4658 0.4059 -0.6980 1.0000
5.4646 0.4221 -0.6980 1.0000
5.4620 0.4548 -0.6980 1.0000
5.4592 0.4876 -0.6980 1.0000
5.4578 0.5039 -0.6981 1.0000
5.4563 0.5203 -0.6981 1.0000
5.4547 0.5366 -0.6981 1.0000
5.4480 0.6019 -0.6981 1.0000
5.4462 0.6182 -0.6981 1.0000
5.4444 0.6345 -0.6981 1.0000
5.4425 0.6508 -0.6981 1.0000
5.4345 0.7160 -0.6981 1.0000
5.4257 0.7811 -0.6981 1.0000
5.4233 0.7974 -0.6981 1.0000
5.4209 0.8136 -0.6981 1.0000
5.4160 0.8461 -0.6981 1.0000
5.4109 0.8785 -0.6982 1.0000
5.4002 0.9432 -0.6982 1.0000
5.3973 0.9594 -0.6982 1.0000
5.3665 1.1206 -0.6982 1.0000
5.3632 1.1367 -0.6982 1.0000
5.3564 1.1689 -0.6982 1.0000
5.3493 1.2009 -0.6982 1.0000
5.3421 1.2329 -0.6982 1.0000
5.3384 1.2488 -0.6983 1.0000
5.3347 1.2649 -0.6983 1.0000
5.3113 1.3605 -0.6983 1.0000
5.3031 1.3924 -0.6983 1.0000
5.2913 -1.4124 -0.6975 1.0000
5.2997 -1.3807 -0.6975 1.0000
5.3039 -1.3648 -0.6975 1.0000
5.3080 -1.3489 -0.6975 1.0000
5.3120 -1.3330 -0.6975 1.0000
5.3161 -1.3171 -0.6975 1.0000
5.3278 -1.2694 -0.6975 1.0000
5.3316 -1.2534 -0.6975 1.0000
5.3391 -1.2215 -0.6975 1.0000
5.3428 -1.2055 -0.6976 1.0000
5.3464 -1.1895 -0.6976 1.0000
5.3500 -1.1734 -0.6976 1.0000
5.3535 -1.1575 -0.6976 1.0000
5.3638 -1.1094 -0.6976 1.0000
5.3671 -1.0933 -0.6976 1.0000
5.3704 -1.0772 -0.6976 1.0000
5.3800 -1.0290 -0.6976 1.0000
5.3831 -1.0129 -0.6976 1.0000
5.4034 -0.8999 -0.6976 1.0000
5.4088 -0.8675 -0.6977 1.0000
5.4114 -0.8512 -0.6977 1.0000
5.4165 -0.8188 -0.6977 1.0000
5.4189 -0.8026 -0.6977 1.0000
5.4213 -0.7864 -0.6977 1.0000
5.4260 -0.7539 -0.6977 1.0000
5.4283 -0.7377 -0.6977 1.0000
5.4305 -0.7215 -0.6977 1.0000
5.4348 -0.6890 -0.6977 1.0000
5.4389 -0.6563 -0.6977 1.0000
5.4409 -0.6401 -0.6977 1.0000
5.4428 -0.6238 -0.6977 1.0000
5.4447 -0.6075 -0.6977 1.0000
5.4484 -0.5750 -0.6977 1.0000
5.4565 -0.4932 -0.6978 1.0000
5.4609 -0.4443 -0.6978 1.0000
5.4647 -0.3953 -0.6978 1.0000
5.4671 -0.3625 -0.6978 1.0000
5.4682 -0.3461 -0.6978 1.0000
5.4712 -0.2969 -0.6978 1.0000
5.4721 -0.2806 -0.6978 1.0000
5.4729 -0.2642 -0.6978 1.0000
5.4737 -0.2479 -0.6978 1.0000
5.4745 -0.2315 -0.6978 1.0000
5.4758 -0.1986 -0.6979 1.0000
5.4764 -0.1823 -0.6979 1.0000
5.4770 -0.1658 -0.6979 1.0000
5.4775 -0.1495 -0.6979 1.0000
5.4780 -0.1330 -0.6979 1.0000
5.4784 -0.1166 -0.6979 1.0000
5.4788 -0.1002 -0.6979 1.0000
5.4791 -0.0838 -0.6979 1.0000
5.4793 -0.0674 -0.6979 1.0000
5.4799 -0.0018 -0.6979 1.0000
5.4799 0.0146 -0.6979 1.0000
5.4799 0.0310 -0.6979 1.0000
5.4798 0.0474 -0.6979 1.0000
5.4797 0.0639 -0.6979 1.0000
5.4795 0.0803 -0.6979 1.0000
5.4787 0.1295 -0.6979 1.0000
5.4783 0.1458 -0.6980 1.0000
5.4774 0.1787 -0.6980 1.0000
5.4769 0.1951 -0.6980 1.0000
5.4763 0.2115 -0.6980 1.0000
5.4757 0.2279 -0.6980 1.0000
5.4743 0.2607 -0.6980 1.0000
5.4735 0.2771 -0.6980 1.0000
5.4727 0.2935 -0.6980 1.0000
5.4718 0.3099 -0.6980 1.0000
5.4709 0.3262 -0.6980 1.0000
5.4689 0.3590 -0.6980 1.0000
5.4668 0.3918 -0.6980 1.0000
5.4631 0.4409 -0.6980 1.0000
4.8038 -0.4654 -0.6977 1.0000
4.8052 -0.4510 -0.6977 1.0000
4.8066 -0.4366 -0.6977 1.0000
4.8079 -0.4222 -0.6977 1.0000
4.8116 -0.3790 -0.6977 1.0000
4.8178 -0.2925 -0.6977 1.0000
4.8187 -0.2780 -0.6978 1.0000
4.8195 -0.2637 -0.6978 1.0000
4.8203 -0.2492 -0.6978 1.0000
4.8218 -0.2204 -0.6978 1.0000
4.8224 -0.2059 -0.6978 1.0000
4.8230 -0.1916 -0.6978 1.0000
4.8251 -0.1337 -0.6978 1.0000
4.8256 -0.1193 -0.6978 1.0000
4.8265 -0.0758 -0.6978 1.0000
4.8267 -0.0614 -0.6978 1.0000
4.8272 -0.0036 -0.6978 1.0000
4.8272 0.0108 -0.6978 1.0000
4.8272 0.0253 -0.6978 1.0000
4.8271 0.0397 -0.6978 1.0000
4.8270 0.0542 -0.6978 1.0000
4.8240 0.1843 -0.6979 1.0000
4.8236 0.1987 -0.6979 1.0000
4.8223 0.2276 -0.6979 1.0000
4.8209 0.2565 -0.6979 1.0000
4.8193 0.2853 -0.6979 1.0000
4.8185 0.2997 -0.6979 1.0000
4.8167 0.3287 -0.6979 1.0000
4.8157 0.3430 -0.6979 1.0000
4.8146 0.3574 -0.6979 1.0000
4.8136 0.3719 -0.6979 1.0000
4.8125 0.3862 -0.6979 1.0000
4.8113 0.4007 -0.6979 1.0000
4.8089 0.4295 -0.6980 1.0000
4.8063 0.4583 -0.6980 1.0000
4.8050 0.4728 -0.6980 1.0000
4.8035 0.4871 -0.6980 1.0000
4.8021 0.5015 -0.6980 1.0000
4.7974 0.5446 -0.6980 1.0000
4.7958 0.5590 -0.6980 1.0000
4.7942 0.5734 -0.6980 1.0000
4.7925 0.5877 -0.6980 1.0000
4.7852 0.6451 -0.6980 1.0000
4.7813 0.6738 -0.6980 1.0000
4.7793 0.6880 -0.6980 1.0000
4.7751 0.7166 -0.6980 1.0000
4.7708 0.7452 -0.6980 1.0000
4.7686 0.7595 -0.6980 1.0000
4.7663 0.7737 -0.6980 1.0000
4.7640 0.7881 -0.6980 1.0000
4.7616 0.8023 -0.6981 1.0000
4.7592 0.8166 -0.6981 1.0000
4.7466 0.8878 -0.6981 1.0000
4.7439 0.9021 -0.6981 1.0000
4.7413 0.9162 -0.6981 1.0000
4.7385 0.9304 -0.6981 1.0000
4.7329 0.9588 -0.6981 1.0000
4.7301 0.9730 -0.6981 1.0000
4.7271 0.9871 -0.6981 1.0000
4.7212 1.0154 -0.6981 1.0000
4.7181 1.0296 -0.6981 1.0000
4.7151 1.0437 -0.6981 1.0000
4.7088 1.0720 -0.6981 1.0000
4.7023 1.1001 -0.6981 1.0000
4.6990 1.1142 -0.6981 1.0000
4.6854 1.1704 -0.6981 1.0000
4.6748 1.2125 -0.6982 1.0000
4.6675 1.2404 -0.6982 1.0000
4.6614 -1.2442 -0.6975 1.0000
4.6688 -1.2164 -0.6975 1.0000
4.6761 -1.1884 -0.6975 1.0000
4.6797 -1.1743 -0.6975 1.0000
4.6833 -1.1604 -0.6975 1.0000
4.6901 -1.1323 -0.6975 1.0000
4.6969 -1.1042 -0.6975 1.0000
4.7002 -1.0901 -0.6975 1.0000
4.7067 -1.0620 -0.6975 1.0000
4.7131 -1.0338 -0.6975 1.0000
4.7252 -0.9773 -0.6975 1.0000
4.7282 -0.9631 -0.6975 1.0000
4.7367 -0.9206 -0.6976 1.0000
4.7395 -0.9065 -0.6976 1.0000
4.7422 -0.8923 -0.6976 1.0000
4.7476 -0.8639 -0.6976 1.0000
4.7552 -0.8212 -0.6976 1.0000
4.7577 -0.8069 -0.6976 1.0000
4.7625 -0.7785 -0.6976 1.0000
4.7648 -0.7642 -0.6976 1.0000
4.7671 -0.7499 -0.6976 1.0000
4.7693 -0.7357 -0.6976 1.0000
4.7758 -0.6928 -0.6976 1.0000
4.7800 -0.6641 -0.6976 1.0000
4.7859 -0.6213 -0.6977 1.0000
4.7895 -0.5926 -0.6977 1.0000
4.7913 -0.5783 -0.6977 1.0000
4.7930 -0.5639 -0.6977 1.0000
4.7947 -0.5496 -0.6977 1.0000
4.7964 -0.5351 -0.6977 1.0000
4.8011 -0.4921 -0.6977 1.0000
4.8040 -0.4634 -0.6977 1.0000
4.8068 -0.4346 -0.6977 1.0000
4.8080 -0.4201 -0.6977 1.0000
4.8129 -0.3625 -0.6977 1.0000
4.8150 -0.3338 -0.6977 1.0000
4.8160 -0.3193 -0.6977 1.0000
4.8170 -0.3049 -0.6977 1.0000
4.8179 -0.2905 -0.6977 1.0000
4.8188 -0.2760 -0.6978 1.0000
4.8196 -0.2615 -0.6978 1.0000
4.8218 -0.2182 -0.6978 1.0000
4.8225 -0.2038 -0.6978 1.0000
4.8237 -0.1750 -0.6978 1.0000
4.8247 -0.1461 -0.6978 1.0000
4.8252 -0.1316 -0.6978 1.0000
4.8256 -0.1172 -0.6978 1.0000
4.8259 -0.1028 -0.6978 1.0000
4.8263 -0.0883 -0.6978 1.0000
4.8265 -0.0739 -0.6978 1.0000
4.8269 -0.0449 -0.6978 1.0000
4.8271 -0.0304 -0.6978 1.0000
4.8272 -0.0161 -0.6978 1.0000
4.8272 -0.0016 -0.6978 1.0000
4.8270 0.0562 -0.6978 1.0000
4.8269 0.0707 -0.6979 1.0000
4.8266 0.0852 -0.6979 1.0000
4.8261 0.1141 -0.6979 1.0000
4.8258 0.1286 -0.6979 1.0000
4.8254 0.1430 -0.6979 1.0000
4.8240 0.1863 -0.6979 1.0000
4.8229 0.2152 -0.6979 1.0000
4.8201 0.2729 -0.6979 1.0000
4.8145 0.3595 -0.6979 1.0000
4.8134 0.3739 -0.6979 1.0000
4.2917 -0.4028 -0.6977 1.0000
4.2929 -0.3899 -0.6977 1.0000
4.2941 -0.3771 -0.6977 1.0000
4.2963 -0.3514 -0.6977 1.0000
4.2984 -0.3257 -0.6977 1.0000
4.3002 -0.2999 -0.6977 1.0000
4.3029 -0.2612 -0.6977 1.0000
4.3037 -0.2484 -0.6977 1.0000
4.3076 -0.1710 -0.6977 1.0000
4.3086 -0.1452 -0.6977 1.0000
4.3094 -0.1195 -0.6977 1.0000
4.3098 -0.1066 -0.6977 1.0000
4.3103 -0.0807 -0.6977 1.0000
4.3106 -0.0677 -0.6977 1.0000
4.3108 -0.0549 -0.6978 1.0000
4.3110 -0.0420 -0.6978 1.0000
4.3111 -0.0291 -0.6978 1.0000
4.3112 -0.0033 -0.6978 1.0000
4.3113 0.0096 -0.6978 1.0000
4.3112 0.0355 -0.6978 1.0000
4.3111 0.0484 -0.6978 1.0000
4.3107 0.0742 -0.6978 1.0000
4.3105 0.0871 -0.6978 1.0000
4.3100 0.1130 -0.6978 1.0000
4.3093 0.1387 -0.6978 1.0000
4.3088 0.1517 -0.6978 1.0000
4.3074 0.1904 -0.6978 1.0000
4.3042 0.2549 -0.6978 1.0000
4.3034 0.2678 -0.6978 1.0000
4.3026 0.2806 -0.6978 1.0000
4.3018 0.2935 -0.6979 1.0000
4.3008 0.3063 -0.6979 1.0000
4.3000 0.3193 -0.6979 1.0000
4.2980 0.3449 -0.6979 1.0000
4.2959 0.3707 -0.6979 1.0000
4.2937 0.3964 -0.6979 1.0000
4.2900 0.4350 -0.6979 1.0000
4.2874 0.4607 -0.6979 1.0000
4.2860 0.4736 -0.6979 1.0000
4.2846 0.4864 -0.6979 1.0000
4.2816 0.5120 -0.6979 1.0000
4.2753 0.5633 -0.6979 1.0000
4.2719 0.5889 -0.6979 1.0000
4.2683 0.6145 -0.6979 1.0000
4.2646 0.6401 -0.6979 1.0000
4.2627 0.6528 -0.6979 1.0000
4.2567 0.6911 -0.6980 1.0000
4.2546 0.7038 -0.6980 1.0000
4.2525 0.7165 -0.6980 1.0000
4.2504 0.7293 -0.6980 1.0000
4.2482 0.7420 -0.6980 1.0000
4.2460 0.7548 -0.6980 1.0000
4.2437 0.7674 -0.6980 1.0000
4.2414 0.7801 -0.6980 1.0000
4.2391 0.7929 -0.6980 1.0000
4.2343 0.8182 -0.6980 1.0000
4.2293 0.8436 -0.6980 1.0000
4.2268 0.8563 -0.6980 1.0000
4.2217 0.8816 -0.6980 1.0000
4.2164 0.9068 -0.6980 1.0000
4.2136 0.9195 -0.6980 1.0000
4.2109 0.9321 -0.6980 1.0000
4.2081 0.9447 -0.6980 1.0000
4.2053 0.9573 -0.6980 1.0000
4.1995 0.9825 -0.6980 1.0000
4.1936 1.0077 -0.6980 1.0000
4.1906 1.0202 -0.6980 1.0000
4.1875 1.0328 -0.6980 1.0000
4.1813 1.0578 -0.6981 1.0000
4.1781 1.0703 -0.6981 1.0000
4.1717 1.0953 -0.6981 1.0000
4.1634 -1.1113 -0.6974 1.0000
4.1701 -1.0863 -0.6974 1.0000
4.1733 -1.0739 -0.6974 1.0000
4.1765 -1.0613 -0.6975 1.0000
4.1829 -1.0363 -0.6975 1.0000
4.1890 -1.0113 -0.6975 1.0000
4.1980 -0.9736 -0.6975 1.0000
4.2038 -0.9485 -0.6975 1.0000
4.2095 -0.9233 -0.6975 1.0000
4.2123 -0.9107 -0.6975 1.0000
4.2150 -0.8981 -0.6975 1.0000
4.2229 -0.8602 -0.6975 1.0000
4.2306 -0.8222 -0.6975 1.0000
4.2379 -0.7842 -0.6975 1.0000
4.2425 -0.7589 -0.6975 1.0000
4.2493 -0.7207 -0.6976 1.0000
4.2536 -0.6953 -0.6976 1.0000
4.2556 -0.6826 -0.6976 1.0000
4.2577 -0.6698 -0.6976 1.0000
4.2616 -0.6443 -0.6976 1.0000
4.2636 -0.6316 -0.6976 1.0000
4.2655 -0.6188 -0.6976 1.0000
4.2673 -0.6060 -0.6976 1.0000
4.2692 -0.5932 -0.6976 1.0000
4.2727 -0.5677 -0.6976 1.0000
4.2744 -0.5548 -0.6976 1.0000
4.2761 -0.5420 -0.6976 1.0000
4.2838 -0.4780 -0.6976 1.0000
4.2852 -0.4652 -0.6976 1.0000
4.2880 -0.4395 -0.6976 1.0000
4.2893 -0.4267 -0.6976 1.0000
4.2930 -0.3881 -0.6977 1.0000
4.2954 -0.3624 -0.6977 1.0000
4.2964 -0.3496 -0.6977 1.0000
4.2985 -0.3238 -0.6977 1.0000
4.3013 -0.2852 -0.6977 1.0000
4.3030 -0.2594 -0.6977 1.0000
4.3045 -0.2336 -0.6977 1.0000
4.3076 -0.1692 -0.6977 1.0000
4.3082 -0.1564 -0.6977 1.0000
4.3087 -0.1434 -0.6977 1.0000
4.3090 -0.1304 -0.6977 1.0000
4.3098 -0.1046 -0.6977 1.0000
4.3106 -0.0659 -0.6978 1.0000
4.3108 -0.0531 -0.6978 1.0000
4.3111 -0.0272 -0.6978 1.0000
4.3112 -0.0014 -0.6978 1.0000
4.3112 0.0115 -0.6978 1.0000
4.3111 0.0373 -0.6978 1.0000
4.3111 0.0502 -0.6978 1.0000
4.3092 0.1406 -0.6978 1.0000
4.3088 0.1535 -0.6978 1.0000
4.3083 0.1664 -0.6978 1.0000
4.3068 0.2051 -0.6978 1.0000
4.3055 0.2309 -0.6978 1.0000
4.3040 0.2567 -0.6978 1.0000
4.3033 0.2696 -0.6978 1.0000
4.3025 0.2824 -0.6978 1.0000
4.3017 0.2953 -0.6979 1.0000
4.3008 0.3082 -0.6979 1.0000
4.2998 0.3210 -0.6979 1.0000
4.2979 0.3469 -0.6979 1.0000
3.8730 -0.3869 -0.6976 1.0000
3.8741 -0.3753 -0.6976 1.0000
3.8794 -0.3172 -0.6976 1.0000
3.8804 -0.3056 -0.6976 1.0000
3.8821 -0.2824 -0.6976 1.0000
3.8830 -0.2708 -0.6976 1.0000
3.8846 -0.2475 -0.6976 1.0000
3.8853 -0.2360 -0.6977 1.0000
3.8873 -0.2011 -0.6977 1.0000
3.8879 -0.1894 -0.6977 1.0000
3.8901 -0.1428 -0.6977 1.0000
3.8904 -0.1311 -0.6977 1.0000
3.8915 -0.0962 -0.6977 1.0000
3.8918 -0.0845 -0.6977 1.0000
3.8921 -0.0729 -0.6977 1.0000
3.8925 -0.0496 -0.6977 1.0000
3.8927 -0.0263 -0.6977 1.0000
3.8929 0.0087 -0.6977 1.0000
3.8928 0.0320 -0.6977 1.0000
3.8927 0.0436 -0.6977 1.0000
3.8922 0.0787 -0.6977 1.0000
3.8914 0.1137 -0.6978 1.0000
3.8911 0.1252 -0.6978 1.0000
3.8903 0.1486 -0.6978 1.0000
3.8893 0.1719 -0.6978 1.0000
3.8888 0.1836 -0.6978 1.0000
3.8877 0.2069 -0.6978 1.0000
3.8857 0.2417 -0.6978 1.0000
3.8835 0.2767 -0.6978 1.0000
3.8818 0.2998 -0.6978 1.0000
3.8809 0.3115 -0.6978 1.0000
3.8758 0.3696 -0.6978 1.0000
3.8737 0.3928 -0.6978 1.0000
3.8687 0.4392 -0.6978 1.0000
3.8674 0.4508 -0.6978 1.0000
3.8587 0.5202 -0.6979 1.0000
3.8540 0.5549 -0.6979 1.0000
3.8523 0.5664 -0.6979 1.0000
3.8506 0.5779 -0.6979 1.0000
3.8489 0.5894 -0.6979 1.0000
3.8471 0.6010 -0.6979 1.0000
3.8453 0.6125 -0.6979 1.0000
3.8397 0.6469 -0.6979 1.0000
3.8338 0.6814 -0.6979 1.0000
3.8297 0.7044 -0.6979 1.0000
3.8254 0.7274 -0.6979 1.0000
3.8210 0.7502 -0.6979 1.0000
3.8188 0.7617 -0.6979 1.0000
3.8095 0.8074 -0.6979 1.0000
3.8070 0.8188 -0.6979 1.0000
3.7918 0.8871 -0.6980 1.0000
3.7864 0.9098 -0.6980 1.0000
3.7782 0.9438 -0.6980 1.0000
3.7725 0.9664 -0.6980 1.0000
3.7696 0.9777 -0.6980 1.0000
3.7667 0.9890 -0.6980 1.0000
3.7596 -1.0035 -0.6974 1.0000
3.7655 -0.9810 -0.6974 1.0000
3.7685 -0.9697 -0.6974 1.0000
3.7714 -0.9584 -0.6974 1.0000
3.7742 -0.9471 -0.6974 1.0000
3.7771 -0.9359 -0.6974 1.0000
3.7854 -0.9019 -0.6974 1.0000
3.7881 -0.8906 -0.6975 1.0000
3.7908 -0.8792 -0.6975 1.0000
3.7960 -0.8565 -0.6975 1.0000
3.7986 -0.8451 -0.6975 1.0000
3.8036 -0.8224 -0.6975 1.0000
3.8061 -0.8109 -0.6975 1.0000
3.8109 -0.7882 -0.6975 1.0000
3.8156 -0.7653 -0.6975 1.0000
3.8224 -0.7311 -0.6975 1.0000
3.8309 -0.6853 -0.6975 1.0000
3.8350 -0.6623 -0.6975 1.0000
3.8370 -0.6508 -0.6975 1.0000
3.8389 -0.6392 -0.6975 1.0000
3.8408 -0.6278 -0.6975 1.0000
3.8427 -0.6163 -0.6975 1.0000
3.8446 -0.6049 -0.6975 1.0000
3.8533 -0.5471 -0.6976 1.0000
3.8549 -0.5357 -0.6976 1.0000
3.8581 -0.5127 -0.6976 1.0000
3.8597 -0.5010 -0.6976 1.0000
3.8654 -0.4548 -0.6976 1.0000
3.8719 -0.3969 -0.6976 1.0000
3.8731 -0.3853 -0.6976 1.0000
3.8743 -0.3737 -0.6976 1.0000
3.8754 -0.3621 -0.6976 1.0000
3.8765 -0.3505 -0.6976 1.0000
3.8775 -0.3389 -0.6976 1.0000
3.8795 -0.3156 -0.6976 1.0000
3.8822 -0.2808 -0.6976 1.0000
3.8831 -0.2692 -0.6976 1.0000
3.8839 -0.2575 -0.6976 1.0000
3.8847 -0.2459 -0.6976 1.0000
3.8861 -0.2226 -0.6977 1.0000
3.8868 -0.2110 -0.6977 1.0000
3.8874 -0.1994 -0.6977 1.0000
3.8891 -0.1645 -0.6977 1.0000
3.8896 -0.1527 -0.6977 1.0000
3.8901 -0.1411 -0.6977 1.0000
3.8905 -0.1295 -0.6977 1.0000
3.8909 -0.1178 -0.6977 1.0000
3.8912 -0.1061 -0.6977 1.0000
3.8915 -0.0945 -0.6977 1.0000
3.8921 -0.0712 -0.6977 1.0000
3.8927 -0.0246 -0.6977 1.0000
3.8928 -0.0130 -0.6977 1.0000
3.8929 -0.0013 -0.6977 1.0000
3.8929 0.0221 -0.6977 1.0000
3.8927 0.0453 -0.6977 1.0000
3.8925 0.0570 -0.6977 1.0000
3.8924 0.0687 -0.6977 1.0000
3.8922 0.0803 -0.6977 1.0000
3.8910 0.1270 -0.6978 1.0000
3.8906 0.1387 -0.6978 1.0000
3.8902 0.1502 -0.6978 1.0000
3.8893 0.1735 -0.6978 1.0000
3.8887 0.1852 -0.6978 1.0000
3.8876 0.2084 -0.6978 1.0000
3.8870 0.2201 -0.6978 1.0000
3.8807 0.3131 -0.6978 1.0000
3.5285 -0.3526 -0.6976 1.0000
3.5306 -0.3314 -0.6976 1.0000
3.5316 -0.3208 -0.6976 1.0000
3.5326 -0.3102 -0.6976 1.0000
3.5335 -0.2997 -0.6976 1.0000
3.5344 -0.2891 -0.6976 1.0000
3.5352 -0.2785 -0.6976 1.0000
3.5376 -0.2467 -0.6976 1.0000
3.5391 -0.2256 -0.6976 1.0000
3.5404 -0.2043 -0.6976 1.0000
3.5410 -0.1937 -0.6976 1.0000
3.5416 -0.1831 -0.6976 1.0000
3.5426 -0.1619 -0.6976 1.0000
3.5440 -0.1301 -0.6976 1.0000
3.5444 -0.1195 -0.6976 1.0000
3.5448 -0.1088 -0.6976 1.0000
3.5456 -0.0770 -0.6977 1.0000
3.5461 -0.0558 -0.6977 1.0000
3.5462 -0.0451 -0.6977 1.0000
3.5466 0.0080 -0.6977 1.0000
3.5466 0.0186 -0.6977 1.0000
3.5465 0.0292 -0.6977 1.0000
3.5463 0.0504 -0.6977 1.0000
3.5462 0.0611 -0.6977 1.0000
3.5460 0.0717 -0.6977 1.0000
3.5449 0.1141 -0.6977 1.0000
3.5438 0.1460 -0.6977 1.0000
3.5433 0.1566 -0.6977 1.0000
3.5424 0.1777 -0.6977 1.0000
3.5413 0.1990 -0.6977 1.0000
3.5407 0.2096 -0.6977 1.0000
3.5400 0.2202 -0.6977 1.0000
3.5387 0.2414 -0.6977 1.0000
3.5372 0.2626 -0.6977 1.0000
3.5348 0.2944 -0.6978 1.0000
3.5339 0.3049 -0.6978 1.0000
3.5321 0.3261 -0.6978 1.0000
3.5310 0.3367 -0.6978 1.0000
3.5300 0.3472 -0.6978 1.0000
3.5290 0.3578 -0.6978 1.0000
3.5268 0.3789 -0.6978 1.0000
3.5257 0.3895 -0.6978 1.0000
3.5233 0.4107 -0.6978 1.0000
3.5221 0.4212 -0.6978 1.0000
3.5195 0.4422 -0.6978 1.0000
3.5126 0.4949 -0.6978 1.0000
3.5096 0.5160 -0.6978 1.0000
3.5080 0.5264 -0.6978 1.0000
3.5065 0.5370 -0.6978 1.0000
3.5048 0.5475 -0.6978 1.0000
3.5032 0.5580 -0.6978 1.0000
3.4998 0.5789 -0.6978 1.0000
3.4927 0.6209 -0.6978 1.0000
3.4889 0.6418 -0.6979 1.0000
3.4870 0.6522 -0.6979 1.0000
3.4831 0.6731 -0.6979 1.0000
3.4811 0.6835 -0.6979 1.0000
3.4790 0.6939 -0.6979 1.0000
3.4769 0.7043 -0.6979 1.0000
3.4748 0.7147 -0.6979 1.0000
3.4726 0.7252 -0.6979 1.0000
3.4683 0.7460 -0.6979 1.0000
3.4638 0.7667 -0.6979 1.0000
3.4615 0.7771 -0.6979 1.0000
3.4568 0.7979 -0.6979 1.0000
3.4471 0.8392 -0.6979 1.0000
3.4445 0.8496 -0.6979 1.0000
3.4420 0.8598 -0.6979 1.0000
3.4394 0.8701 -0.6979 1.0000
3.4342 0.8908 -0.6979 1.0000
3.4315 0.9010 -0.6979 1.0000
3.4288 0.9112 -0.6979 1.0000
3.4280 -0.9041 -0.6974 1.0000
3.4387 -0.8629 -0.6974 1.0000
3.4463 -0.8320 -0.6974 1.0000
3.4488 -0.8217 -0.6974 1.0000
3.4512 -0.8114 -0.6974 1.0000
3.4537 -0.8011 -0.6974 1.0000
3.4561 -0.7908 -0.6974 1.0000
3.4585 -0.7803 -0.6974 1.0000
3.4631 -0.7596 -0.6974 1.0000
3.4654 -0.7492 -0.6975 1.0000
3.4720 -0.7181 -0.6975 1.0000
3.4742 -0.7077 -0.6975 1.0000
3.4763 -0.6974 -0.6975 1.0000
3.4784 -0.6869 -0.6975 1.0000
3.4845 -0.6556 -0.6975 1.0000
3.4883 -0.6348 -0.6975 1.0000
3.4940 -0.6034 -0.6975 1.0000
3.4958 -0.5930 -0.6975 1.0000
3.4975 -0.5824 -0.6975 1.0000
3.4993 -0.5720 -0.6975 1.0000
3.5010 -0.5614 -0.6975 1.0000
3.5091 -0.5090 -0.6975 1.0000
3.5136 -0.4775 -0.6975 1.0000
3.5150 -0.4670 -0.6975 1.0000
3.5164 -0.4565 -0.6975 1.0000
3.5178 -0.4459 -0.6975 1.0000
3.5191 -0.4354 -0.6975 1.0000
3.5242 -0.3932 -0.6976 1.0000
3.5253 -0.3827 -0.6976 1.0000
3.5308 -0.3298 -0.6976 1.0000
3.5317 -0.3193 -0.6976 1.0000
3.5327 -0.3088 -0.6976 1.0000
3.5345 -0.2875 -0.6976 1.0000
3.5354 -0.2769 -0.6976 1.0000
3.5362 -0.2664 -0.6976 1.0000
3.5378 -0.2451 -0.6976 1.0000
3.5411 -0.1922 -0.6976 1.0000
3.5422 -0.1710 -0.6976 1.0000
3.5427 -0.1604 -0.6976 1.0000
3.5437 -0.1391 -0.6976 1.0000
3.5451 -0.0967 -0.6976 1.0000
3.5464 -0.0330 -0.6977 1.0000
3.5465 -0.0223 -0.6977 1.0000
3.5466 -0.0118 -0.6977 1.0000
3.5466 0.0094 -0.6977 1.0000
3.5466 0.0201 -0.6977 1.0000
3.5464 0.0413 -0.6977 1.0000
3.5461 0.0626 -0.6977 1.0000
3.5449 0.1157 -0.6977 1.0000
3.5441 0.1369 -0.6977 1.0000
3.5433 0.1581 -0.6977 1.0000
3.5428 0.1688 -0.6977 1.0000
3.5423 0.1793 -0.6977 1.0000
3.5400 0.2218 -0.6977 1.0000
3.5393 0.2324 -0.6977 1.0000
3.5386 0.2430 -0.6977 1.0000
3.5379 0.2535 -0.6977 1.0000
3.5355 0.2854 -0.6978 1.0000
3.2395 -0.3138 -0.6975 1.0000
3.2404 -0.3042 -0.6976 1.0000
3.2414 -0.2944 -0.6976 1.0000
3.2439 -0.2653 -0.6976 1.0000
3.2447 -0.2556 -0.6976 1.0000
3.2455 -0.2459 -0.6976 1.0000
3.2462 -0.2362 -0.6976 1.0000
3.2469 -0.2265 -0.6976 1.0000
3.2489 -0.1972 -0.6976 1.0000
3.2505 -0.1680 -0.6976 1.0000
3.2524 -0.1291 -0.6976 1.0000
3.2528 -0.1193 -0.6976 1.0000
3.2531 -0.1097 -0.6976 1.0000
3.2540 -0.0803 -0.6976 1.0000
3.2542 -0.0707 -0.6976 1.0000
