ply
format ascii 1.0
element vertex 1598
property float32 x
property float32 y
property float32 z
property float32 I
end_header
50.0941 -12.0178 11.0409 1.0000
50.0941 -11.7016 11.0253 1.0000
50.0941 -11.3861 11.0101 1.0000
50.0941 -11.0716 10.9954 1.0000
50.0941 -10.9147 10.9882 1.0000
50.0941 -10.7579 10.9811 1.0000
50.0941 -10.4450 10.9672 1.0000
50.0941 -10.2889 10.9604 1.0000
50.0941 -9.9771 10.9472 1.0000
50.0941 -9.8216 10.9407 1.0000
50.0941 -9.6661 10.9343 1.0000
50.0941 -9.3558 10.9219 1.0000
50.0941 -9.2010 10.9159 1.0000
50.0941 -9.0462 10.9099 1.0000
50.0941 -8.8917 10.9041 1.0000
50.0941 -8.7373 10.8984 1.0000
50.0941 -8.4291 10.8872 1.0000
50.0941 -7.9678 10.8712 1.0000
50.0941 -7.6610 10.8611 1.0000
50.0941 -7.5078 10.8562 1.0000
50.0939 -7.3548 10.8514 1.0000
50.0939 -7.2019 10.8467 1.0000
50.0939 -7.0491 10.8420 1.0000
50.0940 -6.7439 10.8331 1.0000
50.0940 -5.5280 10.8014 1.0000
50.0940 -5.0737 10.7912 1.0000
50.0940 -4.9225 10.7880 1.0000
50.0940 -4.6203 10.7818 1.0000
50.0940 -4.3184 10.7761 1.0000
50.0939 -4.1676 10.7734 1.0000
50.0940 -4.0169 10.7707 1.0000
50.0939 -3.8662 10.7682 1.0000
50.0940 -3.7156 10.7658 1.0000
50.0940 -2.9636 10.7550 1.0000
50.0940 -2.8132 10.7532 1.0000
50.0939 -2.6631 10.7514 1.0000
50.0940 -2.5129 10.7498 1.0000
50.0941 -2.3629 10.7482 1.0000
50.0941 -2.2128 10.7467 1.0000
50.0940 -2.0628 10.7454 1.0000
50.0941 -1.9128 10.7441 1.0000
50.0941 -1.4630 10.7408 1.0000
50.0940 -1.3132 10.7400 1.0000
50.0940 -1.1634 10.7392 1.0000
50.0940 -0.8637 10.7379 1.0000
50.0940 -0.7140 10.7374 1.0000
50.0940 -0.5642 10.7370 1.0000
50.0940 -0.4145 10.7366 1.0000
50.0941 -0.2647 10.7364 1.0000
50.0941 0.0348 10.7363 1.0000
50.0940 0.1845 10.7363 1.0000
50.0941 0.3343 10.7365 1.0000
50.0941 0.4840 10.7368 1.0000
50.0940 1.0832 10.7388 1.0000
50.0940 1.2330 10.7395 1.0000
50.0941 10.7245 10.0777 1.0000
50.0941 10.8812 10.0842 1.0000
50.0941 11.0382 10.0908 1.0000
50.0941 11.1953 10.0975 1.0000
50.0941 11.8259 10.1253 1.0000
50.0941 11.9841 10.1325 1.0000
50.0941 12.1425 10.1398 1.0000
50.0941 12.6192 10.1623 1.0000
50.0941 12.7785 10.1700 1.0000
50.0941 12.9381 10.1778 1.0000
50.0941 13.2581 10.1937 1.0000
50.0941 13.4185 10.2018 1.0000
50.0940 -12.9464 10.1782 1.0000
50.0940 -12.7868 10.1704 1.0000
50.0941 -12.6275 10.1627 1.0000
50.0940 -12.4683 10.1551 1.0000
50.0940 -12.3094 10.1476 1.0000
50.0940 -11.8341 10.1257 1.0000
50.0940 -11.5183 10.1116 1.0000
50.0941 -11.3608 10.1047 1.0000
50.0941 -11.2035 10.0979 1.0000
50.0940 -10.8894 10.0846 1.0000
50.0940 -10.7327 10.0781 1.0000
50.0941 -10.4199 10.0653 1.0000
50.0941 -9.9521 10.0470 1.0000
50.0941 -9.7965 10.0411 1.0000
50.0941 -9.6411 10.0353 1.0000
50.0941 -9.4859 10.0295 1.0000
50.0940 -9.3309 10.0239 1.0000
50.0940 -9.1761 10.0184 1.0000
50.0940 -9.0214 10.0129 1.0000
50.0940 -8.8669 10.0076 1.0000
50.0940 -8.7125 10.0023 1.0000
50.0940 -8.4043 9.9921 1.0000
50.0941 -8.2504 9.9872 1.0000
50.0940 -8.0966 9.9823 1.0000
50.0940 -7.9431 9.9775 1.0000
50.0940 -7.7896 9.9728 1.0000
50.0941 -7.6364 9.9683 1.0000
50.0939 -7.4832 9.9638 1.0000
50.0939 -6.8719 9.9467 1.0000
50.0939 -6.7194 9.9427 1.0000
50.0939 -6.2627 9.9311 1.0000
50.0939 -5.9587 9.9239 1.0000
50.0939 -5.8069 9.9204 1.0000
50.0939 -5.5036 9.9137 1.0000
50.0939 -4.7470 9.8986 1.0000
50.0939 -4.5959 9.8958 1.0000
50.0939 -4.4450 9.8931 1.0000
50.0939 -4.1433 9.8881 1.0000
50.0939 -3.3904 9.8770 1.0000
50.0939 -3.2399 9.8750 1.0000
50.0939 -3.0896 9.8731 1.0000
50.0939 -2.9393 9.8714 1.0000
50.0939 -2.7891 9.8697 1.0000
50.0939 -2.6389 9.8681 1.0000
50.0939 -2.4887 9.8666 1.0000
50.0940 -2.3386 9.8651 1.0000
50.0940 -2.1886 9.8638 1.0000
50.0940 -1.7387 9.8603 1.0000
50.0940 -1.5888 9.8594 1.0000
50.0940 -1.4389 9.8585 1.0000
50.0940 -0.8396 9.8558 1.0000
50.0940 -0.5400 9.8550 1.0000
50.0940 -0.2405 9.8545 1.0000
50.0940 0.0590 9.8544 1.0000
50.0940 0.5082 9.8549 1.0000
50.0940 0.6579 9.8553 1.0000
50.0940 0.8077 9.8557 1.0000
50.0940 0.9575 9.8562 1.0000
50.0940 1.1073 9.8568 1.0000
50.0940 1.5568 9.8592 1.0000
50.0940 1.7068 9.8601 1.0000
50.0940 1.8567 9.8612 1.0000
50.0940 2.0067 9.8623 1.0000
50.0940 2.3067 9.8649 1.0000
50.0940 2.4568 9.8663 1.0000
50.0940 2.6069 9.8677 1.0000
50.0940 2.7571 9.8693 1.0000
50.0940 3.3583 9.8765 1.0000
50.0940 3.8098 9.8829 1.0000
50.0940 3.9605 9.8852 1.0000
50.0940 4.4129 9.8926 1.0000
50.0940 4.5638 9.8952 1.0000
50.0940 4.8659 9.9008 1.0000
50.0940 5.3198 9.9098 1.0000
50.0940 5.4713 9.9130 1.0000
50.0940 5.6229 9.9163 1.0000
50.0940 5.7745 9.9197 1.0000
50.0940 5.9263 9.9231 1.0000
50.0940 6.0782 9.9267 1.0000
50.0940 6.2302 9.9303 1.0000
50.0940 6.3823 9.9341 1.0000
50.0940 6.6870 9.9418 1.0000
50.0940 7.1447 9.9541 1.0000
50.0940 7.6037 9.9673 1.0000
50.0940 7.7570 9.9719 1.0000
50.0940 7.9104 9.9765 1.0000
50.0940 8.0639 9.9813 1.0000
50.0940 8.2176 9.9861 1.0000
50.0940 8.3714 9.9911 1.0000
50.0940 8.5255 9.9961 1.0000
50.0940 8.8339 10.0065 1.0000
50.0940 8.9884 10.0118 1.0000
50.0940 9.1430 10.0172 1.0000
50.0941 9.4529 10.0283 1.0000
50.0941 9.6080 10.0340 1.0000
50.0941 9.7634 10.0398 1.0000
50.0941 9.9189 10.0457 1.0000
50.0941 10.0746 10.0517 1.0000
50.0941 10.2305 10.0578 1.0000
50.0941 10.3866 10.0640 1.0000
50.0941 10.5429 10.0703 1.0000
50.0941 10.6993 10.0767 1.0000
50.0941 10.8560 10.0832 1.0000
50.0941 11.1700 10.0964 1.0000
50.0941 11.6425 10.1171 1.0000
50.0941 11.9586 10.1313 1.0000
50.0941 12.1170 10.1386 1.0000
50.0941 12.2756 10.1460 1.0000
50.0941 12.4345 10.1535 1.0000
50.0941 12.5936 10.1610 1.0000
50.0941 13.0723 10.1844 1.0000
50.0941 13.2323 10.1924 1.0000
50.0941 13.3927 10.2005 1.0000
50.0940 -13.2923 10.1954 1.0000
50.0941 -12.8125 10.1716 1.0000
50.0940 -11.8596 10.1268 1.0000
50.0941 -11.0716 10.0922 1.0000
50.0941 -10.7579 10.0791 1.0000
50.0940 -10.4450 10.0664 1.0000
50.0940 -10.2889 10.0601 1.0000
50.0941 -9.9771 10.0480 1.0000
50.0941 -9.5109 10.0305 1.0000
50.0940 -8.7373 10.0032 1.0000
50.0940 -8.5831 9.9980 1.0000
50.0940 -8.4291 9.9929 1.0000
50.0941 -8.2752 9.9880 1.0000
50.0941 -8.1214 9.9831 1.0000
50.0939 -7.0491 9.9515 1.0000
50.0939 -6.4393 9.9355 1.0000
50.0939 -6.2871 9.9317 1.0000
50.0939 -5.8313 9.9210 1.0000
50.0939 -5.6796 9.9175 1.0000
50.0939 -5.3765 9.9110 1.0000
50.0939 -5.0738 9.9048 1.0000
50.0939 -4.9225 9.9019 1.0000
50.0939 -3.7156 9.8815 1.0000
50.0939 -3.5650 9.8793 1.0000
50.0939 -3.2642 9.8753 1.0000
50.0939 -3.1138 9.8734 1.0000
50.0939 -2.9635 9.8716 1.0000
50.0939 -2.6631 9.8683 1.0000
50.0940 -2.0627 9.8628 1.0000
50.0940 -1.7628 9.8605 1.0000
50.0940 -1.6129 9.8595 1.0000
50.0940 -1.1634 9.8571 1.0000
50.0940 -1.0135 9.8564 1.0000
50.0940 -0.8637 9.8559 1.0000
50.0940 -0.7139 9.8554 1.0000
50.0940 -0.2646 9.8545 1.0000
50.0940 -0.1149 9.8544 1.0000
50.0940 0.4841 9.8549 1.0000
50.0940 0.6338 9.8552 1.0000
50.0940 1.0832 9.8567 1.0000
50.0940 1.2330 9.8574 1.0000
50.0940 10.8812 9.1878 1.0000
50.0940 11.0382 9.1938 1.0000
50.0940 11.1953 9.1999 1.0000
50.0940 11.5102 9.2124 1.0000
50.0940 12.6192 9.2589 1.0000
50.0940 12.7786 9.2659 1.0000
50.0940 13.0980 9.2802 1.0000
50.0940 13.2582 9.2875 1.0000
50.0941 -12.9465 9.2734 1.0000
50.0941 -12.4683 9.2523 1.0000
50.0941 -12.3095 9.2455 1.0000
50.0941 -11.5184 9.2127 1.0000
50.0941 -11.3608 9.2064 1.0000
50.0940 -11.2035 9.2002 1.0000
50.0940 -10.7327 9.1822 1.0000
50.0941 -9.7965 9.1485 1.0000
50.0940 -9.4859 9.1380 1.0000
50.0940 -9.3309 9.1328 1.0000
50.0940 -9.1760 9.1278 1.0000
50.0940 -9.0214 9.1228 1.0000
50.0940 -8.8669 9.1180 1.0000
50.0940 -8.7125 9.1132 1.0000
50.0940 -7.7896 9.0863 1.0000
50.0940 -7.6363 9.0821 1.0000
50.0939 -7.4832 9.0780 1.0000
50.0939 -7.0246 9.0662 1.0000
50.0939 -6.8719 9.0625 1.0000
50.0939 -6.5671 9.0552 1.0000
50.0939 -6.2626 9.0483 1.0000
50.0939 -6.1106 9.0449 1.0000
50.0939 -5.9587 9.0417 1.0000
50.0940 -5.8069 9.0385 1.0000
50.0939 -5.2007 9.0266 1.0000
50.0939 -5.0494 9.0239 1.0000
50.0939 -4.8982 9.0212 1.0000
50.0939 -4.5960 9.0161 1.0000
50.0939 -4.2941 9.0113 1.0000
50.0939 -3.9926 9.0069 1.0000
50.0939 -3.6914 9.0027 1.0000
50.0939 -2.9393 8.9938 1.0000
50.0940 -2.6389 8.9908 1.0000
50.0939 -2.4888 8.9895 1.0000
50.0940 -2.3386 8.9882 1.0000
50.0939 -2.1886 8.9870 1.0000
50.0940 -2.0386 8.9858 1.0000
50.0940 -1.5888 8.9829 1.0000
50.0940 -1.4389 8.9821 1.0000
50.0940 -1.2891 8.9814 1.0000
50.0940 -0.9894 8.9801 1.0000
50.0940 -0.8396 8.9797 1.0000
50.0940 -0.3903 8.9787 1.0000
50.0940 -0.2406 8.9785 1.0000
50.0940 -0.0908 8.9784 1.0000
50.0940 0.2086 8.9785 1.0000
50.0940 0.5082 8.9788 1.0000
50.0940 0.6579 8.9792 1.0000
50.0940 0.9575 8.9800 1.0000
50.0940 1.1073 8.9806 1.0000
50.0940 1.7068 8.9836 1.0000
50.0940 1.8567 8.9846 1.0000
50.0940 2.1567 8.9867 1.0000
50.0940 2.3067 8.9879 1.0000
50.0940 2.7571 8.9920 1.0000
50.0940 2.9073 8.9935 1.0000
50.0940 3.0576 8.9951 1.0000
50.0940 3.3582 8.9985 1.0000
50.0940 3.5087 9.0004 1.0000
50.0940 3.8098 9.0043 1.0000
50.0940 3.9604 9.0064 1.0000
50.0940 4.1112 9.0086 1.0000
50.0940 4.4129 9.0132 1.0000
50.0940 4.5638 9.0156 1.0000
50.0940 5.1684 9.0261 1.0000
50.0940 5.4713 9.0318 1.0000
50.0940 5.7746 9.0378 1.0000
50.0940 6.0782 9.0442 1.0000
50.0940 6.2302 9.0476 1.0000
50.0940 6.3823 9.0510 1.0000
50.0940 6.9920 9.0654 1.0000
50.0940 7.2975 9.0732 1.0000
50.0940 7.6037 9.0812 1.0000
50.0940 7.7569 9.0854 1.0000
50.0940 8.3714 9.1029 1.0000
50.0940 8.6796 9.1122 1.0000
50.0940 8.9884 9.1218 1.0000
50.0940 9.4529 9.1368 1.0000
50.0940 9.6080 9.1420 1.0000
50.0940 9.9189 9.1527 1.0000
50.0940 10.0746 9.1582 1.0000
50.0940 10.2305 9.1637 1.0000
50.0940 10.6993 9.1809 1.0000
50.0940 10.8560 9.1868 1.0000
50.0940 11.0129 9.1928 1.0000
50.0940 11.4848 9.2113 1.0000
50.0940 11.8005 9.2241 1.0000
50.0940 12.2756 9.2440 1.0000
50.0940 12.4345 9.2509 1.0000
50.0940 12.5936 9.2578 1.0000
50.0940 12.9124 9.2719 1.0000
50.0940 13.0723 9.2791 1.0000
50.0940 13.2323 9.2864 1.0000
50.0940 13.3927 9.2937 1.0000
50.0941 -13.2923 9.2891 1.0000
50.0941 -12.9722 9.2746 1.0000
50.0941 -12.8125 9.2674 1.0000
50.0941 -12.4939 9.2534 1.0000
50.0941 -12.3350 9.2466 1.0000
50.0941 -12.1763 9.2398 1.0000
50.0941 -11.8596 9.2266 1.0000
50.0941 -11.7016 9.2201 1.0000
50.0941 -11.5437 9.2137 1.0000
50.0940 -11.0716 9.1951 1.0000
50.0940 -10.9147 9.1890 1.0000
50.0940 -10.7579 9.1831 1.0000
50.0940 -10.6014 9.1772 1.0000
50.0940 -10.4450 9.1715 1.0000
50.0940 -10.2889 9.1658 1.0000
50.0940 -10.1329 9.1602 1.0000
50.0940 -9.8216 9.1493 1.0000
50.0940 -8.8917 9.1187 1.0000
50.0940 -8.7373 9.1139 1.0000
50.0941 -8.5831 9.1092 1.0000
50.0940 -8.4291 9.1046 1.0000
50.0940 -8.2752 9.1001 1.0000
50.0941 -8.1214 9.0956 1.0000
50.0940 -7.8143 9.0870 1.0000
50.0940 -7.6610 9.0828 1.0000
50.0939 -7.3548 9.0746 1.0000
50.0939 -7.2019 9.0707 1.0000
50.0939 -6.8965 9.0631 1.0000
50.0939 -6.7440 9.0594 1.0000
50.0939 -6.5916 9.0558 1.0000
50.0939 -5.9832 9.0422 1.0000
50.0939 -5.8314 9.0390 1.0000
50.0939 -5.6796 9.0359 1.0000
50.0939 -5.5280 9.0329 1.0000
50.0939 -5.3764 9.0300 1.0000
50.0939 -5.2251 9.0271 1.0000
50.0939 -4.9225 9.0216 1.0000
50.0939 -4.6203 9.0165 1.0000
50.0939 -4.4693 9.0141 1.0000
50.0939 -4.3184 9.0117 1.0000
50.0939 -4.1676 9.0094 1.0000
50.0939 -4.0169 9.0072 1.0000
50.0939 -3.8662 9.0051 1.0000
50.0939 -3.7156 9.0031 1.0000
50.0939 -3.5650 9.0011 1.0000
50.0939 -3.4146 8.9992 1.0000
50.0939 -3.2642 8.9974 1.0000
50.0939 -3.1139 8.9957 1.0000
50.0939 -2.8133 8.9925 1.0000
50.0940 -2.6631 8.9911 1.0000
50.0939 -2.5130 8.9897 1.0000
50.0940 -2.2128 8.9871 1.0000
50.0940 -1.7629 8.9839 1.0000
50.0940 -1.6129 8.9830 1.0000
50.0940 -1.4630 8.9822 1.0000
50.0940 -1.3132 8.9815 1.0000
50.0940 -1.0136 8.9802 1.0000
50.0940 -0.7139 8.9793 1.0000
50.0940 -0.2646 8.9785 1.0000
50.0940 -0.1150 8.9784 1.0000
50.0940 0.0348 8.9784 1.0000
50.0940 0.6338 8.9791 1.0000
50.0940 1.0832 8.9805 1.0000
50.0940 10.8812 8.2967 1.0000
50.0939 11.0382 8.3022 1.0000
50.0939 11.1953 8.3077 1.0000
50.0939 11.3526 8.3133 1.0000
50.0939 11.6679 8.3247 1.0000
50.0939 11.9841 8.3364 1.0000
50.0939 12.1425 8.3424 1.0000
50.0939 12.3012 8.3485 1.0000
50.0939 12.7785 8.3673 1.0000
50.0939 12.9381 8.3737 1.0000
50.0940 -13.2664 8.3872 1.0000
50.0940 -13.1063 8.3806 1.0000
50.0940 -12.7868 8.3676 1.0000
50.0940 -12.6275 8.3613 1.0000
50.0940 -12.1508 8.3428 1.0000
50.0940 -11.8341 8.3308 1.0000
50.0940 -11.6761 8.3250 1.0000
50.0940 -11.2035 8.3080 1.0000
50.0940 -10.5762 8.2864 1.0000
50.0940 -10.2638 8.2761 1.0000
50.0940 -9.3309 8.2471 1.0000
50.0940 -9.0213 8.2381 1.0000
50.0940 -8.7125 8.2294 1.0000
50.0940 -8.5583 8.2251 1.0000
50.0940 -8.4043 8.2210 1.0000
50.0940 -8.0967 8.2129 1.0000
50.0940 -7.7896 8.2051 1.0000
50.0939 -7.4832 8.1976 1.0000
50.0939 -7.3301 8.1940 1.0000
50.0939 -7.1772 8.1904 1.0000
50.0939 -6.7194 8.1803 1.0000
50.0939 -6.2626 8.1708 1.0000
50.0939 -6.1106 8.1678 1.0000
50.0939 -5.9586 8.1648 1.0000
50.0939 -5.8068 8.1619 1.0000
50.0939 -5.2007 8.1512 1.0000
50.0939 -5.0493 8.1487 1.0000
50.0939 -4.8981 8.1463 1.0000
50.0939 -4.7470 8.1440 1.0000
50.0939 -4.5960 8.1417 1.0000
50.0939 -4.4450 8.1395 1.0000
50.0939 -4.2941 8.1374 1.0000
50.0939 -3.8419 8.1315 1.0000
50.0939 -3.2399 8.1246 1.0000
50.0939 -3.0896 8.1231 1.0000
50.0939 -2.9393 8.1216 1.0000
50.0939 -2.7891 8.1202 1.0000
50.0939 -2.4887 8.1177 1.0000
50.0939 -2.3387 8.1165 1.0000
50.0939 -2.1886 8.1154 1.0000
50.0939 -1.8886 8.1134 1.0000
50.0939 -1.7387 8.1125 1.0000
50.0939 -1.5888 8.1117 1.0000
50.0939 -1.4389 8.1110 1.0000
50.0939 -1.1392 8.1097 1.0000
50.0939 -0.8396 8.1088 1.0000
50.0939 -0.6898 8.1084 1.0000
50.0939 -0.5401 8.1081 1.0000
50.0939 -0.0908 8.1077 1.0000
50.0939 0.0589 8.1077 1.0000
50.0939 0.6579 8.1084 1.0000
50.0939 0.8077 8.1087 1.0000
50.0940 1.7067 8.1124 1.0000
50.0939 1.8567 8.1132 1.0000
50.0939 2.1567 8.1152 1.0000
50.0939 2.3067 8.1162 1.0000
50.0939 2.6069 8.1186 1.0000
50.0939 2.7571 8.1199 1.0000
50.0939 3.0576 8.1227 1.0000
50.0939 3.2079 8.1243 1.0000
50.0940 3.3583 8.1259 1.0000
50.0939 3.5087 8.1275 1.0000
50.0939 3.6592 8.1293 1.0000
50.0939 3.9605 8.1330 1.0000
50.0940 4.1112 8.1349 1.0000
50.0940 5.0171 8.1482 1.0000
50.0940 5.3198 8.1532 1.0000
50.0939 5.4713 8.1559 1.0000
50.0940 5.6228 8.1586 1.0000
50.0940 5.7745 8.1613 1.0000
50.0940 6.0782 8.1671 1.0000
50.0940 6.2302 8.1701 1.0000
50.0940 6.3823 8.1732 1.0000
50.0940 6.8394 8.1829 1.0000
50.0940 7.7569 8.2043 1.0000
50.0940 7.9103 8.2081 1.0000
50.0940 8.0639 8.2120 1.0000
50.0940 8.5254 8.2242 1.0000
50.0940 8.6796 8.2285 1.0000
50.0939 9.2979 8.2461 1.0000
50.0940 9.4528 8.2507 1.0000
50.0940 9.9188 8.2651 1.0000
50.0940 10.0745 8.2700 1.0000
50.0939 10.6993 8.2905 1.0000
50.0940 10.8560 8.2959 1.0000
50.0939 11.0129 8.3013 1.0000
50.0939 11.1700 8.3068 1.0000
50.0939 11.3273 8.3124 1.0000
50.0939 11.4848 8.3180 1.0000
50.0939 11.6425 8.3238 1.0000
50.0939 11.8004 8.3296 1.0000
50.0939 11.9586 8.3355 1.0000
50.0939 12.1170 8.3415 1.0000
50.0939 12.4345 8.3537 1.0000
50.0940 13.0723 8.3792 1.0000
50.0940 13.2323 8.3858 1.0000
50.0940 -13.2922 8.3882 1.0000
50.0940 -13.1321 8.3816 1.0000
50.0940 -12.8125 8.3687 1.0000
50.0940 -12.6532 8.3623 1.0000
50.0940 -12.4939 8.3560 1.0000
50.0940 -12.3350 8.3498 1.0000
50.0940 -12.1763 8.3437 1.0000
50.0940 -12.0179 8.3377 1.0000
50.0940 -11.3861 8.3145 1.0000
50.0940 -11.2288 8.3089 1.0000
50.0940 -10.7579 8.2925 1.0000
50.0940 -10.2889 8.2769 1.0000
50.0940 -9.6661 8.2572 1.0000
50.0940 -9.3558 8.2479 1.0000
50.0940 -8.7373 8.2301 1.0000
50.0940 -8.5831 8.2258 1.0000
50.0940 -7.9678 8.2096 1.0000
50.0940 -7.8143 8.2057 1.0000
50.0940 -7.5078 8.1982 1.0000
50.0939 -7.3548 8.1946 1.0000
50.0939 -7.2018 8.1910 1.0000
50.0939 -7.0491 8.1875 1.0000
50.0939 -6.8964 8.1841 1.0000
50.0939 -6.4393 8.1744 1.0000
50.0939 -5.9831 8.1653 1.0000
50.0939 -5.8313 8.1624 1.0000
50.0939 -5.2250 8.1516 1.0000
50.0939 -4.9225 8.1467 1.0000
50.0939 -4.7713 8.1444 1.0000
50.0939 -4.6203 8.1421 1.0000
50.0939 -4.4693 8.1399 1.0000
50.0939 -4.1676 8.1357 1.0000
50.0939 -4.0168 8.1337 1.0000
50.0939 -3.5650 8.1282 1.0000
50.0939 -3.2641 8.1249 1.0000
50.0939 -3.1138 8.1233 1.0000
50.0939 -2.8132 8.1204 1.0000
50.0939 -2.6630 8.1191 1.0000
50.0939 -2.5129 8.1178 1.0000
50.0939 -2.3628 8.1167 1.0000
50.0939 -2.2128 8.1156 1.0000
50.0939 -2.0627 8.1145 1.0000
50.0939 -1.9127 8.1136 1.0000
50.0939 -1.7628 8.1127 1.0000
50.0939 -1.4630 8.1111 1.0000
50.0939 -1.3132 8.1104 1.0000
50.0939 -1.1634 8.1098 1.0000
50.0939 -1.0135 8.1093 1.0000
50.0939 -0.7140 8.1085 1.0000
50.0939 -0.4145 8.1079 1.0000
50.0939 -0.1149 8.1077 1.0000
50.0939 0.1846 8.1077 1.0000
50.0939 0.7836 8.1086 1.0000
50.0939 1.0832 8.1096 1.0000
50.0939 1.2330 8.1101 1.0000
50.0939 10.7246 7.4058 1.0000
50.0939 11.1953 7.4203 1.0000
50.0940 11.3526 7.4253 1.0000
50.0940 11.5101 7.4304 1.0000
50.0939 12.3011 7.4568 1.0000
50.0940 12.4600 7.4623 1.0000
50.0940 12.9381 7.4793 1.0000
50.0939 13.2581 7.4910 1.0000
50.0939 13.4185 7.4970 1.0000
50.0940 -13.2665 7.4913 1.0000
50.0940 -13.1064 7.4854 1.0000
50.0940 -12.7869 7.4739 1.0000
50.0940 -12.6275 7.4682 1.0000
50.0940 -12.1508 7.4517 1.0000
50.0940 -11.8341 7.4410 1.0000
50.0940 -11.5184 7.4307 1.0000
50.0940 -11.0463 7.4157 1.0000
50.0940 -10.8895 7.4108 1.0000
50.0940 -10.5762 7.4013 1.0000
50.0940 -10.4199 7.3967 1.0000
50.0940 -10.2638 7.3921 1.0000
50.0940 -10.1078 7.3876 1.0000
50.0940 -9.9521 7.3832 1.0000
50.0940 -9.7965 7.3789 1.0000
50.0940 -9.6411 7.3746 1.0000
50.0940 -9.4859 7.3704 1.0000
50.0940 -9.0214 7.3582 1.0000
50.0940 -8.5583 7.3466 1.0000
50.0940 -8.4043 7.3429 1.0000
50.0940 -8.0966 7.3357 1.0000
50.0940 -7.7896 7.3287 1.0000
50.0940 -7.6363 7.3253 1.0000
50.0939 -7.3302 7.3188 1.0000
50.0939 -7.0245 7.3125 1.0000
50.0939 -6.7194 7.3065 1.0000
50.0939 -6.5670 7.3036 1.0000
50.0939 -6.4148 7.3008 1.0000
50.0939 -5.8069 7.2902 1.0000
50.0939 -5.6552 7.2877 1.0000
50.0939 -5.5036 7.2852 1.0000
50.0939 -5.0494 7.2784 1.0000
50.0939 -4.8981 7.2762 1.0000
50.0939 -4.7470 7.2741 1.0000
50.0939 -4.2941 7.2682 1.0000
50.0939 -3.9926 7.2646 1.0000
50.0939 -3.6913 7.2613 1.0000
50.0939 -3.3904 7.2582 1.0000
50.0939 -3.2399 7.2568 1.0000
50.0939 -3.0896 7.2554 1.0000
50.0939 -2.7891 7.2529 1.0000
50.0939 -2.4888 7.2506 1.0000
50.0940 -2.3387 7.2496 1.0000
50.0940 -1.8887 7.2468 1.0000
50.0940 -1.7387 7.2460 1.0000
50.0940 -1.5888 7.2453 1.0000
50.0940 -1.4389 7.2447 1.0000
50.0940 -1.2891 7.2441 1.0000
50.0940 -0.9894 7.2431 1.0000
50.0940 -0.8396 7.2427 1.0000
50.0940 -0.5401 7.2421 1.0000
50.0940 -0.2406 7.2418 1.0000
50.0940 0.0589 7.2417 1.0000
50.0940 0.6579 7.2423 1.0000
50.0940 0.8077 7.2426 1.0000
50.0940 1.1073 7.2434 1.0000
50.0940 1.5568 7.2452 1.0000
50.0940 1.7067 7.2459 1.0000
50.0940 1.8567 7.2467 1.0000
50.0940 2.3067 7.2493 1.0000
50.0940 2.6068 7.2515 1.0000
50.0940 3.0575 7.2552 1.0000
50.0940 3.3582 7.2579 1.0000
50.0940 3.6592 7.2610 1.0000
50.0940 3.8098 7.2626 1.0000
50.0940 3.9604 7.2643 1.0000
50.0940 4.1111 7.2660 1.0000
50.0939 4.2620 7.2678 1.0000
50.0940 4.8659 7.2758 1.0000
50.0940 5.1684 7.2801 1.0000
50.0940 5.3198 7.2824 1.0000
50.0940 5.4713 7.2847 1.0000
50.0939 6.2302 7.2975 1.0000
50.0939 6.6869 7.3059 1.0000
50.0940 6.9920 7.3119 1.0000
50.0940 7.2975 7.3181 1.0000
50.0940 7.4505 7.3213 1.0000
50.0940 7.6036 7.3246 1.0000
50.0939 7.7569 7.3280 1.0000
50.0940 7.9103 7.3314 1.0000
50.0940 8.2175 7.3385 1.0000
50.0940 8.5254 7.3458 1.0000
50.0939 8.6796 7.3496 1.0000
50.0940 8.8339 7.3534 1.0000
50.0940 9.7633 7.3779 1.0000
50.0940 9.9189 7.3823 1.0000
50.0939 10.3866 7.3957 1.0000
50.0940 10.5429 7.4003 1.0000
50.0940 10.6993 7.4050 1.0000
50.0940 11.0129 7.4146 1.0000
50.0940 11.8004 7.4399 1.0000
50.0940 11.9586 7.4452 1.0000
50.0940 12.4344 7.4614 1.0000
50.0940 12.9124 7.4784 1.0000
50.0940 13.2323 7.4901 1.0000
50.0940 -13.2923 7.4923 1.0000
50.0940 -13.1321 7.4864 1.0000
50.0940 -12.9722 7.4805 1.0000
50.0940 -12.8126 7.4748 1.0000
50.0940 -12.4940 7.4635 1.0000
50.0940 -12.3350 7.4580 1.0000
50.0940 -11.8596 7.4419 1.0000
50.0940 -11.7016 7.4366 1.0000
50.0940 -11.2288 7.4214 1.0000
50.0940 -10.7580 7.4068 1.0000
50.0940 -10.2889 7.3929 1.0000
50.0940 -9.9771 7.3839 1.0000
50.0940 -9.8216 7.3796 1.0000
50.0940 -9.6661 7.3753 1.0000
50.0940 -9.3559 7.3669 1.0000
50.0940 -9.2010 7.3628 1.0000
50.0940 -8.8917 7.3549 1.0000
50.0940 -8.7373 7.3510 1.0000
50.0940 -8.4291 7.3435 1.0000
50.0940 -8.1214 7.3362 1.0000
50.0939 -7.3548 7.3193 1.0000
50.0939 -6.8965 7.3100 1.0000
50.0939 -6.5916 7.3041 1.0000
50.0939 -6.4393 7.3013 1.0000
50.0939 -6.2871 7.2985 1.0000
50.0939 -6.1351 7.2958 1.0000
50.0939 -5.8313 7.2906 1.0000
50.0939 -5.5280 7.2856 1.0000
50.0939 -5.2250 7.2810 1.0000
50.0939 -5.0738 7.2787 1.0000
50.0939 -4.9225 7.2766 1.0000
50.0939 -4.7713 7.2744 1.0000
50.0939 -4.4693 7.2704 1.0000
50.0939 -4.3184 7.2685 1.0000
50.0939 -4.1676 7.2667 1.0000
50.0939 -4.0169 7.2649 1.0000
50.0939 -3.7156 7.2616 1.0000
50.0939 -3.5650 7.2600 1.0000
50.0939 -3.1138 7.2557 1.0000
50.0939 -2.6631 7.2519 1.0000
50.0940 -2.2128 7.2487 1.0000
50.0940 -1.9128 7.2470 1.0000
50.0940 -1.6129 7.2454 1.0000
50.0940 -1.3132 7.2442 1.0000
50.0940 -1.1633 7.2436 1.0000
50.0940 -0.8638 7.2428 1.0000
50.0940 -0.7140 7.2424 1.0000
50.0940 -0.4145 7.2419 1.0000
50.0940 -0.2647 7.2418 1.0000
50.0940 -0.1150 7.2417 1.0000
50.0940 0.3343 7.2418 1.0000
50.0940 0.4840 7.2420 1.0000
50.0940 0.7836 7.2426 1.0000
50.0940 1.0831 7.2434 1.0000
50.0939 10.7246 6.5245 1.0000
50.0939 10.8812 6.5287 1.0000
50.0939 11.0382 6.5330 1.0000
50.0939 11.1953 6.5373 1.0000
50.0939 11.5102 6.5462 1.0000
50.0939 11.8259 6.5553 1.0000
50.0939 11.9841 6.5599 1.0000
50.0939 12.1425 6.5647 1.0000
50.0939 12.3012 6.5695 1.0000
50.0939 12.4600 6.5743 1.0000
50.0939 12.6192 6.5792 1.0000
50.0939 13.0980 6.5944 1.0000
50.0940 -12.9465 6.5895 1.0000
50.0940 -12.7869 6.5845 1.0000
50.0940 -12.3095 6.5697 1.0000
50.0940 -12.1508 6.5649 1.0000
50.0940 -11.8341 6.5555 1.0000
50.0940 -11.5184 6.5464 1.0000
50.0940 -11.2035 6.5375 1.0000
50.0940 -11.0464 6.5332 1.0000
50.0940 -10.8894 6.5289 1.0000
50.0940 -10.4199 6.5165 1.0000
50.0940 -10.2638 6.5125 1.0000
50.0940 -10.1078 6.5085 1.0000
50.0940 -9.9521 6.5046 1.0000
50.0940 -9.6411 6.4970 1.0000
50.0940 -9.4859 6.4933 1.0000
50.0940 -9.1761 6.4861 1.0000
50.0940 -8.7125 6.4757 1.0000
50.0940 -8.5583 6.4724 1.0000
50.0940 -8.4043 6.4691 1.0000
50.0940 -8.2504 6.4659 1.0000
50.0940 -7.9431 6.4596 1.0000
50.0940 -7.7896 6.4566 1.0000
50.0939 -7.0245 6.4423 1.0000
50.0939 -6.7194 6.4370 1.0000
50.0939 -6.5670 6.4345 1.0000
50.0939 -6.2626 6.4296 1.0000
50.0939 -5.9587 6.4249 1.0000
50.0939 -5.6552 6.4204 1.0000
50.0939 -5.5036 6.4183 1.0000
50.0939 -5.3521 6.4162 1.0000
50.0939 -4.8982 6.4103 1.0000
50.0939 -4.7470 6.4085 1.0000
50.0939 -4.5960 6.4067 1.0000
50.0939 -4.2941 6.4033 1.0000
50.0939 -4.1433 6.4017 1.0000
50.0939 -3.8419 6.3986 1.0000
50.0939 -3.5408 6.3958 1.0000
50.0939 -3.3904 6.3945 1.0000
50.0939 -3.2400 6.3932 1.0000
50.0939 -3.0896 6.3920 1.0000
50.0939 -2.0386 6.3852 1.0000
50.0939 -1.8886 6.3844 1.0000
50.0939 -1.7387 6.3838 1.0000
50.0939 -1.2890 6.3820 1.0000
50.0939 -0.9894 6.3812 1.0000
50.0939 -0.8396 6.3808 1.0000
50.0939 -0.6898 6.3805 1.0000
50.0939 -0.5400 6.3803 1.0000
50.0939 -0.3904 6.3801 1.0000
50.0939 -0.2405 6.3800 1.0000
50.0939 -0.0908 6.3799 1.0000
50.0939 0.0589 6.3799 1.0000
50.0939 0.2087 6.3800 1.0000
50.0939 0.3584 6.3801 1.0000
50.0939 0.9575 6.3811 1.0000
50.0939 1.1073 6.3815 1.0000
50.0939 1.2571 6.3819 1.0000
50.0939 2.1567 6.3858 1.0000
50.0939 2.3067 6.3867 1.0000
50.0939 2.4568 6.3876 1.0000
50.0939 2.6069 6.3885 1.0000
50.0939 2.7571 6.3896 1.0000
50.0939 2.9073 6.3906 1.0000
50.0939 3.0576 6.3918 1.0000
50.0939 3.2079 6.3930 1.0000
50.0939 3.6593 6.3969 1.0000
50.0939 4.1111 6.4014 1.0000
50.0939 4.4129 6.4046 1.0000
50.0939 4.5638 6.4063 1.0000
50.0939 5.0171 6.4118 1.0000
50.0939 5.3198 6.4158 1.0000
50.0939 5.4713 6.4179 1.0000
50.0939 5.6229 6.4200 1.0000
50.0939 5.9263 6.4244 1.0000
50.0939 6.0782 6.4267 1.0000
50.0939 6.3823 6.4315 1.0000
50.0939 6.5346 6.4340 1.0000
50.0939 6.6869 6.4365 1.0000
50.0939 6.8394 6.4391 1.0000
50.0939 7.1447 6.4445 1.0000
50.0939 7.4505 6.4501 1.0000
50.0939 7.6037 6.4530 1.0000
50.0939 7.7570 6.4560 1.0000
50.0939 7.9104 6.4590 1.0000
50.0939 8.0639 6.4620 1.0000
50.0939 8.2176 6.4652 1.0000
50.0939 8.3714 6.4684 1.0000
50.0939 8.5254 6.4717 1.0000
50.0939 8.6796 6.4750 1.0000
50.0939 8.8339 6.4784 1.0000
50.0939 8.9884 6.4818 1.0000
50.0939 9.2979 6.4889 1.0000
50.0939 9.4529 6.4925 1.0000
50.0939 9.6080 6.4962 1.0000
50.0939 9.7634 6.5000 1.0000
50.0939 10.0746 6.5077 1.0000
50.0939 10.2305 6.5116 1.0000
50.0939 10.3866 6.5156 1.0000
50.0939 10.6993 6.5238 1.0000
50.0939 11.0129 6.5323 1.0000
50.0939 11.1700 6.5366 1.0000
50.0939 11.3272 6.5410 1.0000
50.0939 11.6425 6.5500 1.0000
50.0939 12.1170 6.5639 1.0000
50.0939 12.2756 6.5687 1.0000
50.0939 12.4344 6.5735 1.0000
50.0939 12.7529 6.5834 1.0000
50.0939 13.2323 6.5987 1.0000
50.0939 13.3926 6.6040 1.0000
50.0940 -12.9722 6.5904 1.0000
50.0940 -12.8125 6.5853 1.0000
50.0940 -12.4939 6.5754 1.0000
50.0940 -12.3350 6.5705 1.0000
50.0940 -12.1763 6.5657 1.0000
50.0940 -12.0179 6.5609 1.0000
50.0940 -11.8596 6.5563 1.0000
50.0940 -11.7016 6.5517 1.0000
50.0940 -11.3862 6.5426 1.0000
50.0940 -11.0716 6.5339 1.0000
50.0940 -10.9147 6.5296 1.0000
50.0940 -10.7579 6.5254 1.0000
50.0940 -10.6014 6.5212 1.0000
50.0940 -10.2889 6.5131 1.0000
50.0940 -9.8215 6.5014 1.0000
50.0940 -9.5109 6.4939 1.0000
50.0940 -9.0463 6.4831 1.0000
50.0940 -8.8917 6.4796 1.0000
50.0940 -8.7373 6.4762 1.0000
50.0940 -8.5832 6.4729 1.0000
50.0940 -8.4291 6.4696 1.0000
50.0940 -8.2752 6.4664 1.0000
50.0940 -7.9678 6.4601 1.0000
50.0940 -7.8143 6.4571 1.0000
50.0939 -7.3548 6.4483 1.0000
50.0939 -6.8965 6.4401 1.0000
50.0939 -6.5916 6.4349 1.0000
50.0939 -5.8313 6.4230 1.0000
50.0939 -5.6796 6.4208 1.0000
50.0939 -5.3764 6.4166 1.0000
50.0939 -5.0737 6.4125 1.0000
50.0939 -4.7714 6.4088 1.0000
50.0939 -4.3184 6.4036 1.0000
50.0939 -4.0168 6.4004 1.0000
50.0939 -3.7156 6.3974 1.0000
50.0939 -3.5650 6.3960 1.0000
50.0939 -3.4146 6.3947 1.0000
50.0939 -3.2642 6.3934 1.0000
50.0939 -2.8133 6.3900 1.0000
50.0939 -2.6631 6.3889 1.0000
50.0939 -2.5129 6.3879 1.0000
50.0939 -2.3629 6.3870 1.0000
50.0939 -2.0628 6.3853 1.0000
50.0939 -1.9128 6.3846 1.0000
50.0939 -1.3132 6.3821 1.0000
50.0939 -1.1633 6.3816 1.0000
50.0939 -1.0135 6.3812 1.0000
50.0939 -0.8637 6.3809 1.0000
50.0939 -0.7139 6.3806 1.0000
50.0939 -0.4145 6.3801 1.0000
50.0939 -0.2647 6.3800 1.0000
50.0939 -0.1149 6.3799 1.0000
50.0939 0.0348 6.3799 1.0000
50.0939 0.3343 6.3801 1.0000
50.0939 0.9334 6.3810 1.0000
50.0939 1.0832 6.3814 1.0000
50.0939 1.2330 6.3819 1.0000
50.0939 10.8812 5.6506 1.0000
50.0939 11.0382 5.6543 1.0000
50.0939 11.1952 5.6581 1.0000
50.0939 11.3526 5.6619 1.0000
50.0939 11.5102 5.6657 1.0000
50.0939 11.6679 5.6697 1.0000
50.0939 11.9841 5.6777 1.0000
50.0939 12.3012 5.6859 1.0000
50.0939 12.4600 5.6901 1.0000
50.0939 12.6192 5.6944 1.0000
50.0939 12.9381 5.7031 1.0000
50.0939 13.0980 5.7075 1.0000
50.0940 -13.2665 5.7122 1.0000
50.0939 -12.6275 5.6946 1.0000
50.0940 -12.4683 5.6903 1.0000
50.0940 -12.3095 5.6861 1.0000
50.0940 -12.1507 5.6820 1.0000
50.0939 -11.9923 5.6779 1.0000
50.0940 -11.6761 5.6699 1.0000
50.0940 -11.5184 5.6660 1.0000
50.0939 -11.0463 5.6545 1.0000
50.0940 -10.7327 5.6472 1.0000
50.0940 -10.5762 5.6436 1.0000
50.0939 -10.4198 5.6400 1.0000
50.0940 -10.1078 5.6331 1.0000
50.0939 -9.7965 5.6265 1.0000
50.0939 -9.6411 5.6232 1.0000
50.0939 -8.7125 5.6047 1.0000
50.0940 -8.5583 5.6019 1.0000
50.0940 -8.0966 5.5935 1.0000
50.0940 -7.9431 5.5908 1.0000
50.0940 -7.7896 5.5882 1.0000
50.0939 -7.6363 5.5857 1.0000
50.0939 -7.4832 5.5831 1.0000
50.0939 -7.3302 5.5807 1.0000
50.0939 -7.1773 5.5782 1.0000
50.0939 -7.0245 5.5759 1.0000
50.0939 -6.7194 5.5713 1.0000
50.0939 -6.2626 5.5648 1.0000
50.0939 -4.8981 5.5482 1.0000
50.0939 -4.5959 5.5450 1.0000
50.0939 -4.4450 5.5435 1.0000
50.0939 -3.9926 5.5394 1.0000
50.0939 -3.8419 5.5381 1.0000
50.0939 -3.6913 5.5368 1.0000
50.0939 -3.3903 5.5345 1.0000
50.0939 -3.0896 5.5323 1.0000
50.0939 -2.7891 5.5304 1.0000
50.0939 -2.6389 5.5295 1.0000
50.0939 -2.3387 5.5279 1.0000
50.0939 -2.1886 5.5271 1.0000
50.0939 -0.9894 5.5229 1.0000
50.0939 -0.6898 5.5224 1.0000
50.0939 -0.5401 5.5222 1.0000
50.0939 -0.3903 5.5220 1.0000
50.0939 -0.2406 5.5219 1.0000
50.0939 -0.0908 5.5219 1.0000
50.0939 0.0589 5.5219 1.0000
50.0939 0.3584 5.5220 1.0000
50.0939 0.6580 5.5223 1.0000
50.0939 0.8077 5.5226 1.0000
50.0939 1.4070 5.5240 1.0000
50.0939 1.7067 5.5250 1.0000
50.0939 2.1566 5.5270 1.0000
50.0939 2.3066 5.5277 1.0000
50.0939 2.4568 5.5285 1.0000
50.0939 2.6069 5.5293 1.0000
50.0939 2.9073 5.5311 1.0000
50.0939 3.2079 5.5332 1.0000
50.0939 3.6592 5.5366 1.0000
50.0939 3.8098 5.5378 1.0000
50.0939 3.9605 5.5391 1.0000
50.0939 4.1112 5.5404 1.0000
50.0939 4.7148 5.5463 1.0000
50.0939 4.8659 5.5478 1.0000
50.0939 5.0171 5.5495 1.0000
50.0939 5.7745 5.5584 1.0000
50.0939 5.9263 5.5604 1.0000
50.0939 6.0782 5.5624 1.0000
50.0939 6.2302 5.5644 1.0000
50.0939 6.5345 5.5686 1.0000
50.0939 6.6869 5.5708 1.0000
50.0939 6.9920 5.5754 1.0000
50.0939 7.1447 5.5777 1.0000
50.0939 7.2976 5.5801 1.0000
50.0939 7.6037 5.5851 1.0000
50.0939 7.7569 5.5877 1.0000
50.0939 8.0639 5.5929 1.0000
50.0939 8.2176 5.5957 1.0000
50.0939 8.3714 5.5984 1.0000
50.0939 8.5254 5.6012 1.0000
50.0939 9.1430 5.6131 1.0000
50.0939 9.2979 5.6162 1.0000
50.0939 10.0746 5.6324 1.0000
50.0939 10.2305 5.6358 1.0000
50.0939 10.3866 5.6393 1.0000
50.0939 10.6993 5.6464 1.0000
50.0939 10.8560 5.6500 1.0000
50.0939 11.0129 5.6537 1.0000
50.0939 11.1699 5.6575 1.0000
50.0939 11.3273 5.6613 1.0000
50.0939 11.6425 5.6690 1.0000
50.0939 11.8004 5.6730 1.0000
50.0939 12.1170 5.6811 1.0000
50.0939 12.2756 5.6852 1.0000
50.0939 12.4345 5.6894 1.0000
50.0939 12.7529 5.6980 1.0000
50.0939 13.2323 5.7112 1.0000
50.0939 13.3926 5.7158 1.0000
50.0939 -13.2922 5.7129 1.0000
50.0940 -12.8125 5.6996 1.0000
50.0940 -12.6532 5.6953 1.0000
50.0939 -12.3350 5.6868 1.0000
50.0940 -12.0179 5.6785 1.0000
50.0940 -11.0716 5.6551 1.0000
50.0940 -10.9147 5.6514 1.0000
50.0940 -10.4450 5.6406 1.0000
50.0940 -9.9771 5.6303 1.0000
50.0940 -9.3558 5.6173 1.0000
50.0940 -9.0463 5.6112 1.0000
50.0939 -8.8917 5.6082 1.0000
50.0940 -8.7373 5.6052 1.0000
50.0940 -8.5831 5.6023 1.0000
50.0939 -8.1214 5.5940 1.0000
50.0940 -7.9678 5.5913 1.0000
50.0940 -7.8143 5.5886 1.0000
50.0939 -7.6610 5.5861 1.0000
50.0939 -7.0491 5.5763 1.0000
50.0939 -6.8964 5.5739 1.0000
50.0939 -6.7439 5.5717 1.0000
50.0939 -6.5915 5.5695 1.0000
50.0939 -6.4393 5.5673 1.0000
50.0939 -6.1350 5.5631 1.0000
50.0939 -5.8313 5.5591 1.0000
50.0939 -5.6796 5.5572 1.0000
50.0939 -5.3764 5.5536 1.0000
50.0939 -5.0737 5.5501 1.0000
50.0939 -4.9225 5.5484 1.0000
50.0939 -4.6203 5.5453 1.0000
50.0939 -4.4693 5.5438 1.0000
50.0939 -3.8661 5.5383 1.0000
50.0939 -3.7155 5.5370 1.0000
50.0939 -3.5650 5.5358 1.0000
50.0939 -2.9635 5.5315 1.0000
50.0939 -2.8132 5.5306 1.0000
50.0939 -2.5129 5.5288 1.0000
50.0939 -2.3628 5.5280 1.0000
50.0939 -2.0628 5.5265 1.0000
50.0939 -1.9128 5.5259 1.0000
50.0939 -1.7629 5.5253 1.0000
50.0939 -1.4630 5.5242 1.0000
50.0939 -0.5642 5.5222 1.0000
50.0939 -0.4145 5.5220 1.0000
50.0939 -0.1149 5.5219 1.0000
50.0939 0.0348 5.5219 1.0000
50.0939 0.6338 5.5223 1.0000
50.0939 0.9334 5.5228 1.0000
50.0939 1.0832 5.5231 1.0000
50.0939 10.7245 4.7727 1.0000
50.0939 10.8812 4.7758 1.0000
50.0939 11.0382 4.7789 1.0000
50.0939 11.1953 4.7821 1.0000
50.0939 11.5101 4.7886 1.0000
50.0939 11.6679 4.7919 1.0000
50.0939 11.8258 4.7953 1.0000
50.0939 12.1425 4.8021 1.0000
50.0939 12.3011 4.8056 1.0000
50.0939 12.4600 4.8092 1.0000
50.0939 12.9381 4.8201 1.0000
50.0939 13.0980 4.8239 1.0000
50.0939 13.2581 4.8277 1.0000
50.0939 -13.2665 4.8279 1.0000
50.0939 -13.1063 4.8241 1.0000
50.0939 -12.6274 4.8130 1.0000
50.0939 -12.3094 4.8058 1.0000
50.0939 -11.8341 4.7954 1.0000
50.0939 -11.5184 4.7888 1.0000
50.0939 -11.2034 4.7823 1.0000
50.0939 -11.0463 4.7791 1.0000
50.0939 -10.8894 4.7760 1.0000
50.0939 -10.5762 4.7699 1.0000
50.0939 -10.1078 4.7610 1.0000
50.0939 -9.7965 4.7554 1.0000
50.0939 -9.6411 4.7526 1.0000
50.0939 -9.1760 4.7446 1.0000
50.0939 -8.8668 4.7395 1.0000
50.0939 -8.7125 4.7370 1.0000
50.0939 -8.5583 4.7346 1.0000
50.0939 -8.0966 4.7276 1.0000
50.0939 -7.6363 4.7209 1.0000
50.0938 -7.3302 4.7167 1.0000
50.0938 -6.8719 4.7107 1.0000
50.0938 -6.4148 4.7051 1.0000
50.0938 -6.1105 4.7016 1.0000
50.0938 -5.9587 4.6999 1.0000
50.0938 -5.6552 4.6966 1.0000
50.0938 -5.5035 4.6951 1.0000
50.0938 -5.0493 4.6906 1.0000
50.0938 -4.7470 4.6879 1.0000
50.0938 -4.5959 4.6866 1.0000
50.0938 -3.9926 4.6818 1.0000
50.0938 -3.6913 4.6796 1.0000
50.0938 -3.5408 4.6786 1.0000
50.0938 -3.2399 4.6767 1.0000
50.0938 -2.9393 4.6750 1.0000
50.0938 -2.4887 4.6727 1.0000
50.0939 -2.3386 4.6721 1.0000
50.0939 -1.8886 4.6703 1.0000
50.0939 -1.4389 4.6689 1.0000
50.0939 -0.9894 4.6679 1.0000
50.0939 -0.8396 4.6676 1.0000
50.0939 -0.6898 4.6674 1.0000
50.0939 -0.5400 4.6673 1.0000
50.0939 -0.2406 4.6670 1.0000
50.0939 -0.0908 4.6670 1.0000
50.0939 0.2087 4.6670 1.0000
50.0939 0.5082 4.6672 1.0000
50.0939 0.6579 4.6674 1.0000
50.0939 1.1073 4.6681 1.0000
50.0939 1.2571 4.6684 1.0000
50.0939 1.4070 4.6688 1.0000
50.0939 1.7067 4.6697 1.0000
50.0939 1.8567 4.6702 1.0000
50.0939 2.1566 4.6713 1.0000
50.0939 2.3067 4.6719 1.0000
50.0939 2.6069 4.6733 1.0000
50.0939 2.9073 4.6748 1.0000
50.0939 3.0575 4.6757 1.0000
50.0939 3.3582 4.6775 1.0000
50.0939 3.5087 4.6784 1.0000
50.0939 3.8098 4.6805 1.0000
50.0939 4.1111 4.6827 1.0000
50.0939 4.2619 4.6838 1.0000
50.0939 5.0171 4.6903 1.0000
50.0939 5.1684 4.6918 1.0000
50.0939 5.3198 4.6932 1.0000
50.0939 6.0782 4.7012 1.0000
50.0939 6.2302 4.7029 1.0000
50.0939 6.3823 4.7047 1.0000
50.0939 6.5345 4.7065 1.0000
50.0939 6.9920 4.7122 1.0000
50.0939 7.4505 4.7183 1.0000
50.0939 7.7569 4.7226 1.0000
50.0939 7.9103 4.7248 1.0000
50.0939 8.0639 4.7271 1.0000
50.0939 8.6796 4.7365 1.0000
50.0939 8.8339 4.7390 1.0000
50.0939 9.2979 4.7467 1.0000
50.0939 9.4529 4.7493 1.0000
50.0939 9.9189 4.7576 1.0000
50.0939 10.0746 4.7604 1.0000
50.0939 10.2304 4.7633 1.0000
50.0939 10.5428 4.7692 1.0000
50.0939 10.6993 4.7722 1.0000
50.0939 11.0129 4.7784 1.0000
50.0939 11.3272 4.7848 1.0000
50.0939 11.8004 4.7947 1.0000
50.0939 11.9586 4.7981 1.0000
50.0939 12.5935 4.8122 1.0000
50.0939 12.7529 4.8158 1.0000
50.0939 12.9124 4.8195 1.0000
50.0939 13.2323 4.8271 1.0000
50.0939 -12.9722 4.8209 1.0000
50.0939 -12.8125 4.8172 1.0000
50.0939 -12.4939 4.8099 1.0000
50.0939 -12.3350 4.8064 1.0000
50.0939 -12.0178 4.7994 1.0000
50.0939 -11.8596 4.7960 1.0000
50.0939 -11.7016 4.7926 1.0000
50.0939 -11.3861 4.7860 1.0000
50.0939 -11.0716 4.7796 1.0000
50.0939 -10.9147 4.7765 1.0000
50.0939 -10.6014 4.7703 1.0000
50.0939 -9.8215 4.7558 1.0000
50.0939 -8.7373 4.7374 1.0000
50.0939 -8.5831 4.7350 1.0000
50.0939 -7.8143 4.7234 1.0000
50.0939 -7.6610 4.7212 1.0000
50.0938 -7.3548 4.7170 1.0000
50.0938 -7.2019 4.7150 1.0000
50.0938 -6.5916 4.7072 1.0000
50.0938 -6.4393 4.7054 1.0000
50.0938 -5.9831 4.7001 1.0000
50.0938 -5.2250 4.6923 1.0000
50.0938 -4.7713 4.6881 1.0000
50.0938 -4.6202 4.6868 1.0000
50.0938 -4.3184 4.6843 1.0000
50.0938 -4.0168 4.6820 1.0000
50.0938 -3.4146 4.6778 1.0000
50.0938 -3.2641 4.6769 1.0000
50.0938 -2.9635 4.6751 1.0000
50.0938 -2.8132 4.6743 1.0000
50.0938 -2.6630 4.6736 1.0000
50.0938 -2.3628 4.6722 1.0000
50.0939 -2.2128 4.6715 1.0000
50.0939 -2.0628 4.6709 1.0000
50.0939 -1.6129 4.6694 1.0000
50.0939 -1.4631 4.6690 1.0000
50.0939 -1.1634 4.6682 1.0000
50.0939 -0.7139 4.6675 1.0000
50.0939 0.0348 4.6670 1.0000
50.0939 0.1845 4.6670 1.0000
50.0939 0.3343 4.6671 1.0000
50.0939 0.4841 4.6672 1.0000
50.0939 0.6338 4.6674 1.0000
50.0939 0.7836 4.6676 1.0000
50.0939 0.9334 4.6678 1.0000
50.0939 10.7246 3.9012 1.0000
50.0939 11.0382 3.9063 1.0000
50.0939 11.1953 3.9089 1.0000
50.0939 11.5101 3.9142 1.0000
50.0939 11.6679 3.9169 1.0000
50.0939 12.7786 3.9370 1.0000
50.0939 13.2581 3.9461 1.0000
50.0939 -12.9464 3.9401 1.0000
50.0939 -12.6275 3.9341 1.0000
50.0939 -12.3094 3.9283 1.0000
50.0939 -11.9923 3.9226 1.0000
50.0939 -11.8341 3.9198 1.0000
50.0939 -11.5183 3.9143 1.0000
50.0939 -10.8894 3.9039 1.0000
50.0939 -10.2637 3.8940 1.0000
50.0939 -9.7965 3.8871 1.0000
50.0939 -9.6411 3.8848 1.0000
50.0939 -9.3309 3.8804 1.0000
50.0939 -8.7125 3.8721 1.0000
50.0939 -8.5583 3.8701 1.0000
50.0939 -8.4043 3.8681 1.0000
50.0939 -8.0966 3.8643 1.0000
50.0939 -7.9431 3.8625 1.0000
50.0938 -7.4832 3.8571 1.0000
50.0938 -7.0245 3.8521 1.0000
50.0938 -6.7193 3.8490 1.0000
50.0938 -6.2626 3.8445 1.0000
50.0938 -4.8981 3.8330 1.0000
50.0938 -4.5959 3.8308 1.0000
50.0938 -4.4450 3.8298 1.0000
50.0938 -3.9926 3.8269 1.0000
50.0938 -3.6913 3.8251 1.0000
50.0938 -3.5408 3.8243 1.0000
50.0938 -3.2399 3.8228 1.0000
50.0938 -3.0896 3.8220 1.0000
50.0938 -2.9393 3.8214 1.0000
50.0938 -2.4888 3.8195 1.0000
50.0939 -1.8886 3.8175 1.0000
50.0939 -1.7387 3.8171 1.0000
50.0939 -0.8396 3.8153 1.0000
50.0939 -0.6898 3.8152 1.0000
50.0939 -0.0908 3.8148 1.0000
50.0939 0.3585 3.8149 1.0000
50.0939 0.8077 3.8153 1.0000
50.0939 0.9575 3.8155 1.0000
50.0939 1.2571 3.8160 1.0000
50.0939 1.4070 3.8163 1.0000
50.0939 1.5569 3.8166 1.0000
50.0939 1.7068 3.8170 1.0000
50.0939 2.0067 3.8179 1.0000
50.0939 2.1567 3.8183 1.0000
50.0939 2.3068 3.8188 1.0000
50.0939 2.4568 3.8194 1.0000
50.0939 2.6070 3.8200 1.0000
50.0939 3.0576 3.8219 1.0000
50.0939 3.2079 3.8226 1.0000
50.0939 3.3583 3.8234 1.0000
50.0939 3.5087 3.8241 1.0000
50.0939 3.6593 3.8250 1.0000
50.0939 4.1112 3.8276 1.0000
50.0939 4.4129 3.8296 1.0000
50.0939 4.5638 3.8306 1.0000
50.0939 4.8659 3.8328 1.0000
50.0939 5.1684 3.8350 1.0000
50.0939 5.6229 3.8388 1.0000
50.0939 6.0782 3.8428 1.0000
50.0939 6.2302 3.8442 1.0000
50.0939 6.5346 3.8471 1.0000
50.0939 7.4506 3.8568 1.0000
50.0939 7.9104 3.8621 1.0000
50.0939 8.2176 3.8658 1.0000
50.0939 8.5255 3.8696 1.0000
50.0939 8.6796 3.8716 1.0000
50.0939 8.9884 3.8757 1.0000
50.0939 9.1431 3.8778 1.0000
50.0939 9.7634 3.8866 1.0000
50.0939 9.9189 3.8889 1.0000
50.0939 10.0746 3.8912 1.0000
50.0939 10.3866 3.8959 1.0000
50.0939 10.5429 3.8984 1.0000
50.0939 10.8560 3.9033 1.0000
50.0939 11.0129 3.9059 1.0000
50.0939 11.3272 3.9111 1.0000
50.0939 11.6425 3.9165 1.0000
50.0939 11.8004 3.9192 1.0000
50.0939 12.7529 3.9365 1.0000
50.0939 12.9125 3.9395 1.0000
50.0939 -13.1321 3.9437 1.0000
50.0939 -12.9721 3.9406 1.0000
50.0939 -12.6531 3.9346 1.0000
50.0939 -12.1763 3.9259 1.0000
50.0939 -11.5437 3.9148 1.0000
50.0939 -11.3861 3.9121 1.0000
50.0939 -10.9146 3.9043 1.0000
50.0939 -9.9771 3.8897 1.0000
50.0939 -9.6661 3.8852 1.0000
50.0939 -9.0462 3.8765 1.0000
50.0939 -8.8917 3.8744 1.0000
50.0939 -8.7373 3.8724 1.0000
50.0939 -8.4290 3.8684 1.0000
50.0939 -8.2751 3.8665 1.0000
50.0939 -8.1214 3.8646 1.0000
50.0939 -7.9678 3.8628 1.0000
50.0939 -7.8143 3.8609 1.0000
50.0939 -7.6610 3.8592 1.0000
50.0939 -7.5079 3.8574 1.0000
50.0938 -7.3548 3.8557 1.0000
50.0938 -7.2019 3.8540 1.0000
50.0938 -6.8964 3.8508 1.0000
50.0938 -6.2871 3.8447 1.0000
50.0938 -6.1350 3.8433 1.0000
50.0938 -5.9831 3.8419 1.0000
50.0938 -5.8313 3.8406 1.0000
50.0938 -5.2250 3.8355 1.0000
50.0938 -5.0737 3.8343 1.0000
50.0938 -4.9225 3.8332 1.0000
50.0938 -4.7713 3.8321 1.0000
50.0938 -4.1675 3.8280 1.0000
50.0938 -3.4146 3.8236 1.0000
50.0938 -3.1138 3.8222 1.0000
50.0938 -2.8132 3.8208 1.0000
50.0938 -2.0628 3.8180 1.0000
50.0939 -1.7628 3.8172 1.0000
50.0939 -1.4630 3.8164 1.0000
50.0939 -1.3132 3.8161 1.0000
50.0939 -1.0135 3.8156 1.0000
50.0939 -0.8637 3.8154 1.0000
50.0939 -0.5641 3.8150 1.0000
50.0939 -0.4144 3.8149 1.0000
50.0939 0.0348 3.8148 1.0000
50.0939 0.3343 3.8149 1.0000
50.0939 0.4841 3.8150 1.0000
50.0939 0.6339 3.8151 1.0000
50.0939 0.9334 3.8155 1.0000
50.0939 1.2330 3.8160 1.0000
50.0939 10.7245 3.0320 1.0000
50.0939 10.8812 3.0339 1.0000
50.0939 11.0381 3.0359 1.0000
50.0939 11.8259 3.0463 1.0000
50.0939 12.3012 3.0529 1.0000
50.0939 12.4600 3.0551 1.0000
50.0939 12.6191 3.0574 1.0000
50.0939 12.7785 3.0597 1.0000
50.0939 12.9381 3.0621 1.0000
50.0939 13.0980 3.0645 1.0000
50.0939 13.4184 3.0693 1.0000
50.0939 -13.2664 3.0670 1.0000
50.0939 -12.7868 3.0599 1.0000
50.0939 -12.6275 3.0576 1.0000
50.0939 -12.4683 3.0553 1.0000
50.0939 -12.3094 3.0530 1.0000
50.0939 -12.1507 3.0508 1.0000
50.0939 -11.9923 3.0486 1.0000
50.0939 -11.6761 3.0443 1.0000
50.0939 -11.5183 3.0422 1.0000
50.0939 -11.2034 3.0380 1.0000
50.0939 -11.0463 3.0360 1.0000
50.0939 -10.8894 3.0340 1.0000
50.0939 -10.2637 3.0264 1.0000
50.0939 -10.1078 3.0246 1.0000
50.0939 -9.9520 3.0227 1.0000
50.0939 -9.7964 3.0210 1.0000
50.0939 -9.4859 3.0175 1.0000
50.0939 -8.8668 3.0109 1.0000
50.0939 -8.5582 3.0078 1.0000
50.0939 -8.2504 3.0047 1.0000
50.0939 -8.0966 3.0033 1.0000
50.0938 -7.3301 2.9964 1.0000
50.0938 -6.7193 2.9914 1.0000
50.0938 -6.4147 2.9890 1.0000
50.0938 -6.2626 2.9879 1.0000
50.0938 -5.9587 2.9857 1.0000
50.0938 -5.5035 2.9826 1.0000
50.0938 -5.0493 2.9798 1.0000
50.0938 -4.8981 2.9789 1.0000
50.0938 -4.5959 2.9773 1.0000
50.0938 -4.2941 2.9757 1.0000
50.0938 -4.1433 2.9749 1.0000
50.0938 -3.9925 2.9742 1.0000
50.0938 -2.9393 2.9699 1.0000
50.0938 -2.7890 2.9694 1.0000
50.0939 -1.8886 2.9669 1.0000
50.0939 -1.5888 2.9663 1.0000
50.0939 -1.4389 2.9660 1.0000
50.0939 -0.5401 2.9650 1.0000
50.0939 0.2087 2.9648 1.0000
50.0939 0.3584 2.9649 1.0000
50.0939 0.6579 2.9651 1.0000
50.0939 0.8077 2.9652 1.0000
50.0939 0.9575 2.9653 1.0000
50.0939 1.1073 2.9655 1.0000
50.0939 1.2571 2.9657 1.0000
50.0939 1.5568 2.9662 1.0000
50.0939 1.8567 2.9668 1.0000
50.0939 2.0066 2.9672 1.0000
50.0939 2.1566 2.9675 1.0000
50.0939 2.6069 2.9688 1.0000
50.0939 2.7570 2.9693 1.0000
50.0939 3.3583 2.9715 1.0000
50.0939 3.5087 2.9721 1.0000
50.0939 3.8098 2.9734 1.0000
50.0939 4.7148 2.9779 1.0000
50.0939 5.1684 2.9805 1.0000
50.0939 5.3198 2.9815 1.0000
50.0939 5.6229 2.9834 1.0000
50.0939 5.7745 2.9844 1.0000
50.0939 5.9263 2.9855 1.0000
50.0939 6.5345 2.9899 1.0000
50.0939 6.6869 2.9911 1.0000
50.0939 6.8394 2.9923 1.0000
50.0939 6.9920 2.9935 1.0000
50.0939 7.6037 2.9988 1.0000
50.0939 7.9103 3.0015 1.0000
50.0939 8.0639 3.0030 1.0000
50.0939 8.2176 3.0044 1.0000
50.0939 8.3714 3.0059 1.0000
50.0939 8.5254 3.0074 1.0000
50.0939 8.9884 3.0121 1.0000
50.0939 9.1430 3.0138 1.0000
50.0939 9.2979 3.0154 1.0000
50.0939 9.4528 3.0171 1.0000
50.0939 9.6080 3.0188 1.0000
50.0939 9.7634 3.0206 1.0000
50.0939 9.9189 3.0224 1.0000
50.0939 10.3866 3.0279 1.0000
50.0939 11.1699 3.0376 1.0000
50.0939 11.4847 3.0417 1.0000
50.0939 11.8004 3.0459 1.0000
50.0939 12.5935 3.0571 1.0000
50.0939 12.9124 3.0617 1.0000
50.0939 13.2323 3.0665 1.0000
50.0939 13.3926 3.0689 1.0000
50.0939 -13.2922 3.0674 1.0000
50.0939 -13.1321 3.0650 1.0000
50.0939 -12.8125 3.0602 1.0000
50.0939 -12.6531 3.0579 1.0000
50.0939 -12.3350 3.0534 1.0000
50.0939 -11.7015 3.0446 1.0000
50.0939 -11.5437 3.0425 1.0000
50.0939 -11.0716 3.0363 1.0000
50.0939 -10.9146 3.0344 1.0000
50.0939 -10.7579 3.0324 1.0000
50.0939 -10.4450 3.0286 1.0000
50.0939 -10.2889 3.0267 1.0000
50.0939 -10.1329 3.0248 1.0000
50.0939 -9.9771 3.0230 1.0000
50.0939 -9.6661 3.0195 1.0000
50.0939 -8.8917 3.0111 1.0000
50.0939 -8.2751 3.0050 1.0000
50.0939 -7.9678 3.0021 1.0000
50.0938 -7.3548 2.9966 1.0000
50.0938 -6.7439 2.9915 1.0000
50.0938 -6.5915 2.9904 1.0000
50.0938 -6.1350 2.9870 1.0000
50.0938 -5.8313 2.9848 1.0000
50.0938 -5.2250 2.9809 1.0000
50.0938 -4.9225 2.9791 1.0000
50.0938 -4.3184 2.9758 1.0000
50.0938 -3.8661 2.9736 1.0000
50.0938 -3.4146 2.9717 1.0000
50.0938 -2.9635 2.9700 1.0000
50.0938 -2.8132 2.9695 1.0000
50.0939 -2.0627 2.9673 1.0000
50.0939 -1.7629 2.9666 1.0000
50.0939 -1.4630 2.9661 1.0000
50.0939 -1.0135 2.9654 1.0000
50.0939 -0.8637 2.9652 1.0000
50.0939 -0.5642 2.9650 1.0000
50.0939 -0.2647 2.9648 1.0000
50.0939 -0.1149 2.9648 1.0000
50.0939 0.1845 2.9648 1.0000
50.0939 0.3343 2.9649 1.0000
50.0939 0.6338 2.9650 1.0000
50.0939 0.7836 2.9652 1.0000
50.0939 1.0832 2.9655 1.0000
50.0938 10.7245 2.1645 1.0000
50.0938 10.8812 2.1659 1.0000
50.0938 11.0382 2.1673 1.0000
50.0938 11.1953 2.1687 1.0000
50.0938 11.3526 2.1702 1.0000
50.0938 11.5101 2.1717 1.0000
50.0938 11.8259 2.1747 1.0000
50.0938 12.1425 2.1778 1.0000
50.0938 12.6192 2.1826 1.0000
50.0938 12.9381 2.1860 1.0000
50.0938 13.2581 2.1894 1.0000
50.0938 13.4185 2.1911 1.0000
50.0939 -13.1063 2.1877 1.0000
50.0939 -12.7868 2.1844 1.0000
50.0939 -12.4683 2.1811 1.0000
50.0939 -11.9923 2.1763 1.0000
50.0939 -11.6761 2.1732 1.0000
50.0939 -11.3608 2.1702 1.0000
50.0939 -11.0463 2.1674 1.0000
50.0939 -10.7327 2.1645 1.0000
50.0939 -10.5762 2.1632 1.0000
50.0939 -10.4198 2.1618 1.0000
50.0939 -9.9520 2.1579 1.0000
50.0939 -9.7964 2.1566 1.0000
50.0939 -9.6411 2.1553 1.0000
50.0939 -9.3309 2.1529 1.0000
50.0939 -8.8668 2.1494 1.0000
50.0939 -8.5583 2.1472 1.0000
50.0939 -8.2503 2.1450 1.0000
50.0939 -8.0966 2.1440 1.0000
50.0939 -7.9430 2.1429 1.0000
50.0939 -7.6363 2.1410 1.0000
50.0938 -7.4831 2.1400 1.0000
50.0938 -7.3301 2.1390 1.0000
50.0938 -6.8719 2.1363 1.0000
50.0938 -6.7194 2.1355 1.0000
50.0938 -6.5670 2.1346 1.0000
50.0938 -6.2626 2.1330 1.0000
50.0938 -6.1105 2.1322 1.0000
50.0938 -5.6552 2.1299 1.0000
50.0938 -5.2006 2.1279 1.0000
50.0938 -5.0493 2.1272 1.0000
50.0938 -4.2941 2.1243 1.0000
50.0938 -3.9925 2.1232 1.0000
50.0938 -3.8419 2.1227 1.0000
50.0938 -3.6913 2.1222 1.0000
50.0938 -3.5408 2.1218 1.0000
50.0938 -3.0896 2.1205 1.0000
50.0938 -2.9393 2.1201 1.0000
50.0938 -2.6389 2.1194 1.0000
50.0938 -2.4887 2.1191 1.0000
50.0938 -2.0386 2.1183 1.0000
50.0938 -1.4389 2.1174 1.0000
50.0938 -0.9894 2.1169 1.0000
50.0938 -0.8396 2.1168 1.0000
50.0938 -0.6898 2.1167 1.0000
50.0938 -0.2406 2.1165 1.0000
50.0938 0.5082 2.1166 1.0000
50.0938 0.6579 2.1167 1.0000
50.0938 0.8077 2.1168 1.0000
50.0938 1.5568 2.1175 1.0000
50.0938 1.7068 2.1177 1.0000
50.0938 1.8567 2.1180 1.0000
50.0938 2.0067 2.1182 1.0000
50.0938 2.1566 2.1185 1.0000
50.0938 2.4568 2.1190 1.0000
50.0938 2.7571 2.1197 1.0000
50.0938 2.9073 2.1201 1.0000
50.0938 3.2079 2.1208 1.0000
50.0938 3.3583 2.1213 1.0000
50.0938 3.9604 2.1231 1.0000
50.0938 4.1112 2.1236 1.0000
50.0938 4.2620 2.1241 1.0000
50.0938 4.5638 2.1253 1.0000
50.0938 4.8659 2.1265 1.0000
50.0938 5.0171 2.1271 1.0000
50.0938 5.6229 2.1298 1.0000
50.0938 6.5346 2.1344 1.0000
50.0938 6.6869 2.1353 1.0000
50.0938 6.9920 2.1370 1.0000
50.0938 7.2975 2.1388 1.0000
50.0938 7.6036 2.1407 1.0000
50.0938 7.7569 2.1417 1.0000
50.0938 8.0639 2.1438 1.0000
50.0938 8.2176 2.1448 1.0000
50.0938 8.5254 2.1469 1.0000
50.0938 8.9884 2.1503 1.0000
50.0938 9.1430 2.1515 1.0000
50.0938 9.4529 2.1539 1.0000
50.0938 9.6080 2.1551 1.0000
50.0938 9.7633 2.1563 1.0000
50.0938 9.9189 2.1576 1.0000
50.0938 10.0746 2.1589 1.0000
50.0938 10.2304 2.1602 1.0000
50.0938 10.8560 2.1656 1.0000
50.0938 11.0129 2.1670 1.0000
50.0938 11.6425 2.1729 1.0000
50.0938 11.9586 2.1760 1.0000
50.0938 12.1170 2.1775 1.0000
50.0938 13.0722 2.1874 1.0000
50.0938 13.2323 2.1891 1.0000
50.0939 -13.2922 2.1897 1.0000
50.0939 -13.1321 2.1880 1.0000
50.0938 -12.0178 2.1766 1.0000
50.0939 -11.8595 2.1750 1.0000
50.0939 -11.7015 2.1735 1.0000
50.0939 -11.3861 2.1705 1.0000
50.0939 -11.0716 2.1676 1.0000
50.0939 -10.9146 2.1662 1.0000
50.0939 -10.7579 2.1648 1.0000
50.0939 -10.6013 2.1634 1.0000
50.0939 -10.4450 2.1620 1.0000
50.0939 -9.8215 2.1568 1.0000
50.0939 -9.6661 2.1555 1.0000
50.0939 -9.2009 2.1519 1.0000
50.0939 -9.0462 2.1507 1.0000
50.0939 -8.8917 2.1496 1.0000
50.0939 -8.7373 2.1485 1.0000
50.0939 -8.5830 2.1473 1.0000
50.0939 -8.4290 2.1463 1.0000
50.0939 -8.1213 2.1441 1.0000
50.0939 -7.9677 2.1431 1.0000
50.0939 -7.8143 2.1421 1.0000
50.0938 -7.3548 2.1392 1.0000
50.0938 -6.7439 2.1356 1.0000
50.0938 -6.2871 2.1331 1.0000
50.0938 -5.9831 2.1315 1.0000
50.0938 -5.3764 2.1287 1.0000
50.0938 -5.2250 2.1280 1.0000
50.0938 -5.0737 2.1273 1.0000
50.0938 -4.6202 2.1255 1.0000
50.0938 -4.4693 2.1249 1.0000
50.0938 -4.3184 2.1244 1.0000
