ply
format ascii 1.0
element vertex 1607
property float32 x
property float32 y
property float32 z
property float32 I
end_header
50.0951 6.2236 2.9877 1.0000
50.0951 6.3760 2.9888 1.0000
50.0951 6.5287 2.9899 1.0000
50.0951 7.1403 2.9948 1.0000
50.0951 7.2935 2.9961 1.0000
50.0951 7.4469 2.9975 1.0000
50.0951 7.7540 3.0002 1.0000
50.0951 8.2158 3.0045 1.0000
50.0951 8.3700 3.0060 1.0000
50.0951 8.6789 3.0090 1.0000
50.0951 8.9885 3.0122 1.0000
50.0951 9.1435 3.0139 1.0000
50.0951 9.2987 3.0155 1.0000
50.0951 9.4540 3.0172 1.0000
50.0951 9.9212 3.0225 1.0000
50.0951 10.8607 3.0338 1.0000
50.0951 11.0179 3.0357 1.0000
50.0951 11.3331 3.0398 1.0000
50.0951 11.4910 3.0419 1.0000
50.0951 11.8075 3.0461 1.0000
50.0951 11.9660 3.0483 1.0000
50.0951 12.2838 3.0527 1.0000
50.0951 12.4431 3.0550 1.0000
50.0952 13.0826 3.0643 1.0000
50.0952 13.2430 3.0667 1.0000
50.0952 -13.2814 3.0673 1.0000
50.0952 -12.9606 3.0625 1.0000
50.0952 -12.8005 3.0601 1.0000
50.0952 -12.4812 3.0555 1.0000
50.0952 -12.3219 3.0532 1.0000
50.0952 -12.1628 3.0510 1.0000
50.0952 -12.0040 3.0488 1.0000
50.0952 -11.8453 3.0466 1.0000
50.0952 -11.6869 3.0445 1.0000
50.0952 -11.3708 3.0403 1.0000
50.0952 -11.2131 3.0382 1.0000
50.0951 -11.0556 3.0362 1.0000
50.0951 -10.5842 3.0303 1.0000
50.0952 -10.4275 3.0284 1.0000
50.0951 -9.9585 3.0229 1.0000
50.0951 -9.8026 3.0211 1.0000
50.0952 -9.3358 3.0159 1.0000
50.0952 -9.0255 3.0126 1.0000
50.0952 -8.8706 3.0110 1.0000
50.0952 -8.5613 3.0079 1.0000
50.0952 -8.0985 3.0034 1.0000
50.0952 -7.9446 3.0019 1.0000
50.0952 -7.7907 3.0005 1.0000
50.0952 -7.6371 2.9991 1.0000
50.0951 -7.4835 2.9978 1.0000
50.0950 -7.1768 2.9951 1.0000
50.0951 -7.0237 2.9939 1.0000
50.0951 -6.7178 2.9914 1.0000
50.0950 -6.4125 2.9891 1.0000
50.0950 -6.1076 2.9868 1.0000
50.0950 -5.9553 2.9857 1.0000
50.0950 -5.3472 2.9817 1.0000
50.0950 -5.1954 2.9808 1.0000
50.0950 -5.0437 2.9799 1.0000
50.0950 -4.8922 2.9790 1.0000
50.0950 -4.5893 2.9773 1.0000
50.0950 -4.4379 2.9765 1.0000
50.0950 -3.9844 2.9742 1.0000
50.0950 -3.5315 2.9722 1.0000
50.0950 -3.0792 2.9705 1.0000
50.0950 -2.7779 2.9694 1.0000
50.0950 -2.4769 2.9685 1.0000
50.0951 -2.1760 2.9677 1.0000
50.0951 -2.0256 2.9673 1.0000
50.0951 -1.5747 2.9663 1.0000
50.0951 -1.2742 2.9658 1.0000
50.0951 -1.1240 2.9656 1.0000
50.0951 -0.9738 2.9654 1.0000
50.0951 -0.6735 2.9651 1.0000
50.0951 -0.3733 2.9650 1.0000
50.0951 -0.0731 2.9649 1.0000
50.0951 1.1280 2.9656 1.0000
50.0951 1.7289 2.9666 1.0000
50.0951 1.8792 2.9670 1.0000
50.0951 2.1800 2.9677 1.0000
50.0951 2.3304 2.9681 1.0000
50.0951 2.4809 2.9685 1.0000
50.0951 2.7819 2.9694 1.0000
50.0951 2.9325 2.9699 1.0000
50.0951 3.0831 2.9705 1.0000
50.0951 3.3846 2.9716 1.0000
50.0951 3.6863 2.9729 1.0000
50.0951 3.9883 2.9743 1.0000
50.0951 4.4419 2.9765 1.0000
50.0951 4.8961 2.9790 1.0000
50.0951 5.5030 2.9827 1.0000
50.0951 5.6551 2.9837 1.0000
50.0951 5.8071 2.9847 1.0000
50.0951 6.4165 2.9891 1.0000
50.0951 6.8747 2.9927 1.0000
50.0951 7.4876 2.9978 1.0000
50.0951 7.6411 2.9992 1.0000
50.0951 8.7199 3.0095 1.0000
50.0951 9.1846 3.0143 1.0000
50.0951 10.1187 3.0248 1.0000
50.0951 10.2751 3.0266 1.0000
50.0951 10.4316 3.0285 1.0000
50.0951 10.5883 3.0304 1.0000
50.0951 10.9023 3.0343 1.0000
50.0951 11.0597 3.0363 1.0000
50.0951 11.5329 3.0424 1.0000
50.0951 11.6911 3.0445 1.0000
50.0951 12.3261 3.0533 1.0000
50.0947 3.1939 2.1208 1.0000
50.0947 3.3446 2.1213 1.0000
50.0947 3.6463 2.1221 1.0000
50.0947 3.7972 2.1226 1.0000
50.0947 4.4017 2.1247 1.0000
50.0947 4.5531 2.1253 1.0000
50.0947 5.1592 2.1277 1.0000
50.0947 5.3109 2.1284 1.0000
50.0947 6.0711 2.1320 1.0000
50.0947 6.2235 2.1328 1.0000
50.0947 6.3760 2.1336 1.0000
50.0947 6.8342 2.1361 1.0000
50.0947 7.1402 2.1379 1.0000
50.0947 7.2934 2.1389 1.0000
50.0947 7.6003 2.1408 1.0000
50.0947 7.9077 2.1428 1.0000
50.0947 8.0616 2.1438 1.0000
50.0948 8.2157 2.1448 1.0000
50.0948 8.3699 2.1459 1.0000
50.0948 8.6788 2.1481 1.0000
50.0948 8.8335 2.1492 1.0000
50.0948 8.9884 2.1503 1.0000
50.0948 9.1435 2.1515 1.0000
50.0948 9.2986 2.1527 1.0000
50.0948 9.4540 2.1539 1.0000
50.0948 9.9212 2.1576 1.0000
50.0948 10.5467 2.1629 1.0000
50.0948 10.7035 2.1643 1.0000
50.0948 10.8606 2.1657 1.0000
50.0948 11.3330 2.1700 1.0000
50.0948 11.4910 2.1715 1.0000
50.0948 11.8074 2.1745 1.0000
50.0948 11.9660 2.1761 1.0000
50.0948 12.2838 2.1792 1.0000
50.0948 12.4430 2.1809 1.0000
50.0948 12.7622 2.1842 1.0000
50.0948 13.2429 2.1893 1.0000
50.0948 13.4037 2.1910 1.0000
50.0948 -13.2813 2.1897 1.0000
50.0948 -12.8005 2.1846 1.0000
50.0948 -12.6407 2.1829 1.0000
50.0948 -12.1628 2.1780 1.0000
50.0948 -11.6869 2.1734 1.0000
50.0948 -11.2130 2.1689 1.0000
50.0948 -10.5842 2.1633 1.0000
50.0948 -10.4274 2.1619 1.0000
50.0948 -10.2710 2.1606 1.0000
50.0948 -9.9585 2.1580 1.0000
50.0948 -9.8025 2.1567 1.0000
50.0948 -9.3358 2.1530 1.0000
50.0948 -9.1805 2.1518 1.0000
50.0948 -9.0254 2.1506 1.0000
50.0948 -8.8705 2.1495 1.0000
50.0948 -8.7158 2.1483 1.0000
50.0948 -8.2526 2.1451 1.0000
50.0948 -8.0984 2.1440 1.0000
50.0948 -7.9445 2.1430 1.0000
50.0948 -7.7907 2.1420 1.0000
50.0947 -7.4835 2.1400 1.0000
50.0947 -7.1768 2.1382 1.0000
50.0947 -6.8707 2.1364 1.0000
50.0947 -6.5651 2.1346 1.0000
50.0947 -6.4124 2.1338 1.0000
50.0947 -6.2599 2.1330 1.0000
50.0947 -6.1075 2.1322 1.0000
50.0947 -5.6510 2.1300 1.0000
50.0947 -5.4990 2.1293 1.0000
50.0947 -5.3471 2.1286 1.0000
50.0947 -4.7406 2.1260 1.0000
50.0947 -4.5892 2.1254 1.0000
50.0947 -4.1354 2.1237 1.0000
50.0947 -3.5315 2.1218 1.0000
50.0947 -3.3806 2.1214 1.0000
50.0947 -3.2299 2.1209 1.0000
50.0947 -3.0792 2.1205 1.0000
50.0947 -2.9285 2.1202 1.0000
50.0947 -2.7779 2.1198 1.0000
50.0947 -2.4769 2.1191 1.0000
50.0947 -2.3264 2.1188 1.0000
50.0947 -2.1760 2.1185 1.0000
50.0947 -2.0256 2.1183 1.0000
50.0947 -1.4244 2.1174 1.0000
50.0947 -1.2742 2.1172 1.0000
50.0947 -0.9738 2.1169 1.0000
50.0947 -0.8237 2.1168 1.0000
50.0947 -0.6735 2.1167 1.0000
50.0947 -0.3733 2.1166 1.0000
50.0947 0.0771 2.1165 1.0000
50.0947 0.2271 2.1166 1.0000
50.0947 0.5274 2.1167 1.0000
50.0947 0.8277 2.1168 1.0000
50.0947 1.1280 2.1171 1.0000
50.0947 1.5787 2.1176 1.0000
50.0947 1.8792 2.1180 1.0000
50.0947 2.1800 2.1185 1.0000
50.0947 2.3304 2.1188 1.0000
50.0947 2.4809 2.1191 1.0000
50.0947 2.7819 2.1198 1.0000
50.0947 3.0831 2.1205 1.0000
50.0947 3.3846 2.1214 1.0000
50.0947 3.5354 2.1218 1.0000
50.0947 3.6863 2.1223 1.0000
50.0947 3.8373 2.1227 1.0000
50.0947 3.9883 2.1232 1.0000
50.0947 4.2906 2.1243 1.0000
50.0947 4.4419 2.1248 1.0000
50.0947 4.5931 2.1254 1.0000
50.0947 4.7446 2.1260 1.0000
50.0947 5.0477 2.1273 1.0000
50.0947 5.8071 2.1307 1.0000
50.0947 6.1115 2.1322 1.0000
50.0947 6.2639 2.1330 1.0000
50.0947 6.5691 2.1347 1.0000
50.0947 6.7218 2.1355 1.0000
50.0947 7.1808 2.1382 1.0000
50.0947 7.3341 2.1391 1.0000
50.0947 7.6410 2.1410 1.0000
50.0947 7.9485 2.1430 1.0000
50.0947 8.1025 2.1440 1.0000
50.0948 8.2566 2.1451 1.0000
50.0948 8.4108 2.1462 1.0000
50.0948 8.5653 2.1473 1.0000
50.0948 8.7199 2.1484 1.0000
50.0948 8.8746 2.1495 1.0000
50.0948 9.1846 2.1518 1.0000
50.0948 9.3398 2.1530 1.0000
50.0947 9.4953 2.1542 1.0000
50.0948 9.6508 2.1555 1.0000
50.0948 9.8066 2.1567 1.0000
50.0948 10.2750 2.1606 1.0000
50.0948 10.9023 2.1661 1.0000
50.0948 11.5328 2.1719 1.0000
50.0948 11.6910 2.1734 1.0000
50.0948 12.3260 2.1797 1.0000
50.0944 3.1938 1.2720 1.0000
50.0944 3.6463 1.2728 1.0000
50.0944 4.0993 1.2737 1.0000
50.0944 4.8559 1.2754 1.0000
50.0944 5.0075 1.2758 1.0000
50.0944 5.1591 1.2761 1.0000
50.0944 5.3109 1.2765 1.0000
50.0944 5.4627 1.2770 1.0000
50.0944 5.7667 1.2778 1.0000
50.0944 5.9188 1.2783 1.0000
50.0944 6.3760 1.2797 1.0000
50.0944 6.5285 1.2802 1.0000
50.0944 6.6813 1.2807 1.0000
50.0944 6.9871 1.2817 1.0000
50.0944 7.1402 1.2823 1.0000
50.0944 7.4468 1.2834 1.0000
50.0944 7.6003 1.2840 1.0000
50.0944 8.2156 1.2864 1.0000
50.0944 8.3699 1.2870 1.0000
50.0944 8.5242 1.2877 1.0000
50.0944 8.6788 1.2883 1.0000
50.0944 8.8335 1.2890 1.0000
50.0944 9.2986 1.2911 1.0000
50.0944 9.6095 1.2926 1.0000
50.0944 10.2335 1.2956 1.0000
50.0944 10.3899 1.2965 1.0000
50.0944 10.7035 1.2981 1.0000
50.0944 10.8605 1.2989 1.0000
50.0944 11.0178 1.2998 1.0000
50.0944 11.1753 1.3006 1.0000
50.0944 11.3330 1.3015 1.0000
50.0944 11.6490 1.3033 1.0000
50.0944 11.9659 1.3051 1.0000
50.0944 12.1247 1.3061 1.0000
50.0944 12.2837 1.3070 1.0000
50.0944 12.4429 1.3080 1.0000
50.0945 12.6024 1.3090 1.0000
50.0944 12.7622 1.3100 1.0000
50.0944 13.4036 1.3141 1.0000
50.0945 -13.2812 1.3133 1.0000
50.0945 -13.1207 1.3122 1.0000
50.0945 -12.9604 1.3112 1.0000
50.0945 -12.8004 1.3102 1.0000
50.0945 -12.6406 1.3092 1.0000
50.0945 -12.3217 1.3073 1.0000
50.0945 -12.1626 1.3063 1.0000
50.0945 -12.0038 1.3054 1.0000
50.0945 -11.5287 1.3026 1.0000
50.0945 -11.0554 1.3000 1.0000
50.0945 -10.8981 1.2991 1.0000
50.0945 -10.7410 1.2983 1.0000
50.0945 -10.5841 1.2975 1.0000
50.0945 -9.9584 1.2943 1.0000
50.0945 -9.8024 1.2935 1.0000
50.0945 -9.6467 1.2928 1.0000
50.0945 -9.4911 1.2920 1.0000
50.0945 -9.3357 1.2913 1.0000
50.0945 -9.1804 1.2906 1.0000
50.0945 -9.0254 1.2899 1.0000
50.0945 -8.4067 1.2872 1.0000
50.0945 -8.0983 1.2859 1.0000
50.0945 -7.6369 1.2841 1.0000
50.0943 -7.3300 1.2829 1.0000
50.0943 -7.1768 1.2824 1.0000
50.0943 -7.0236 1.2818 1.0000
50.0943 -6.7178 1.2808 1.0000
50.0943 -6.5650 1.2803 1.0000
50.0943 -6.4124 1.2798 1.0000
50.0943 -5.9552 1.2784 1.0000
50.0943 -5.8030 1.2779 1.0000
50.0943 -5.4990 1.2771 1.0000
50.0943 -5.3471 1.2766 1.0000
50.0943 -5.1953 1.2762 1.0000
50.0943 -4.7406 1.2751 1.0000
50.0943 -4.5892 1.2747 1.0000
50.0943 -4.4378 1.2744 1.0000
50.0943 -3.9843 1.2734 1.0000
50.0943 -3.6824 1.2729 1.0000
50.0943 -3.3806 1.2723 1.0000
50.0943 -2.9285 1.2716 1.0000
50.0943 -2.7779 1.2714 1.0000
45.0285 -2.0911 1.1423 1.0000
45.0289 -1.9560 1.1421 1.0000
45.0313 -1.8208 1.1421 1.0000
45.0336 -1.6858 1.1420 1.0000
45.0376 -1.2806 1.1418 1.0000
45.0366 -1.1456 1.1416 1.0000
45.0358 -1.0106 1.1415 1.0000
45.0376 -0.8756 1.1415 1.0000
45.0400 -0.7406 1.1415 1.0000
45.0494 -0.2007 1.1416 1.0000
45.0518 -0.0657 1.1417 1.0000
45.0529 0.0692 1.1417 1.0000
45.0543 0.3393 1.1417 1.0000
45.0549 0.4743 1.1418 1.0000
45.0563 0.7444 1.1419 1.0000
45.2605 0.8835 1.1472 1.0000
45.2618 1.5622 1.1477 1.0000
45.2691 1.8341 1.1481 1.0000
50.0944 3.0831 1.2718 1.0000
50.0944 3.2338 1.2721 1.0000
50.0944 3.3846 1.2723 1.0000
50.0944 3.5354 1.2726 1.0000
50.0944 3.8373 1.2732 1.0000
50.0944 3.9883 1.2735 1.0000
50.0944 4.1394 1.2738 1.0000
50.0944 4.4418 1.2744 1.0000
50.0944 4.5931 1.2748 1.0000
50.0944 4.8961 1.2755 1.0000
50.0944 5.6549 1.2775 1.0000
50.0944 5.9592 1.2784 1.0000
50.0944 6.4164 1.2798 1.0000
50.0944 7.0277 1.2819 1.0000
50.0944 7.4874 1.2835 1.0000
50.0944 7.9485 1.2853 1.0000
50.0944 8.8746 1.2892 1.0000
50.0944 9.0295 1.2899 1.0000
50.0944 9.1845 1.2906 1.0000
50.0944 9.6507 1.2928 1.0000
50.0944 10.1186 1.2951 1.0000
50.0944 10.2749 1.2959 1.0000
50.0944 10.4315 1.2967 1.0000
50.0944 10.5882 1.2975 1.0000
50.0944 10.7451 1.2983 1.0000
50.0944 10.9022 1.2991 1.0000
50.0944 11.0596 1.3000 1.0000
50.0944 11.3749 1.3017 1.0000
50.0944 11.6910 1.3035 1.0000
50.0944 12.0080 1.3054 1.0000
50.0944 12.3259 1.3073 1.0000
50.0941 3.9482 0.4244 1.0000
50.0941 4.4017 0.4247 1.0000
50.0941 4.5529 0.4248 1.0000
50.0941 4.7044 0.4249 1.0000
50.0941 5.0074 0.4252 1.0000
50.0941 5.4626 0.4256 1.0000
50.0941 5.6146 0.4257 1.0000
50.0941 6.2234 0.4263 1.0000
50.0941 6.5285 0.4266 1.0000
50.0941 6.8340 0.4270 1.0000
50.0941 6.9870 0.4271 1.0000
50.0941 7.2933 0.4275 1.0000
50.0941 7.4467 0.4277 1.0000
50.0941 8.0615 0.4285 1.0000
50.0941 8.3698 0.4289 1.0000
50.0941 8.5242 0.4291 1.0000
50.0941 8.6787 0.4294 1.0000
50.0941 9.2985 0.4303 1.0000
50.0941 9.4539 0.4305 1.0000
50.0941 9.6094 0.4308 1.0000
50.0941 9.9210 0.4313 1.0000
50.0941 10.3899 0.4321 1.0000
50.0941 10.5465 0.4323 1.0000
50.0941 10.7034 0.4326 1.0000
50.0941 10.8604 0.4329 1.0000
50.0941 11.0177 0.4332 1.0000
50.0941 11.1752 0.4335 1.0000
50.0941 11.6489 0.4344 1.0000
50.0941 11.8072 0.4347 1.0000
50.0941 12.4429 0.4359 1.0000
50.0941 12.7621 0.4366 1.0000
50.0941 13.0823 0.4372 1.0000
50.0941 13.2427 0.4376 1.0000
50.0941 13.4035 0.4379 1.0000
50.0941 -12.3217 0.4357 1.0000
50.0941 -11.8451 0.4347 1.0000
50.0941 -11.6867 0.4344 1.0000
50.0941 -11.5286 0.4341 1.0000
50.0941 -11.2129 0.4335 1.0000
50.0941 -11.0553 0.4332 1.0000
50.0941 -10.8980 0.4330 1.0000
50.0941 -10.1145 0.4316 1.0000
50.0941 -9.8024 0.4311 1.0000
50.0941 -9.6466 0.4308 1.0000
50.0941 -9.4910 0.4306 1.0000
50.0941 -9.3356 0.4304 1.0000
50.0941 -9.1804 0.4301 1.0000
50.0941 -9.0253 0.4299 1.0000
50.0941 -8.8704 0.4296 1.0000
50.0941 -8.7157 0.4294 1.0000
50.0941 -8.5611 0.4292 1.0000
50.0941 -8.4067 0.4290 1.0000
50.0941 -7.9444 0.4283 1.0000
50.0940 -6.7177 0.4268 1.0000
50.0940 -6.5649 0.4267 1.0000
50.0940 -6.4123 0.4265 1.0000
50.0940 -5.6509 0.4257 1.0000
50.0940 -5.4989 0.4256 1.0000
50.0940 -5.3471 0.4255 1.0000
50.0940 -5.0436 0.4252 1.0000
50.0940 -4.8921 0.4251 1.0000
50.0940 -4.5891 0.4248 1.0000
50.0940 -4.4378 0.4247 1.0000
50.0940 -4.1354 0.4245 1.0000
50.0940 -3.9842 0.4244 1.0000
50.0940 -3.6823 0.4242 1.0000
50.0940 -3.3806 0.4240 1.0000
50.0940 -3.2298 0.4239 1.0000
50.0940 -3.0792 0.4239 1.0000
44.9619 -2.3581 0.3802 1.0000
44.9642 -2.2232 0.3802 1.0000
44.9895 -1.4143 0.3801 1.0000
44.9933 -1.2794 0.3801 1.0000
44.9993 -1.0097 0.3801 1.0000
45.0078 -0.7401 0.3802 1.0000
45.0161 -0.4704 0.3802 1.0000
45.0203 -0.3355 0.3802 1.0000
45.0245 -0.2006 0.3803 1.0000
45.0287 -0.0657 0.3803 1.0000
45.0367 0.2042 0.3804 1.0000
45.0412 0.4742 0.3804 1.0000
45.2040 0.8823 0.3818 1.0000
45.1968 1.2887 0.3819 1.0000
45.1950 1.4242 0.3819 1.0000
45.1982 1.6955 0.3820 1.0000
45.1995 1.8312 0.3820 1.0000
45.2032 1.9671 0.3821 1.0000
45.2095 2.1031 0.3822 1.0000
45.2158 2.2392 0.3823 1.0000
45.2278 2.5116 0.3826 1.0000
50.0941 3.3846 0.4240 1.0000
50.0941 3.6863 0.4242 1.0000
50.0941 3.8372 0.4243 1.0000
50.0941 3.9883 0.4244 1.0000
50.0941 4.1394 0.4245 1.0000
50.0941 4.4418 0.4247 1.0000
50.0941 4.7445 0.4249 1.0000
50.0941 5.0476 0.4252 1.0000
50.0941 5.3511 0.4255 1.0000
50.0941 5.6549 0.4257 1.0000
50.0941 5.8070 0.4259 1.0000
50.0941 5.9591 0.4260 1.0000
50.0941 6.4163 0.4265 1.0000
50.0941 7.0276 0.4272 1.0000
50.0941 7.1808 0.4274 1.0000
50.0941 7.4874 0.4278 1.0000
50.0941 7.6409 0.4280 1.0000
50.0941 7.9484 0.4284 1.0000
50.0941 8.1024 0.4286 1.0000
50.0941 8.4108 0.4290 1.0000
50.0941 8.5651 0.4292 1.0000
50.0941 9.1844 0.4301 1.0000
50.0941 9.4951 0.4306 1.0000
50.0941 9.8065 0.4311 1.0000
50.0941 9.9624 0.4313 1.0000
50.0941 10.4314 0.4321 1.0000
50.0941 10.7451 0.4327 1.0000
50.0941 10.9022 0.4330 1.0000
50.0941 11.5327 0.4341 1.0000
50.0941 11.6909 0.4344 1.0000
50.0941 11.8493 0.4347 1.0000
50.0941 12.1667 0.4354 1.0000
50.0937 3.4954 -0.4241 1.0000
50.0937 3.6463 -0.4242 1.0000
50.0937 3.9482 -0.4244 1.0000
50.0937 4.0993 -0.4245 1.0000
50.0937 4.2504 -0.4246 1.0000
50.0937 4.4017 -0.4247 1.0000
50.0937 4.7044 -0.4249 1.0000
50.0937 5.0074 -0.4252 1.0000
50.0937 5.7666 -0.4258 1.0000
50.0937 5.9188 -0.4260 1.0000
50.0937 6.3759 -0.4265 1.0000
50.0937 7.7538 -0.4281 1.0000
50.0937 7.9076 -0.4283 1.0000
50.0937 8.2155 -0.4287 1.0000
50.0937 8.3698 -0.4289 1.0000
50.0937 8.9883 -0.4298 1.0000
50.0937 9.1433 -0.4300 1.0000
50.0937 9.7651 -0.4310 1.0000
50.0937 10.0771 -0.4315 1.0000
50.0937 10.2334 -0.4318 1.0000
50.0937 10.3898 -0.4321 1.0000
50.0937 11.0177 -0.4332 1.0000
50.0937 11.6489 -0.4343 1.0000
50.0937 11.9658 -0.4350 1.0000
50.0937 12.1245 -0.4353 1.0000
50.0937 12.4428 -0.4359 1.0000
50.0937 13.0822 -0.4372 1.0000
50.0937 -13.2810 -0.4377 1.0000
50.0937 -13.1205 -0.4373 1.0000
50.0937 -12.9602 -0.4370 1.0000
50.0937 -12.8002 -0.4367 1.0000
50.0937 -12.4808 -0.4360 1.0000
50.0937 -12.0036 -0.4350 1.0000
50.0937 -11.5285 -0.4341 1.0000
50.0937 -11.3705 -0.4338 1.0000
50.0937 -11.0553 -0.4332 1.0000
50.0937 -10.8979 -0.4329 1.0000
50.0937 -10.5839 -0.4324 1.0000
50.0937 -10.4272 -0.4321 1.0000
50.0938 -10.1144 -0.4316 1.0000
50.0937 -9.8023 -0.4311 1.0000
50.0937 -9.6465 -0.4308 1.0000
50.0937 -9.3356 -0.4303 1.0000
50.0938 -9.1803 -0.4301 1.0000
50.0937 -9.0252 -0.4299 1.0000
50.0937 -8.8703 -0.4296 1.0000
50.0938 -7.7905 -0.4281 1.0000
50.0937 -7.4833 -0.4278 1.0000
50.0936 -7.0235 -0.4272 1.0000
50.0937 -6.8706 -0.4270 1.0000
50.0936 -6.7177 -0.4268 1.0000
50.0936 -6.5649 -0.4267 1.0000
50.0937 -6.4123 -0.4265 1.0000
50.0937 -5.9551 -0.4260 1.0000
50.0937 -5.8029 -0.4259 1.0000
50.0937 -5.6508 -0.4257 1.0000
50.0937 -5.4988 -0.4256 1.0000
50.0937 -5.0436 -0.4252 1.0000
50.0937 -4.7405 -0.4249 1.0000
50.0937 -3.9842 -0.4244 1.0000
50.0937 -3.8332 -0.4243 1.0000
50.0937 -3.2298 -0.4239 1.0000
50.0937 -2.9285 -0.4238 1.0000
50.0937 -2.7778 -0.4237 1.0000
44.9388 -2.2219 -0.3800 1.0000
44.9400 -2.0870 -0.3799 1.0000
44.9413 -1.9522 -0.3799 1.0000
45.2523 -1.6940 -0.3824 1.0000
44.8246 -1.5435 -0.3788 1.0000
44.8332 -1.1404 -0.3788 1.0000
44.8289 -1.0059 -0.3787 1.0000
45.3280 -0.7453 -0.3829 1.0000
44.9984 -0.3353 -0.3800 1.0000
45.0103 -0.0656 -0.3801 1.0000
45.0221 0.2041 -0.3802 1.0000
45.0459 0.7442 -0.3805 1.0000
45.1100 0.8805 -0.3810 1.0000
44.9726 1.2824 -0.3800 1.0000
45.0326 2.0949 -0.3807 1.0000
44.9969 2.4988 -0.3806 1.0000
50.0937 2.9324 -0.4238 1.0000
50.0937 3.6862 -0.4242 1.0000
50.0937 4.1394 -0.4245 1.0000
50.0937 4.4418 -0.4247 1.0000
50.0937 4.5931 -0.4248 1.0000
50.0937 4.8960 -0.4251 1.0000
50.0937 5.0476 -0.4252 1.0000
50.0937 5.1993 -0.4253 1.0000
50.0937 6.1114 -0.4262 1.0000
50.0937 6.2638 -0.4264 1.0000
50.0937 6.4163 -0.4265 1.0000
50.0937 6.5690 -0.4267 1.0000
50.0937 6.7217 -0.4269 1.0000
50.0937 6.8746 -0.4270 1.0000
50.0937 7.1807 -0.4274 1.0000
50.0937 7.3340 -0.4276 1.0000
50.0937 7.6409 -0.4280 1.0000
50.0937 8.1023 -0.4286 1.0000
50.0937 8.5651 -0.4292 1.0000
50.0937 9.1844 -0.4301 1.0000
50.0937 9.4951 -0.4306 1.0000
50.0937 9.6507 -0.4308 1.0000
50.0937 10.1185 -0.4316 1.0000
50.0937 10.2748 -0.4319 1.0000
50.0937 10.4314 -0.4321 1.0000
50.0937 10.7450 -0.4327 1.0000
50.0937 11.2169 -0.4335 1.0000
50.0937 11.6908 -0.4344 1.0000
50.0937 12.0079 -0.4350 1.0000
27.3713 1.8274 -0.6952 1.0000
27.3590 2.1563 -0.6955 1.0000
27.3554 2.2385 -0.6955 1.0000
27.3514 2.3208 -0.6956 1.0000
27.3383 2.5674 -0.6958 1.0000
27.3336 2.6496 -0.6959 1.0000
27.3172 2.8961 -0.6961 1.0000
27.3051 3.0604 -0.6963 1.0000
27.2987 3.1426 -0.6963 1.0000
27.2921 3.2247 -0.6964 1.0000
27.2850 3.3069 -0.6965 1.0000
27.2705 3.4710 -0.6966 1.0000
27.2630 3.5530 -0.6967 1.0000
27.2550 3.6351 -0.6968 1.0000
27.2385 3.7992 -0.6969 1.0000
27.2208 3.9632 -0.6971 1.0000
27.1826 4.2908 -0.6974 1.0000
27.1724 4.3728 -0.6974 1.0000
27.1619 4.4547 -0.6975 1.0000
27.1059 4.8635 -0.6979 1.0000
27.0939 4.9453 -0.6979 1.0000
27.0819 5.0270 -0.6980 1.0000
27.0307 5.3534 -0.6983 1.0000
27.0171 5.4349 -0.6983 1.0000
26.9606 5.7605 -0.6986 1.0000
26.9461 5.8420 -0.6987 1.0000
26.9311 5.9233 -0.6988 1.0000
26.8687 6.2481 -0.6990 1.0000
26.8193 6.4913 -0.6992 1.0000
26.8024 6.5722 -0.6993 1.0000
26.7851 6.6531 -0.6994 1.0000
26.7678 6.7341 -0.6995 1.0000
26.7501 6.8150 -0.6995 1.0000
26.7139 6.9766 -0.6997 1.0000
26.1884 -6.9431 -0.6866 1.0000
26.2123 -6.8655 -0.6866 1.0000
26.2358 -6.7876 -0.6867 1.0000
26.3278 -6.4757 -0.6871 1.0000
26.4161 -6.1628 -0.6874 1.0000
26.4797 -5.9271 -0.6876 1.0000
26.5210 -5.7696 -0.6878 1.0000
26.5413 -5.6908 -0.6879 1.0000
26.5614 -5.6121 -0.6879 1.0000
26.5813 -5.5329 -0.6880 1.0000
26.6007 -5.4540 -0.6881 1.0000
26.6391 -5.2956 -0.6883 1.0000
26.6582 -5.2165 -0.6884 1.0000
26.7491 -4.8193 -0.6888 1.0000
26.8173 -4.5004 -0.6891 1.0000
26.8502 -4.3407 -0.6892 1.0000
26.8975 -4.1005 -0.6895 1.0000
26.9126 -4.0203 -0.6896 1.0000
26.9427 -3.8599 -0.6897 1.0000
26.9857 -3.6188 -0.6900 1.0000
26.9995 -3.5384 -0.6900 1.0000
27.0396 -3.2965 -0.6903 1.0000
27.0653 -3.1352 -0.6904 1.0000
27.0776 -3.0544 -0.6905 1.0000
27.0897 -2.9736 -0.6906 1.0000
27.1132 -2.8119 -0.6908 1.0000
27.1247 -2.7310 -0.6908 1.0000
27.1467 -2.5689 -0.6910 1.0000
27.1679 -2.4068 -0.6912 1.0000
27.1781 -2.3255 -0.6912 1.0000
27.2074 -2.0819 -0.6915 1.0000
27.2166 -2.0006 -0.6915 1.0000
27.2343 -1.8379 -0.6917 1.0000
27.2427 -1.7565 -0.6918 1.0000
27.2591 -1.5935 -0.6919 1.0000
27.2668 -1.5120 -0.6920 1.0000
27.2743 -1.4304 -0.6921 1.0000
27.2886 -1.2672 -0.6923 1.0000
27.3017 -1.1040 -0.6924 1.0000
27.3139 -0.9404 -0.6926 1.0000
27.3196 -0.8588 -0.6926 1.0000
27.3252 -0.7769 -0.6927 1.0000
27.3306 -0.6952 -0.6928 1.0000
27.3449 -0.4496 -0.6930 1.0000
27.3532 -0.2858 -0.6932 1.0000
27.3606 -0.1218 -0.6933 1.0000
27.3638 -0.0399 -0.6934 1.0000
27.3670 0.0422 -0.6935 1.0000
27.3696 0.1241 -0.6936 1.0000
27.3722 0.2061 -0.6937 1.0000
27.3745 0.2882 -0.6937 1.0000
27.3798 0.5345 -0.6940 1.0000
27.3835 0.8629 -0.6943 1.0000
27.3839 1.0273 -0.6944 1.0000
27.3836 1.1095 -0.6945 1.0000
27.3831 1.1917 -0.6946 1.0000
27.3825 1.2739 -0.6946 1.0000
27.3815 1.3560 -0.6947 1.0000
27.3772 1.6026 -0.6949 1.0000
27.3731 1.7671 -0.6951 1.0000
27.3704 1.8493 -0.6952 1.0000
27.3649 2.0137 -0.6953 1.0000
27.3617 2.0960 -0.6954 1.0000
27.3582 2.1781 -0.6955 1.0000
27.3545 2.2603 -0.6955 1.0000
27.3462 2.4248 -0.6957 1.0000
27.3418 2.5070 -0.6958 1.0000
27.3371 2.5892 -0.6958 1.0000
27.3321 2.6714 -0.6959 1.0000
27.3098 3.0001 -0.6962 1.0000
27.2971 3.1643 -0.6964 1.0000
27.2903 3.2464 -0.6964 1.0000
27.2832 3.3286 -0.6965 1.0000
27.2760 3.4107 -0.6966 1.0000
27.2686 3.4928 -0.6967 1.0000
27.2608 3.5748 -0.6967 1.0000
27.2530 3.6569 -0.6968 1.0000
27.2183 3.9849 -0.6971 1.0000
27.2092 4.0669 -0.6972 1.0000
27.1997 4.1488 -0.6972 1.0000
27.1798 4.3127 -0.6974 1.0000
27.1373 4.6399 -0.6977 1.0000
27.1146 4.8035 -0.6978 1.0000
27.0908 4.9670 -0.6979 1.0000
27.0659 5.1303 -0.6981 1.0000
27.0532 5.2119 -0.6982 1.0000
27.0270 5.3751 -0.6983 1.0000
26.9996 5.5379 -0.6984 1.0000
26.9857 5.6194 -0.6985 1.0000
26.9568 5.7821 -0.6986 1.0000
26.9271 5.9448 -0.6988 1.0000
26.8964 6.1074 -0.6989 1.0000
26.8805 6.1885 -0.6990 1.0000
26.8318 6.4318 -0.6992 1.0000
16.2933 1.1368 -0.6901 1.0000
16.2826 1.3324 -0.6903 1.0000
16.2796 1.3813 -0.6903 1.0000
16.2696 1.5279 -0.6904 1.0000
16.2623 1.6256 -0.6905 1.0000
16.2500 1.7721 -0.6906 1.0000
16.2412 1.8696 -0.6907 1.0000
16.2164 2.1134 -0.6909 1.0000
16.2110 2.1621 -0.6910 1.0000
16.2054 2.2108 -0.6910 1.0000
16.1818 2.4055 -0.6912 1.0000
16.1624 2.5513 -0.6913 1.0000
16.1557 2.6000 -0.6914 1.0000
16.1418 2.6970 -0.6915 1.0000
16.1122 2.8910 -0.6916 1.0000
16.1045 2.9395 -0.6917 1.0000
16.0966 2.9879 -0.6917 1.0000
16.0885 3.0363 -0.6918 1.0000
16.0720 3.1330 -0.6918 1.0000
16.0548 3.2297 -0.6919 1.0000
16.0371 3.3262 -0.6920 1.0000
15.9902 3.5672 -0.6922 1.0000
15.9602 3.7114 -0.6923 1.0000
15.9290 3.8554 -0.6924 1.0000
15.9183 3.9033 -0.6925 1.0000
15.9074 3.9513 -0.6925 1.0000
15.8965 3.9991 -0.6926 1.0000
15.8510 4.1904 -0.6927 1.0000
15.8393 4.2381 -0.6928 1.0000
15.6698 -4.1544 -0.6849 1.0000
15.6832 -4.1078 -0.6850 1.0000
15.6966 -4.0610 -0.6850 1.0000
15.7229 -3.9674 -0.6851 1.0000
15.7612 -3.8267 -0.6853 1.0000
15.7737 -3.7796 -0.6853 1.0000
15.7984 -3.6857 -0.6854 1.0000
15.8224 -3.5914 -0.6855 1.0000
15.8342 -3.5442 -0.6856 1.0000
15.8688 -3.4025 -0.6857 1.0000
15.8800 -3.3551 -0.6858 1.0000
15.9021 -3.2604 -0.6859 1.0000
15.9129 -3.2129 -0.6859 1.0000
15.9236 -3.1654 -0.6859 1.0000
15.9340 -3.1179 -0.6860 1.0000
15.9445 -3.0704 -0.6860 1.0000
15.9547 -3.0229 -0.6861 1.0000
15.9748 -2.9275 -0.6862 1.0000
15.9846 -2.8799 -0.6862 1.0000
15.9943 -2.8322 -0.6863 1.0000
16.0132 -2.7367 -0.6864 1.0000
16.0224 -2.6888 -0.6864 1.0000
16.0493 -2.5452 -0.6866 1.0000
16.0580 -2.4973 -0.6866 1.0000
16.0666 -2.4493 -0.6867 1.0000
16.0749 -2.4013 -0.6867 1.0000
16.0831 -2.3533 -0.6868 1.0000
16.0913 -2.3053 -0.6868 1.0000
16.1070 -2.2091 -0.6869 1.0000
16.1296 -2.0646 -0.6870 1.0000
16.1368 -2.0165 -0.6871 1.0000
16.1439 -1.9683 -0.6871 1.0000
16.1708 -1.7751 -0.6873 1.0000
16.1895 -1.6299 -0.6875 1.0000
16.2176 -1.3878 -0.6877 1.0000
16.2228 -1.3392 -0.6878 1.0000
16.2327 -1.2421 -0.6879 1.0000
16.2375 -1.1936 -0.6879 1.0000
16.2420 -1.1449 -0.6879 1.0000
16.2465 -1.0964 -0.6880 1.0000
16.2591 -0.9504 -0.6881 1.0000
16.2629 -0.9018 -0.6882 1.0000
16.2702 -0.8045 -0.6883 1.0000
16.2860 -0.5608 -0.6885 1.0000
16.2912 -0.4632 -0.6886 1.0000
16.2936 -0.4145 -0.6886 1.0000
16.2959 -0.3656 -0.6887 1.0000
16.2980 -0.3169 -0.6887 1.0000
16.3035 -0.1703 -0.6889 1.0000
16.3063 -0.0727 -0.6890 1.0000
16.3096 0.0739 -0.6891 1.0000
16.3104 0.1229 -0.6891 1.0000
16.3110 0.1717 -0.6892 1.0000
16.3119 0.2696 -0.6893 1.0000
16.3120 0.3184 -0.6893 1.0000
16.3120 0.3674 -0.6894 1.0000
16.3120 0.4163 -0.6894 1.0000
16.3112 0.5140 -0.6895 1.0000
16.3093 0.6608 -0.6896 1.0000
16.3082 0.7097 -0.6897 1.0000
16.3071 0.7586 -0.6897 1.0000
16.3058 0.8075 -0.6898 1.0000
16.3043 0.8565 -0.6898 1.0000
16.3010 0.9542 -0.6899 1.0000
16.2991 1.0032 -0.6900 1.0000
16.2971 1.0521 -0.6900 1.0000
16.2848 1.2965 -0.6902 1.0000
16.2818 1.3454 -0.6903 1.0000
16.2788 1.3944 -0.6903 1.0000
16.2755 1.4431 -0.6904 1.0000
16.2722 1.4919 -0.6904 1.0000
16.2687 1.5409 -0.6904 1.0000
16.2612 1.6386 -0.6905 1.0000
16.2572 1.6874 -0.6906 1.0000
16.2445 1.8338 -0.6907 1.0000
16.2353 1.9313 -0.6908 1.0000
16.2254 2.0288 -0.6909 1.0000
16.2203 2.0776 -0.6909 1.0000
16.2095 2.1750 -0.6910 1.0000
16.2040 2.2238 -0.6910 1.0000
16.1982 2.2725 -0.6911 1.0000
16.1801 2.4184 -0.6912 1.0000
16.1470 2.6614 -0.6914 1.0000
16.1399 2.7098 -0.6915 1.0000
16.1254 2.8069 -0.6916 1.0000
16.1024 2.9522 -0.6917 1.0000
16.0611 3.1941 -0.6919 1.0000
16.0346 3.3390 -0.6920 1.0000
16.0162 3.4354 -0.6921 1.0000
16.0069 3.4837 -0.6921 1.0000
15.9973 3.5318 -0.6922 1.0000
15.9778 3.6281 -0.6923 1.0000
15.9677 3.6761 -0.6923 1.0000
15.9575 3.7243 -0.6923 1.0000
15.9473 3.7722 -0.6924 1.0000
11.5945 0.8090 -0.6879 1.0000
11.5884 0.9134 -0.6880 1.0000
11.5787 1.0524 -0.6881 1.0000
11.5732 1.1220 -0.6882 1.0000
11.5673 1.1913 -0.6882 1.0000
11.5643 1.2261 -0.6883 1.0000
11.5508 1.3649 -0.6884 1.0000
11.5471 1.3995 -0.6884 1.0000
11.5434 1.4340 -0.6884 1.0000
11.5396 1.4688 -0.6885 1.0000
11.5356 1.5033 -0.6885 1.0000
11.5316 1.5380 -0.6885 1.0000
11.5232 1.6073 -0.6886 1.0000
11.5051 1.7455 -0.6887 1.0000
11.5003 1.7800 -0.6888 1.0000
11.4904 1.8491 -0.6888 1.0000
11.4853 1.8837 -0.6888 1.0000
11.4801 1.9180 -0.6889 1.0000
11.4695 1.9871 -0.6889 1.0000
11.4639 2.0215 -0.6890 1.0000
11.4583 2.0560 -0.6890 1.0000
11.4526 2.0904 -0.6890 1.0000
11.4468 2.1248 -0.6890 1.0000
11.4161 2.2965 -0.6892 1.0000
11.4096 2.3308 -0.6892 1.0000
11.4030 2.3651 -0.6893 1.0000
11.3964 2.3993 -0.6893 1.0000
11.3828 2.4679 -0.6893 1.0000
11.3543 2.6045 -0.6895 1.0000
11.3163 2.7748 -0.6896 1.0000
11.3004 2.8429 -0.6897 1.0000
11.2841 2.9108 -0.6897 1.0000
11.2758 2.9448 -0.6897 1.0000
11.2674 2.9786 -0.6898 1.0000
11.2588 3.0125 -0.6898 1.0000
11.1843 -2.9294 -0.6843 1.0000
11.1936 -2.8959 -0.6843 1.0000
11.2118 -2.8291 -0.6844 1.0000
11.2472 -2.6951 -0.6845 1.0000
11.2643 -2.6279 -0.6846 1.0000
11.2727 -2.5943 -0.6846 1.0000
11.2973 -2.4932 -0.6847 1.0000
11.3362 -2.3242 -0.6849 1.0000
11.3437 -2.2903 -0.6849 1.0000
11.3511 -2.2565 -0.6850 1.0000
11.3655 -2.1887 -0.6850 1.0000
11.3999 -2.0187 -0.6852 1.0000
11.4065 -1.9845 -0.6852 1.0000
11.4129 -1.9504 -0.6853 1.0000
11.4193 -1.9164 -0.6853 1.0000
11.4377 -1.8139 -0.6854 1.0000
11.4437 -1.7797 -0.6854 1.0000
11.4553 -1.7112 -0.6855 1.0000
11.4665 -1.6427 -0.6856 1.0000
11.4719 -1.6085 -0.6856 1.0000
11.4976 -1.4367 -0.6858 1.0000
11.5023 -1.4024 -0.6858 1.0000
11.5162 -1.2991 -0.6859 1.0000
11.5206 -1.2646 -0.6859 1.0000
11.5291 -1.1956 -0.6860 1.0000
11.5332 -1.1611 -0.6860 1.0000
11.5411 -1.0921 -0.6861 1.0000
11.5449 -1.0577 -0.6861 1.0000
11.5486 -1.0230 -0.6862 1.0000
11.5522 -0.9885 -0.6862 1.0000
11.5590 -0.9193 -0.6863 1.0000
11.5622 -0.8847 -0.6863 1.0000
11.5684 -0.8155 -0.6864 1.0000
11.5714 -0.7809 -0.6864 1.0000
11.5743 -0.7462 -0.6864 1.0000
11.5770 -0.7115 -0.6865 1.0000
11.5796 -0.6769 -0.6865 1.0000
11.5933 -0.4687 -0.6867 1.0000
11.6003 -0.3299 -0.6868 1.0000
11.6018 -0.2951 -0.6869 1.0000
11.6031 -0.2603 -0.6869 1.0000
11.6045 -0.2255 -0.6869 1.0000
11.6056 -0.1908 -0.6870 1.0000
11.6076 -0.1212 -0.6870 1.0000
11.6085 -0.0865 -0.6871 1.0000
11.6105 0.0179 -0.6872 1.0000
11.6110 0.0527 -0.6872 1.0000
11.6112 0.0875 -0.6872 1.0000
11.6114 0.1223 -0.6873 1.0000
11.6115 0.2266 -0.6874 1.0000
11.6111 0.2962 -0.6874 1.0000
11.6102 0.3659 -0.6875 1.0000
11.6080 0.4703 -0.6876 1.0000
11.6060 0.5399 -0.6876 1.0000
11.6049 0.5747 -0.6877 1.0000
11.6037 0.6096 -0.6877 1.0000
11.6023 0.6444 -0.6877 1.0000
11.5959 0.7835 -0.6879 1.0000
11.5900 0.8878 -0.6880 1.0000
11.5855 0.9573 -0.6880 1.0000
11.5806 1.0269 -0.6881 1.0000
11.5780 1.0615 -0.6881 1.0000
11.5725 1.1311 -0.6882 1.0000
11.5665 1.2005 -0.6882 1.0000
11.5568 1.3047 -0.6883 1.0000
11.5498 1.3739 -0.6884 1.0000
11.5424 1.4433 -0.6885 1.0000
11.5386 1.4780 -0.6885 1.0000
11.5346 1.5126 -0.6885 1.0000
11.5221 1.6165 -0.6886 1.0000
11.5176 1.6510 -0.6886 1.0000
11.5132 1.6856 -0.6887 1.0000
11.5086 1.7202 -0.6887 1.0000
11.4991 1.7892 -0.6888 1.0000
11.4941 1.8238 -0.6888 1.0000
11.4891 1.8584 -0.6888 1.0000
11.4840 1.8928 -0.6888 1.0000
11.4788 1.9273 -0.6889 1.0000
11.4734 1.9618 -0.6889 1.0000
11.4680 1.9962 -0.6889 1.0000
11.4568 2.0651 -0.6890 1.0000
11.4511 2.0995 -0.6890 1.0000
11.4452 2.1339 -0.6891 1.0000
11.4393 2.1683 -0.6891 1.0000
11.4331 2.2026 -0.6891 1.0000
11.4013 2.3742 -0.6893 1.0000
11.3449 2.6476 -0.6895 1.0000
11.3374 2.6818 -0.6895 1.0000
11.3298 2.7158 -0.6895 1.0000
8.9952 0.6276 -0.6867 1.0000
8.9936 0.6546 -0.6867 1.0000
8.9756 0.8972 -0.6869 1.0000
8.9707 0.9511 -0.6870 1.0000
8.9681 0.9779 -0.6870 1.0000
8.9654 1.0049 -0.6870 1.0000
8.9627 1.0318 -0.6870 1.0000
8.9445 1.1930 -0.6872 1.0000
8.9378 1.2466 -0.6872 1.0000
8.9308 1.3003 -0.6873 1.0000
8.9235 1.3538 -0.6873 1.0000
8.9196 1.3806 -0.6873 1.0000
8.9078 1.4610 -0.6874 1.0000
8.8952 1.5412 -0.6875 1.0000
8.8908 1.5678 -0.6875 1.0000
8.8864 1.5945 -0.6875 1.0000
8.8725 1.6745 -0.6876 1.0000
8.8630 1.7277 -0.6876 1.0000
8.8580 1.7544 -0.6877 1.0000
8.8213 1.9402 -0.6878 1.0000
8.8157 1.9666 -0.6878 1.0000
8.7807 2.1253 -0.6880 1.0000
8.7746 2.1516 -0.6880 1.0000
8.7621 2.2043 -0.6880 1.0000
8.7557 2.2307 -0.6881 1.0000
8.7361 2.3095 -0.6881 1.0000
8.6872 -2.2753 -0.6839 1.0000
8.6943 -2.2494 -0.6839 1.0000
8.7014 -2.2234 -0.6839 1.0000
8.7288 -2.1192 -0.6840 1.0000
8.7354 -2.0931 -0.6841 1.0000
8.7485 -2.0410 -0.6841 1.0000
8.7549 -2.0147 -0.6841 1.0000
8.7612 -1.9886 -0.6842 1.0000
8.7675 -1.9625 -0.6842 1.0000
8.7858 -1.8838 -0.6843 1.0000
8.7977 -1.8312 -0.6843 1.0000
8.8092 -1.7786 -0.6844 1.0000
8.8204 -1.7259 -0.6844 1.0000
8.8312 -1.6731 -0.6845 1.0000
8.8469 -1.5939 -0.6846 1.0000
8.8520 -1.5675 -0.6846 1.0000
8.8619 -1.5145 -0.6846 1.0000
8.8668 -1.4880 -0.6847 1.0000
8.8808 -1.4084 -0.6848 1.0000
8.9026 -1.2754 -0.6849 1.0000
8.9068 -1.2488 -0.6849 1.0000
8.9108 -1.2221 -0.6849 1.0000
8.9147 -1.1955 -0.6850 1.0000
8.9186 -1.1687 -0.6850 1.0000
8.9224 -1.1421 -0.6850 1.0000
8.9298 -1.0887 -0.6851 1.0000
8.9334 -1.0619 -0.6851 1.0000
8.9368 -1.0352 -0.6851 1.0000
8.9402 -1.0086 -0.6851 1.0000
8.9436 -0.9818 -0.6852 1.0000
8.9468 -0.9549 -0.6852 1.0000
8.9530 -0.9014 -0.6852 1.0000
8.9590 -0.8477 -0.6853 1.0000
8.9646 -0.7941 -0.6854 1.0000
8.9699 -0.7404 -0.6854 1.0000
8.9724 -0.7137 -0.6854 1.0000
8.9748 -0.6867 -0.6855 1.0000
8.9772 -0.6598 -0.6855 1.0000
8.9794 -0.6330 -0.6855 1.0000
8.9816 -0.6061 -0.6855 1.0000
8.9837 -0.5792 -0.6856 1.0000
8.9858 -0.5523 -0.6856 1.0000
8.9948 -0.4177 -0.6857 1.0000
8.9977 -0.3639 -0.6858 1.0000
8.9991 -0.3368 -0.6858 1.0000
9.0016 -0.2829 -0.6858 1.0000
9.0057 -0.1750 -0.6859 1.0000
9.0066 -0.1481 -0.6860 1.0000
9.0073 -0.1211 -0.6860 1.0000
9.0079 -0.0941 -0.6860 1.0000
9.0100 0.0409 -0.6861 1.0000
9.0102 0.0679 -0.6862 1.0000
9.0102 0.0949 -0.6862 1.0000
9.0103 0.1218 -0.6862 1.0000
9.0102 0.1489 -0.6862 1.0000
9.0098 0.2029 -0.6863 1.0000
9.0090 0.2569 -0.6863 1.0000
9.0085 0.2839 -0.6864 1.0000
9.0079 0.3109 -0.6864 1.0000
9.0058 0.3919 -0.6865 1.0000
9.0029 0.4729 -0.6865 1.0000
9.0017 0.4999 -0.6866 1.0000
9.0005 0.5269 -0.6866 1.0000
8.9992 0.5539 -0.6866 1.0000
8.9979 0.5809 -0.6866 1.0000
8.9964 0.6079 -0.6867 1.0000
8.9948 0.6348 -0.6867 1.0000
8.9932 0.6619 -0.6867 1.0000
8.9879 0.7427 -0.6868 1.0000
8.9838 0.7965 -0.6868 1.0000
8.9647 1.0121 -0.6870 1.0000
8.9591 1.0658 -0.6871 1.0000
8.9531 1.1195 -0.6871 1.0000
8.9501 1.1463 -0.6871 1.0000
8.9437 1.2001 -0.6872 1.0000
8.9334 1.2807 -0.6873 1.0000
8.9262 1.3342 -0.6873 1.0000
8.9148 1.4145 -0.6874 1.0000
8.9107 1.4413 -0.6874 1.0000
8.9025 1.4948 -0.6874 1.0000
8.8983 1.5215 -0.6875 1.0000
8.8941 1.5482 -0.6875 1.0000
8.8897 1.5748 -0.6875 1.0000
8.8852 1.6015 -0.6875 1.0000
8.8806 1.6283 -0.6876 1.0000
8.8760 1.6548 -0.6876 1.0000
8.8713 1.6815 -0.6876 1.0000
8.8617 1.7348 -0.6877 1.0000
8.8567 1.7614 -0.6877 1.0000
8.8414 1.8411 -0.6877 1.0000
8.8308 1.8942 -0.6878 1.0000
8.8086 2.0001 -0.6879 1.0000
8.8029 2.0267 -0.6879 1.0000
8.7970 2.0531 -0.6879 1.0000
8.7851 2.1059 -0.6880 1.0000
8.7791 2.1322 -0.6880 1.0000
7.3470 0.4685 -0.6859 1.0000
7.3459 0.4905 -0.6859 1.0000
7.3431 0.5345 -0.6859 1.0000
7.3403 0.5785 -0.6860 1.0000
7.3336 0.6666 -0.6861 1.0000
7.3299 0.7105 -0.6861 1.0000
7.3280 0.7325 -0.6861 1.0000
7.3217 0.7985 -0.6862 1.0000
7.3124 0.8862 -0.6862 1.0000
7.3048 0.9521 -0.6863 1.0000
7.2937 1.0396 -0.6864 1.0000
7.2877 1.0834 -0.6864 1.0000
7.2815 1.1270 -0.6865 1.0000
7.2750 1.1708 -0.6865 1.0000
7.2717 1.1926 -0.6865 1.0000
7.2648 1.2362 -0.6866 1.0000
7.2613 1.2580 -0.6866 1.0000
7.2464 1.3450 -0.6866 1.0000
7.2426 1.3669 -0.6867 1.0000
7.2264 1.4538 -0.6867 1.0000
7.2223 1.4754 -0.6868 1.0000
7.2137 1.5188 -0.6868 1.0000
7.2092 1.5403 -0.6868 1.0000
7.2048 1.5620 -0.6868 1.0000
7.1816 1.6700 -0.6869 1.0000
7.1767 1.6916 -0.6869 1.0000
7.1718 1.7132 -0.6870 1.0000
7.1618 1.7561 -0.6870 1.0000
7.1566 1.7776 -0.6870 1.0000
7.1515 1.7991 -0.6870 1.0000
7.1462 1.8207 -0.6870 1.0000
7.0925 -1.8803 -0.6836 1.0000
7.1265 -1.7529 -0.6837 1.0000
7.1374 -1.7103 -0.6838 1.0000
7.1426 -1.6889 -0.6838 1.0000
7.1480 -1.6675 -0.6838 1.0000
7.1531 -1.6462 -0.6838 1.0000
7.1583 -1.6247 -0.6839 1.0000
7.1781 -1.5391 -0.6839 1.0000
7.1877 -1.4962 -0.6840 1.0000
7.2356 -1.2589 -0.6842 1.0000
7.2435 -1.2155 -0.6843 1.0000
7.2511 -1.1722 -0.6843 1.0000
7.2548 -1.1505 -0.6843 1.0000
7.2656 -1.0853 -0.6844 1.0000
7.2690 -1.0636 -0.6844 1.0000
7.2724 -1.0419 -0.6844 1.0000
7.2789 -0.9984 -0.6845 1.0000
7.2913 -0.9111 -0.6846 1.0000
7.2943 -0.8893 -0.6846 1.0000
7.3053 -0.8019 -0.6847 1.0000
7.3129 -0.7362 -0.6847 1.0000
7.3199 -0.6705 -0.6848 1.0000
7.3242 -0.6267 -0.6849 1.0000
7.3263 -0.6048 -0.6849 1.0000
7.3283 -0.5829 -0.6849 1.0000
7.3321 -0.5389 -0.6849 1.0000
7.3357 -0.4950 -0.6850 1.0000
7.3373 -0.4731 -0.6850 1.0000
7.3389 -0.4511 -0.6850 1.0000
7.3420 -0.4071 -0.6851 1.0000
7.3447 -0.3632 -0.6851 1.0000
7.3494 -0.2751 -0.6852 1.0000
7.3504 -0.2531 -0.6852 1.0000
7.3523 -0.2091 -0.6852 1.0000
7.3531 -0.1871 -0.6853 1.0000
7.3538 -0.1650 -0.6853 1.0000
7.3557 -0.0989 -0.6854 1.0000
7.3562 -0.0768 -0.6854 1.0000
7.3570 -0.0328 -0.6854 1.0000
7.3572 -0.0107 -0.6854 1.0000
7.3574 0.0114 -0.6855 1.0000
7.3576 0.0334 -0.6855 1.0000
7.3577 0.0554 -0.6855 1.0000
7.3577 0.0995 -0.6855 1.0000
7.3576 0.1216 -0.6856 1.0000
7.3574 0.1437 -0.6856 1.0000
7.3571 0.1657 -0.6856 1.0000
7.3564 0.2097 -0.6856 1.0000
7.3560 0.2319 -0.6857 1.0000
7.3555 0.2540 -0.6857 1.0000
7.3549 0.2759 -0.6857 1.0000
7.3535 0.3201 -0.6857 1.0000
7.3519 0.3640 -0.6858 1.0000
7.3510 0.3862 -0.6858 1.0000
7.3467 0.4742 -0.6859 1.0000
7.3414 0.5623 -0.6860 1.0000
7.3398 0.5844 -0.6860 1.0000
7.3383 0.6064 -0.6860 1.0000
7.3366 0.6284 -0.6860 1.0000
7.3349 0.6504 -0.6860 1.0000
7.3332 0.6724 -0.6861 1.0000
7.3313 0.6944 -0.6861 1.0000
7.3294 0.7163 -0.6861 1.0000
7.3275 0.7384 -0.6861 1.0000
7.3211 0.8043 -0.6862 1.0000
7.3093 0.9140 -0.6863 1.0000
7.3067 0.9360 -0.6863 1.0000
7.2958 1.0235 -0.6864 1.0000
7.2869 1.0892 -0.6864 1.0000
7.2774 1.1548 -0.6865 1.0000
7.2638 1.2420 -0.6866 1.0000
7.2567 1.2855 -0.6866 1.0000
7.2530 1.3074 -0.6866 1.0000
7.2415 1.3726 -0.6867 1.0000
7.2376 1.3943 -0.6867 1.0000
7.2125 1.5244 -0.6868 1.0000
7.2081 1.5461 -0.6868 1.0000
7.1991 1.5894 -0.6869 1.0000
7.1945 1.6109 -0.6869 1.0000
7.1898 1.6325 -0.6869 1.0000
7.1654 1.7403 -0.6870 1.0000
7.1604 1.7618 -0.6870 1.0000
6.2038 0.4142 -0.6854 1.0000
6.2015 0.4514 -0.6854 1.0000
6.2003 0.4700 -0.6854 1.0000
6.1962 0.5258 -0.6855 1.0000
6.1948 0.5444 -0.6855 1.0000
6.1932 0.5628 -0.6855 1.0000
6.1917 0.5815 -0.6855 1.0000
6.1901 0.6000 -0.6855 1.0000
6.1867 0.6372 -0.6856 1.0000
6.1849 0.6557 -0.6856 1.0000
6.1812 0.6929 -0.6856 1.0000
6.1792 0.7113 -0.6856 1.0000
6.1751 0.7484 -0.6857 1.0000
6.1708 0.7854 -0.6857 1.0000
6.1686 0.8039 -0.6857 1.0000
6.1663 0.8224 -0.6857 1.0000
6.1639 0.8410 -0.6857 1.0000
6.1487 0.9517 -0.6858 1.0000
6.1432 0.9887 -0.6859 1.0000
6.1345 1.0439 -0.6859 1.0000
6.1284 1.0807 -0.6860 1.0000
6.1188 1.1357 -0.6860 1.0000
6.1122 1.1725 -0.6860 1.0000
6.1088 1.1909 -0.6860 1.0000
6.0947 1.2641 -0.6861 1.0000
6.0834 1.3189 -0.6862 1.0000
6.0796 1.3372 -0.6862 1.0000
6.0717 1.3736 -0.6862 1.0000
6.0677 1.3919 -0.6862 1.0000
6.0553 1.4464 -0.6863 1.0000
6.0469 1.4829 -0.6863 1.0000
6.0381 1.5191 -0.6863 1.0000
6.0337 1.5371 -0.6863 1.0000
6.0292 1.5553 -0.6864 1.0000
6.0246 1.5734 -0.6864 1.0000
6.0200 1.5915 -0.6864 1.0000
6.0154 1.6095 -0.6864 1.0000
5.9930 -1.5888 -0.6834 1.0000
6.0075 -1.5350 -0.6835 1.0000
6.0122 -1.5171 -0.6835 1.0000
6.0261 -1.4631 -0.6836 1.0000
6.0307 -1.4450 -0.6836 1.0000
6.0395 -1.4090 -0.6836 1.0000
6.0524 -1.3547 -0.6837 1.0000
6.0566 -1.3366 -0.6837 1.0000
6.0607 -1.3185 -0.6837 1.0000
6.0768 -1.2458 -0.6838 1.0000
6.0845 -1.2095 -0.6838 1.0000
6.0955 -1.1549 -0.6839 1.0000
6.0992 -1.1366 -0.6839 1.0000
6.1062 -1.1002 -0.6839 1.0000
6.1130 -1.0636 -0.6840 1.0000
6.1164 -1.0452 -0.6840 1.0000
6.1196 -1.0269 -0.6840 1.0000
6.1321 -0.9536 -0.6841 1.0000
6.1381 -0.9169 -0.6841 1.0000
6.1410 -0.8986 -0.6841 1.0000
6.1465 -0.8618 -0.6842 1.0000
6.1493 -0.8434 -0.6842 1.0000
6.1546 -0.8065 -0.6842 1.0000
6.1571 -0.7882 -0.6842 1.0000
6.1596 -0.7697 -0.6843 1.0000
6.1620 -0.7512 -0.6843 1.0000
6.1667 -0.7143 -0.6843 1.0000
6.1690 -0.6960 -0.6843 1.0000
6.1734 -0.6589 -0.6844 1.0000
6.1796 -0.6034 -0.6844 1.0000
6.1815 -0.5849 -0.6844 1.0000
6.1853 -0.5479 -0.6845 1.0000
6.1887 -0.5108 -0.6845 1.0000
6.1951 -0.4366 -0.6846 1.0000
6.1979 -0.3997 -0.6846 1.0000
6.1992 -0.3811 -0.6846 1.0000
6.2004 -0.3625 -0.6846 1.0000
6.2017 -0.3439 -0.6847 1.0000
6.2039 -0.3068 -0.6847 1.0000
6.2050 -0.2882 -0.6847 1.0000
6.2078 -0.2324 -0.6848 1.0000
6.2087 -0.2138 -0.6848 1.0000
6.2094 -0.1952 -0.6848 1.0000
6.2101 -0.1766 -0.6848 1.0000
6.2124 -0.1021 -0.6849 1.0000
6.2141 -0.0089 -0.6850 1.0000
6.2142 0.0096 -0.6850 1.0000
6.2143 0.0282 -0.6850 1.0000
6.2144 0.0469 -0.6850 1.0000
6.2143 0.0840 -0.6851 1.0000
6.2142 0.1027 -0.6851 1.0000
6.2137 0.1399 -0.6851 1.0000
6.2135 0.1586 -0.6851 1.0000
6.2122 0.2144 -0.6852 1.0000
6.2106 0.2703 -0.6852 1.0000
6.2098 0.2889 -0.6853 1.0000
6.2065 0.3634 -0.6853 1.0000
6.2024 0.4378 -0.6854 1.0000
6.2012 0.4563 -0.6854 1.0000
6.1999 0.4749 -0.6854 1.0000
6.1973 0.5121 -0.6855 1.0000
6.1958 0.5307 -0.6855 1.0000
6.1944 0.5493 -0.6855 1.0000
6.1826 0.6791 -0.6856 1.0000
6.1766 0.7348 -0.6857 1.0000
6.1702 0.7904 -0.6857 1.0000
6.1680 0.8088 -0.6857 1.0000
6.1633 0.8459 -0.6857 1.0000
6.1609 0.8644 -0.6858 1.0000
6.1584 0.8828 -0.6858 1.0000
6.1533 0.9198 -0.6858 1.0000
6.1507 0.9382 -0.6858 1.0000
6.1452 0.9751 -0.6859 1.0000
6.1424 0.9935 -0.6859 1.0000
6.1337 1.0488 -0.6859 1.0000
6.1306 1.0672 -0.6859 1.0000
6.1276 1.0856 -0.6860 1.0000
6.1244 1.1039 -0.6860 1.0000
6.1113 1.1774 -0.6860 1.0000
6.1009 1.2323 -0.6861 1.0000
6.0899 1.2873 -0.6861 1.0000
6.0862 1.3055 -0.6861 1.0000
6.0786 1.3420 -0.6862 1.0000
6.0707 1.3786 -0.6862 1.0000
6.0667 1.3966 -0.6862 1.0000
6.0500 1.4694 -0.6863 1.0000
5.3673 0.3423 -0.6850 1.0000
5.3664 0.3584 -0.6850 1.0000
5.3654 0.3745 -0.6850 1.0000
5.3633 0.4066 -0.6850 1.0000
5.3621 0.4227 -0.6850 1.0000
5.3597 0.4548 -0.6851 1.0000
5.3558 0.5030 -0.6851 1.0000
5.3544 0.5191 -0.6851 1.0000
5.3482 0.5832 -0.6852 1.0000
5.3448 0.6153 -0.6852 1.0000
5.3356 0.6954 -0.6853 1.0000
5.3315 0.7273 -0.6853 1.0000
5.3294 0.7434 -0.6853 1.0000
5.3229 0.7913 -0.6854 1.0000
5.3182 0.8232 -0.6854 1.0000
5.3158 0.8392 -0.6854 1.0000
5.3134 0.8551 -0.6854 1.0000
5.3084 0.8870 -0.6854 1.0000
5.3058 0.9028 -0.6855 1.0000
5.2978 0.9506 -0.6855 1.0000
5.2922 0.9824 -0.6855 1.0000
5.2894 0.9982 -0.6855 1.0000
5.2864 1.0141 -0.6856 1.0000
5.2774 1.0616 -0.6856 1.0000
5.2647 1.1249 -0.6856 1.0000
5.2478 1.2038 -0.6857 1.0000
5.2407 1.2353 -0.6857 1.0000
5.2334 1.2666 -0.6858 1.0000
5.2259 1.2982 -0.6858 1.0000
5.2182 1.3295 -0.6858 1.0000
5.2143 1.3452 -0.6858 1.0000
5.2104 1.3607 -0.6858 1.0000
5.2023 1.3920 -0.6859 1.0000
5.1944 -1.3438 -0.6833 1.0000
5.1985 -1.3284 -0.6833 1.0000
5.2026 -1.3128 -0.6834 1.0000
5.2066 -1.2973 -0.6834 1.0000
5.2184 -1.2504 -0.6834 1.0000
5.2298 -1.2036 -0.6835 1.0000
5.2408 -1.1566 -0.6835 1.0000
5.2444 -1.1410 -0.6835 1.0000
5.2514 -1.1095 -0.6836 1.0000
5.2548 -1.0938 -0.6836 1.0000
5.2582 -1.0781 -0.6836 1.0000
5.2615 -1.0623 -0.6836 1.0000
5.2648 -1.0466 -0.6836 1.0000
5.2805 -0.9677 -0.6837 1.0000
5.2893 -0.9203 -0.6838 1.0000
5.2922 -0.9044 -0.6838 1.0000
5.2950 -0.8886 -0.6838 1.0000
5.3005 -0.8569 -0.6838 1.0000
5.3109 -0.7933 -0.6839 1.0000
5.3133 -0.7775 -0.6839 1.0000
5.3181 -0.7456 -0.6839 1.0000
5.3205 -0.7297 -0.6840 1.0000
5.3250 -0.6979 -0.6840 1.0000
5.3293 -0.6660 -0.6840 1.0000
5.3314 -0.6500 -0.6840 1.0000
5.3412 -0.5701 -0.6841 1.0000
5.3429 -0.5541 -0.6841 1.0000
5.3447 -0.5380 -0.6841 1.0000
5.3497 -0.4901 -0.6842 1.0000
5.3512 -0.4741 -0.6842 1.0000
5.3571 -0.4099 -0.6843 1.0000
5.3621 -0.3457 -0.6843 1.0000
5.3632 -0.3296 -0.6843 1.0000
5.3653 -0.2975 -0.6844 1.0000
5.3681 -0.2493 -0.6844 1.0000
5.3690 -0.2332 -0.6844 1.0000
5.3698 -0.2171 -0.6844 1.0000
5.3705 -0.2011 -0.6845 1.0000
5.3712 -0.1850 -0.6845 1.0000
5.3718 -0.1688 -0.6845 1.0000
5.3725 -0.1527 -0.6845 1.0000
5.3730 -0.1366 -0.6845 1.0000
5.3747 -0.0722 -0.6846 1.0000
5.3751 -0.0562 -0.6846 1.0000
5.3758 0.0083 -0.6847 1.0000
5.3759 0.0566 -0.6847 1.0000
5.3755 0.1050 -0.6847 1.0000
5.3753 0.1210 -0.6848 1.0000
5.3750 0.1371 -0.6848 1.0000
5.3739 0.1856 -0.6848 1.0000
5.3734 0.2016 -0.6848 1.0000
5.3724 0.2338 -0.6849 1.0000
5.3717 0.2500 -0.6849 1.0000
5.3711 0.2661 -0.6849 1.0000
5.3704 0.2821 -0.6849 1.0000
5.3696 0.2982 -0.6849 1.0000
5.3641 0.3947 -0.6850 1.0000
5.3619 0.4269 -0.6850 1.0000
5.3581 0.4751 -0.6851 1.0000
5.3510 0.5554 -0.6852 1.0000
5.3494 0.5714 -0.6852 1.0000
5.3426 0.6355 -0.6852 1.0000
5.3408 0.6516 -0.6852 1.0000
5.3370 0.6836 -0.6853 1.0000
5.3330 0.7157 -0.6853 1.0000
5.3288 0.7476 -0.6853 1.0000
5.3267 0.7636 -0.6853 1.0000
5.3245 0.7796 -0.6854 1.0000
5.3222 0.7955 -0.6854 1.0000
5.3199 0.8114 -0.6854 1.0000
5.3152 0.8433 -0.6854 1.0000
5.3051 0.9071 -0.6855 1.0000
5.2998 0.9389 -0.6855 1.0000
5.2971 0.9548 -0.6855 1.0000
5.2943 0.9706 -0.6855 1.0000
5.2827 1.0341 -0.6856 1.0000
5.2766 1.0658 -0.6856 1.0000
5.2735 1.0817 -0.6856 1.0000
5.2639 1.1291 -0.6856 1.0000
5.2538 1.1764 -0.6857 1.0000
5.2504 1.1923 -0.6857 1.0000
5.2469 1.2079 -0.6857 1.0000
5.2434 1.2237 -0.6857 1.0000
5.2287 1.2865 -0.6858 1.0000
4.7266 0.3014 -0.6847 1.0000
4.7249 0.3298 -0.6847 1.0000
4.7239 0.3439 -0.6847 1.0000
4.7230 0.3580 -0.6847 1.0000
4.7219 0.3721 -0.6847 1.0000
4.7209 0.3862 -0.6847 1.0000
4.7198 0.4005 -0.6848 1.0000
4.7187 0.4146 -0.6848 1.0000
4.7175 0.4287 -0.6848 1.0000
4.7163 0.4429 -0.6848 1.0000
4.7150 0.4571 -0.6848 1.0000
4.7123 0.4854 -0.6848 1.0000
4.7081 0.5278 -0.6849 1.0000
4.7066 0.5418 -0.6849 1.0000
4.7050 0.5559 -0.6849 1.0000
4.7034 0.5700 -0.6849 1.0000
4.7018 0.5841 -0.6849 1.0000
4.6983 0.6123 -0.6849 1.0000
4.6965 0.6263 -0.6850 1.0000
4.6947 0.6405 -0.6850 1.0000
4.6910 0.6687 -0.6850 1.0000
4.6891 0.6827 -0.6850 1.0000
4.6871 0.6967 -0.6850 1.0000
4.6851 0.7108 -0.6850 1.0000
4.6788 0.7530 -0.6851 1.0000
4.6765 0.7671 -0.6851 1.0000
4.6743 0.7810 -0.6851 1.0000
4.6673 0.8230 -0.6851 1.0000
4.6649 0.8370 -0.6851 1.0000
4.6625 0.8510 -0.6852 1.0000
4.6600 0.8650 -0.6852 1.0000
4.6575 0.8790 -0.6852 1.0000
4.6522 0.9069 -0.6852 1.0000
4.6496 0.9209 -0.6852 1.0000
4.6469 0.9348 -0.6852 1.0000
4.6414 0.9627 -0.6852 1.0000
4.6386 0.9766 -0.6853 1.0000
4.6357 0.9905 -0.6853 1.0000
4.6328 1.0045 -0.6853 1.0000
4.6238 1.0460 -0.6853 1.0000
4.6176 1.0738 -0.6853 1.0000
4.6113 1.1015 -0.6854 1.0000
4.6080 1.1153 -0.6854 1.0000
4.6014 1.1429 -0.6854 1.0000
4.5980 1.1567 -0.6854 1.0000
4.5946 1.1706 -0.6854 1.0000
4.5841 1.2119 -0.6855 1.0000
4.5805 1.2256 -0.6855 1.0000
4.5682 -1.2111 -0.6832 1.0000
4.5719 -1.1975 -0.6832 1.0000
4.5792 -1.1701 -0.6832 1.0000
4.5828 -1.1564 -0.6833 1.0000
4.5863 -1.1426 -0.6833 1.0000
4.5933 -1.1152 -0.6833 1.0000
4.5967 -1.1014 -0.6833 1.0000
4.6067 -1.0602 -0.6834 1.0000
4.6226 -0.9911 -0.6834 1.0000
4.6286 -0.9635 -0.6835 1.0000
4.6345 -0.9357 -0.6835 1.0000
4.6402 -0.9080 -0.6835 1.0000
4.6485 -0.8663 -0.6836 1.0000
4.6662 -0.7687 -0.6837 1.0000
4.6686 -0.7547 -0.6837 1.0000
4.6710 -0.7407 -0.6837 1.0000
4.6755 -0.7128 -0.6837 1.0000
4.6777 -0.6987 -0.6837 1.0000
4.6862 -0.6427 -0.6838 1.0000
4.6920 -0.6006 -0.6838 1.0000
4.6975 -0.5584 -0.6839 1.0000
4.6993 -0.5443 -0.6839 1.0000
4.7026 -0.5162 -0.6839 1.0000
4.7043 -0.5022 -0.6839 1.0000
4.7088 -0.4598 -0.6840 1.0000
4.7103 -0.4457 -0.6840 1.0000
4.7131 -0.4175 -0.6840 1.0000
4.7181 -0.3610 -0.6841 1.0000
4.7193 -0.3469 -0.6841 1.0000
4.7203 -0.3328 -0.6841 1.0000
4.7244 -0.2762 -0.6841 1.0000
4.7253 -0.2620 -0.6841 1.0000
4.7262 -0.2479 -0.6842 1.0000
4.7270 -0.2337 -0.6842 1.0000
4.7310 -0.1487 -0.6843 1.0000
4.7320 -0.1204 -0.6843 1.0000
4.7328 -0.0920 -0.6843 1.0000
4.7331 -0.0778 -0.6843 1.0000
4.7339 -0.0352 -0.6844 1.0000
4.7342 -0.0069 -0.6844 1.0000
4.7344 0.0215 -0.6844 1.0000
4.7343 0.0499 -0.6844 1.0000
4.7341 0.0782 -0.6845 1.0000
4.7337 0.1066 -0.6845 1.0000
4.7335 0.1209 -0.6845 1.0000
4.7329 0.1492 -0.6845 1.0000
4.7325 0.1634 -0.6845 1.0000
4.7321 0.1776 -0.6846 1.0000
4.7316 0.1917 -0.6846 1.0000
4.7311 0.2059 -0.6846 1.0000
4.7305 0.2201 -0.6846 1.0000
4.7293 0.2484 -0.6846 1.0000
4.7286 0.2626 -0.6846 1.0000
4.7279 0.2768 -0.6846 1.0000
4.7263 0.3051 -0.6847 1.0000
4.7246 0.3335 -0.6847 1.0000
4.7217 0.3759 -0.6847 1.0000
4.7206 0.3901 -0.6847 1.0000
4.7195 0.4042 -0.6848 1.0000
4.7172 0.4326 -0.6848 1.0000
4.7160 0.4467 -0.6848 1.0000
4.7147 0.4608 -0.6848 1.0000
4.7134 0.4749 -0.6848 1.0000
4.7092 0.5173 -0.6849 1.0000
4.7077 0.5315 -0.6849 1.0000
4.7061 0.5456 -0.6849 1.0000
4.6996 0.6019 -0.6849 1.0000
4.6961 0.6301 -0.6850 1.0000
4.6943 0.6442 -0.6850 1.0000
4.6924 0.6583 -0.6850 1.0000
4.6905 0.6723 -0.6850 1.0000
4.6885 0.6865 -0.6850 1.0000
4.6803 0.7426 -0.6851 1.0000
4.6782 0.7567 -0.6851 1.0000
4.6714 0.7988 -0.6851 1.0000
4.6667 0.8268 -0.6851 1.0000
4.6488 0.9245 -0.6852 1.0000
4.6434 0.9525 -0.6852 1.0000
4.6378 0.9803 -0.6853 1.0000
4.6349 0.9943 -0.6853 1.0000
4.6290 1.0220 -0.6853 1.0000
4.6261 1.0358 -0.6853 1.0000
4.6199 1.0636 -0.6853 1.0000
4.6136 1.0913 -0.6854 1.0000
4.6104 1.1052 -0.6854 1.0000
4.6038 1.1328 -0.6854 1.0000
4.2195 0.2818 -0.6844 1.0000
4.2187 0.2944 -0.6845 1.0000
4.2162 0.3323 -0.6845 1.0000
4.2152 0.3450 -0.6845 1.0000
4.2132 0.3702 -0.6845 1.0000
4.2110 0.3955 -0.6845 1.0000
4.2063 0.4460 -0.6846 1.0000
4.2050 0.4586 -0.6846 1.0000
4.2023 0.4838 -0.6846 1.0000
4.2009 0.4964 -0.6846 1.0000
4.1994 0.5090 -0.6846 1.0000
4.1965 0.5341 -0.6847 1.0000
4.1933 0.5593 -0.6847 1.0000
4.1917 0.5718 -0.6847 1.0000
4.1883 0.5970 -0.6847 1.0000
4.1865 0.6096 -0.6847 1.0000
4.1848 0.6221 -0.6847 1.0000
4.1733 0.6973 -0.6848 1.0000
4.1713 0.7098 -0.6848 1.0000
