ply
format ascii 1.0
element vertex 1593
property float32 x
property float32 y
property float32 z
property float32 I
end_header
50.0938 -12.3987 0.4358 1.0000
50.0938 -12.2397 0.4355 1.0000
50.0938 -11.9225 0.4349 1.0000
50.0938 -11.6061 0.4343 1.0000
50.0938 -11.4482 0.4340 1.0000
50.0938 -11.2906 0.4337 1.0000
50.0938 -11.1332 0.4334 1.0000
50.0938 -10.6621 0.4325 1.0000
50.0938 -10.3491 0.4320 1.0000
50.0938 -9.8810 0.4312 1.0000
50.0938 -9.5699 0.4307 1.0000
50.0938 -9.2595 0.4302 1.0000
50.0938 -9.1045 0.4300 1.0000
50.0938 -8.9498 0.4298 1.0000
50.0938 -8.6407 0.4293 1.0000
50.0938 -8.4864 0.4291 1.0000
50.0938 -8.3322 0.4289 1.0000
50.0938 -8.1782 0.4287 1.0000
50.0938 -8.0244 0.4285 1.0000
50.0938 -7.8707 0.4282 1.0000
50.0938 -7.7171 0.4280 1.0000
50.0937 -7.2574 0.4275 1.0000
50.0938 -7.1044 0.4273 1.0000
50.0937 -6.9515 0.4271 1.0000
50.0937 -6.6461 0.4268 1.0000
50.0937 -6.4936 0.4266 1.0000
50.0937 -6.0368 0.4261 1.0000
50.0937 -5.7329 0.4258 1.0000
50.0938 -5.4293 0.4255 1.0000
50.0938 -5.2777 0.4254 1.0000
50.0937 -5.1261 0.4253 1.0000
50.0938 -4.9747 0.4251 1.0000
50.0937 -4.5209 0.4248 1.0000
50.0938 -4.3699 0.4247 1.0000
50.0938 -4.2188 0.4246 1.0000
50.0938 -3.7662 0.4243 1.0000
50.0938 -3.6155 0.4242 1.0000
50.0938 -3.4648 0.4241 1.0000
50.0937 -3.3142 0.4240 1.0000
50.0937 -3.1636 0.4239 1.0000
50.0937 -2.8628 0.4237 1.0000
50.0938 -2.7124 0.4237 1.0000
50.0938 -2.1113 0.4234 1.0000
50.0938 -1.9611 0.4234 1.0000
50.0938 -1.8110 0.4233 1.0000
44.8292 -1.0835 0.3787 1.0000
44.8261 -0.9493 0.3787 1.0000
44.8225 -0.8149 0.3786 1.0000
50.0938 -0.6109 0.4231 1.0000
50.0938 -0.1611 0.4231 1.0000
50.0938 -0.0112 0.4231 1.0000
50.0938 0.1387 0.4231 1.0000
50.0938 0.2886 0.4231 1.0000
50.0938 0.5885 0.4231 1.0000
44.9656 1.0667 0.3799 1.0000
44.9691 1.2014 0.3799 1.0000
44.9721 1.3362 0.3800 1.0000
44.9734 1.4710 0.3800 1.0000
44.9717 1.6057 0.3800 1.0000
44.9684 1.7403 0.3801 1.0000
44.9650 1.8749 0.3801 1.0000
50.0938 2.2391 0.4235 1.0000
50.0938 2.3893 0.4235 1.0000
50.0938 2.6899 0.4237 1.0000
50.0938 2.8403 0.4237 1.0000
50.0938 2.9907 0.4238 1.0000
50.0938 3.1412 0.4239 1.0000
50.0938 3.4423 0.4241 1.0000
50.0938 3.7437 0.4242 1.0000
50.0938 4.1962 0.4245 1.0000
50.0938 4.4983 0.4248 1.0000
50.0938 4.8007 0.4250 1.0000
50.0938 -2.4181 -0.4236 1.0000
50.0938 -2.2679 -0.4235 1.0000
50.0938 -1.6672 -0.4233 1.0000
50.0938 -1.3671 -0.4232 1.0000
50.0938 -1.0671 -0.4232 1.0000
50.0938 -0.7672 -0.4231 1.0000
50.0938 -0.6172 -0.4231 1.0000
50.0938 -0.4673 -0.4231 1.0000
50.0938 -0.3174 -0.4231 1.0000
50.0938 -0.1674 -0.4231 1.0000
50.0938 0.1324 -0.4231 1.0000
50.0938 0.2823 -0.4231 1.0000
50.0938 0.4322 -0.4231 1.0000
50.0938 0.5821 -0.4231 1.0000
50.0938 0.7321 -0.4231 1.0000
50.0938 0.8821 -0.4231 1.0000
50.0938 1.1820 -0.4232 1.0000
50.0938 1.3320 -0.4232 1.0000
50.0938 1.7822 -0.4233 1.0000
50.0938 2.0825 -0.4234 1.0000
50.0938 2.3829 -0.4235 1.0000
50.0938 2.6835 -0.4237 1.0000
50.0938 3.1348 -0.4239 1.0000
50.0938 3.2854 -0.4240 1.0000
50.0938 3.4359 -0.4241 1.0000
50.0938 3.5866 -0.4241 1.0000
50.0938 4.0389 -0.4244 1.0000
50.0938 4.1898 -0.4245 1.0000
50.0938 4.6431 -0.4249 1.0000
50.0938 4.7944 -0.4250 1.0000
50.0938 4.9457 -0.4251 1.0000
50.0938 5.0971 -0.4252 1.0000
50.0938 5.4002 -0.4255 1.0000
50.0938 5.5519 -0.4256 1.0000
50.0938 6.0077 -0.4261 1.0000
50.0938 6.1598 -0.4262 1.0000
50.0938 6.3120 -0.4264 1.0000
50.0938 6.7695 -0.4269 1.0000
50.0938 7.3811 -0.4276 1.0000
50.0938 7.5343 -0.4278 1.0000
50.0938 7.6877 -0.4280 1.0000
50.0938 7.9949 -0.4284 1.0000
50.0938 8.6111 -0.4293 1.0000
50.0938 9.2297 -0.4302 1.0000
50.0938 9.3848 -0.4304 1.0000
50.0938 9.6955 -0.4309 1.0000
50.0938 9.8511 -0.4312 1.0000
50.0938 10.4755 -0.4322 1.0000
50.0938 10.9459 -0.4330 1.0000
50.0938 11.2604 -0.4336 1.0000
50.0938 11.8921 -0.4348 1.0000
50.0938 12.2093 -0.4354 1.0000
50.0938 12.3682 -0.4358 1.0000
50.0938 12.5274 -0.4361 1.0000
50.0938 12.6868 -0.4364 1.0000
50.0938 13.0064 -0.4371 1.0000
50.0938 13.3269 -0.4378 1.0000
50.0938 -13.0370 -0.4372 1.0000
50.0938 -12.5579 -0.4361 1.0000
50.0938 -12.3987 -0.4358 1.0000
50.0938 -12.2397 -0.4355 1.0000
50.0938 -11.6061 -0.4343 1.0000
50.0938 -11.1332 -0.4334 1.0000
50.0938 -10.5055 -0.4323 1.0000
50.0938 -10.3491 -0.4320 1.0000
50.0938 -9.8810 -0.4312 1.0000
50.0938 -9.7254 -0.4310 1.0000
50.0938 -9.4146 -0.4305 1.0000
50.0938 -8.9498 -0.4298 1.0000
50.0938 -8.7951 -0.4295 1.0000
50.0938 -8.3322 -0.4289 1.0000
50.0938 -7.8707 -0.4282 1.0000
50.0938 -7.7171 -0.4280 1.0000
50.0938 -7.4105 -0.4277 1.0000
50.0938 -7.1044 -0.4273 1.0000
50.0937 -6.9515 -0.4271 1.0000
50.0938 -6.7988 -0.4269 1.0000
50.0937 -6.4936 -0.4266 1.0000
50.0937 -6.3413 -0.4264 1.0000
50.0937 -6.0368 -0.4261 1.0000
50.0937 -5.5811 -0.4257 1.0000
50.0938 -4.9747 -0.4251 1.0000
50.0938 -4.8234 -0.4250 1.0000
50.0937 -4.5209 -0.4248 1.0000
50.0938 -4.3699 -0.4247 1.0000
50.0938 -4.2188 -0.4246 1.0000
50.0938 -3.9170 -0.4244 1.0000
50.0938 -3.7662 -0.4243 1.0000
50.0938 -3.4648 -0.4241 1.0000
50.0937 -3.3142 -0.4240 1.0000
50.0937 -3.1636 -0.4239 1.0000
50.0938 -2.7123 -0.4237 1.0000
50.0937 -2.5620 -0.4236 1.0000
50.0938 -2.2615 -0.4235 1.0000
50.0938 -1.2107 -0.4232 1.0000
50.0938 -1.0608 -0.4232 1.0000
50.0938 -0.6109 -0.4231 1.0000
50.0938 -0.1611 -0.4231 1.0000
50.0938 -0.0112 -0.4231 1.0000
50.0938 0.1387 -0.4231 1.0000
50.0938 0.2886 -0.4231 1.0000
50.0938 0.7385 -0.4231 1.0000
50.0938 1.0384 -0.4231 1.0000
50.0938 1.3384 -0.4232 1.0000
50.0938 1.4884 -0.4232 1.0000
50.0938 1.7886 -0.4233 1.0000
50.0938 2.0888 -0.4234 1.0000
50.0938 2.2391 -0.4235 1.0000
50.0938 2.8403 -0.4237 1.0000
50.0938 3.1412 -0.4239 1.0000
50.0938 3.4423 -0.4241 1.0000
50.0938 3.5929 -0.4241 1.0000
50.0938 4.1962 -0.4245 1.0000
50.0938 4.3472 -0.4247 1.0000
50.0938 4.6495 -0.4249 1.0000
50.0938 4.9521 -0.4251 1.0000
50.0938 5.1035 -0.4253 1.0000
47.4045 -2.2882 -1.2027 1.0000
47.4111 -2.1464 -1.2027 1.0000
47.4379 -1.4368 -1.2027 1.0000
47.4420 -1.2947 -1.2027 1.0000
47.4518 -0.8687 -1.2027 1.0000
47.4561 -0.5847 -1.2027 1.0000
47.4576 -0.4427 -1.2027 1.0000
47.4587 -0.3007 -1.2027 1.0000
47.4594 -0.1586 -1.2027 1.0000
47.4596 -0.0166 -1.2027 1.0000
47.4579 0.4095 -1.2027 1.0000
47.4564 0.5515 -1.2027 1.0000
47.4496 0.9775 -1.2027 1.0000
47.4390 1.4035 -1.2027 1.0000
47.4296 1.6875 -1.2027 1.0000
47.4126 2.1132 -1.2027 1.0000
47.4061 2.2551 -1.2027 1.0000
47.3917 2.5388 -1.2027 1.0000
47.3670 2.9641 -1.2027 1.0000
47.3580 3.1059 -1.2027 1.0000
47.3484 3.2475 -1.2027 1.0000
47.2945 3.9557 -1.2027 1.0000
47.2825 4.0972 -1.2027 1.0000
47.2700 4.2387 -1.2027 1.0000
47.2571 4.3802 -1.2027 1.0000
47.2438 4.5215 -1.2027 1.0000
47.2159 4.8043 -1.2027 1.0000
47.1863 5.0868 -1.2027 1.0000
47.1709 5.2280 -1.2027 1.0000
47.1550 5.3691 -1.2027 1.0000
47.1387 5.5102 -1.2027 1.0000
47.1220 5.6513 -1.2027 1.0000
47.1049 5.7923 -1.2027 1.0000
47.0693 6.0741 -1.2027 1.0000
47.0510 6.2149 -1.2027 1.0000
47.0321 6.3557 -1.2027 1.0000
46.9527 6.9183 -1.2027 1.0000
46.9318 7.0588 -1.2027 1.0000
46.9105 7.1992 -1.2027 1.0000
46.8666 7.4798 -1.2027 1.0000
46.7975 7.9003 -1.2027 1.0000
46.7493 8.1803 -1.2027 1.0000
46.7247 8.3201 -1.2027 1.0000
46.6740 8.5997 -1.2027 1.0000
46.5950 9.0183 -1.2027 1.0000
46.5678 9.1577 -1.2027 1.0000
46.5402 9.2971 -1.2027 1.0000
46.4255 9.8535 -1.2027 1.0000
46.3958 9.9923 -1.2027 1.0000
46.3657 10.1312 -1.2027 1.0000
46.3352 10.2699 -1.2027 1.0000
46.2729 10.5471 -1.2027 1.0000
46.2411 10.6856 -1.2027 1.0000
46.2089 10.8238 -1.2027 1.0000
46.1433 11.1003 -1.2027 1.0000
46.0418 11.5141 -1.2027 1.0000
46.0071 11.6518 -1.2027 1.0000
45.8644 12.2017 -1.2027 1.0000
45.8937 -12.0907 -1.2027 1.0000
45.9297 -11.9533 -1.2027 1.0000
46.0352 -11.5405 -1.2027 1.0000
46.0695 -11.4027 -1.2027 1.0000
46.1370 -11.1267 -1.2027 1.0000
46.1700 -10.9886 -1.2027 1.0000
46.2983 -10.4351 -1.2027 1.0000
46.3293 -10.2966 -1.2027 1.0000
46.3900 -10.0190 -1.2027 1.0000
46.4199 -9.8802 -1.2027 1.0000
46.4782 -9.6021 -1.2027 1.0000
46.5067 -9.4630 -1.2027 1.0000
46.5348 -9.3237 -1.2027 1.0000
46.5625 -9.1845 -1.2027 1.0000
46.6946 -8.4867 -1.2027 1.0000
46.7199 -8.3470 -1.2027 1.0000
46.7691 -8.0671 -1.2027 1.0000
46.8164 -7.7870 -1.2027 1.0000
46.8395 -7.6470 -1.2027 1.0000
46.9278 -7.0857 -1.2027 1.0000
46.9487 -6.9452 -1.2027 1.0000
46.9693 -6.8047 -1.2027 1.0000
46.9895 -6.6641 -1.2027 1.0000
47.0658 -6.1011 -1.2027 1.0000
47.0839 -5.9603 -1.2027 1.0000
47.1015 -5.8193 -1.2027 1.0000
47.1355 -5.5373 -1.2027 1.0000
47.1519 -5.3962 -1.2027 1.0000
47.1679 -5.2551 -1.2027 1.0000
47.1833 -5.1138 -1.2027 1.0000
47.1985 -4.9727 -1.2027 1.0000
47.2131 -4.8314 -1.2027 1.0000
47.3153 -3.6997 -1.2027 1.0000
47.3366 -3.4165 -1.2027 1.0000
47.3466 -3.2748 -1.2027 1.0000
47.3562 -3.1331 -1.2027 1.0000
47.3653 -2.9914 -1.2027 1.0000
47.3977 -2.4241 -1.2027 1.0000
47.4114 -2.1404 -1.2027 1.0000
47.4176 -1.9985 -1.2027 1.0000
47.4234 -1.8566 -1.2027 1.0000
47.4287 -1.7146 -1.2027 1.0000
47.4336 -1.5726 -1.2027 1.0000
47.4381 -1.4307 -1.2027 1.0000
47.4458 -1.1467 -1.2027 1.0000
47.4490 -1.0048 -1.2027 1.0000
47.4518 -0.8627 -1.2027 1.0000
47.4542 -0.7208 -1.2027 1.0000
47.4577 -0.4367 -1.2027 1.0000
47.4597 -0.0106 -1.2027 1.0000
47.4595 0.1314 -1.2027 1.0000
47.4589 0.2734 -1.2027 1.0000
47.4564 0.5574 -1.2027 1.0000
47.4523 0.8415 -1.2027 1.0000
47.4495 0.9836 -1.2027 1.0000
47.4427 1.2675 -1.2027 1.0000
47.4387 1.4095 -1.2027 1.0000
47.4343 1.5515 -1.2027 1.0000
47.4185 1.9773 -1.2027 1.0000
47.4058 2.2611 -1.2027 1.0000
47.3914 2.5448 -1.2027 1.0000
47.3836 2.6865 -1.2027 1.0000
47.3576 3.1118 -1.2027 1.0000
47.3277 3.5370 -1.2027 1.0000
47.3168 3.6786 -1.2027 1.0000
47.3057 3.8201 -1.2027 1.0000
47.2820 4.1032 -1.2027 1.0000
47.2566 4.3861 -1.2027 1.0000
47.2432 4.5276 -1.2027 1.0000
47.2153 4.8102 -1.2027 1.0000
28.4357 -1.2873 -1.2027 1.0000
28.4395 -1.2022 -1.2027 1.0000
28.4543 -0.7765 -1.2027 1.0000
28.4565 -0.6914 -1.2027 1.0000
28.4585 -0.6062 -1.2027 1.0000
28.4602 -0.5211 -1.2027 1.0000
28.4616 -0.4359 -1.2027 1.0000
28.4637 -0.2655 -1.2027 1.0000
28.4644 -0.1804 -1.2027 1.0000
28.4645 0.1604 -1.2027 1.0000
28.4639 0.2456 -1.2027 1.0000
28.4630 0.3308 -1.2027 1.0000
28.4619 0.4159 -1.2027 1.0000
28.4605 0.5011 -1.2027 1.0000
28.4570 0.6715 -1.2027 1.0000
28.4498 0.9269 -1.2027 1.0000
28.4438 1.0972 -1.2027 1.0000
28.4367 1.2675 -1.2027 1.0000
28.4195 1.6077 -1.2027 1.0000
28.4039 1.8629 -1.2027 1.0000
28.3982 1.9479 -1.2027 1.0000
28.3922 2.0328 -1.2027 1.0000
28.3729 2.2876 -1.2027 1.0000
28.3586 2.4574 -1.2027 1.0000
28.3511 2.5423 -1.2027 1.0000
28.3434 2.6271 -1.2027 1.0000
28.3272 2.7967 -1.2027 1.0000
28.3100 2.9663 -1.2027 1.0000
28.2917 3.1356 -1.2027 1.0000
28.2521 3.4740 -1.2027 1.0000
28.2416 3.5586 -1.2027 1.0000
28.2198 3.7275 -1.2027 1.0000
28.2086 3.8121 -1.2027 1.0000
28.1970 3.8964 -1.2027 1.0000
28.1732 4.0652 -1.2027 1.0000
28.1609 4.1494 -1.2027 1.0000
28.0818 4.6543 -1.2027 1.0000
28.0535 4.8223 -1.2027 1.0000
28.0389 4.9063 -1.2027 1.0000
28.0241 4.9902 -1.2027 1.0000
27.9937 5.1579 -1.2027 1.0000
27.9782 5.2416 -1.2027 1.0000
27.8795 5.7431 -1.2027 1.0000
27.8622 5.8264 -1.2027 1.0000
27.7719 6.2428 -1.2027 1.0000
27.7148 6.4918 -1.2027 1.0000
27.6952 6.5748 -1.2027 1.0000
27.6350 6.8232 -1.2027 1.0000
27.5937 6.9884 -1.2027 1.0000
27.5299 7.2359 -1.2027 1.0000
27.5081 7.3182 -1.2027 1.0000
27.5039 -7.3340 -1.2027 1.0000
27.5257 -7.2516 -1.2027 1.0000
27.5897 -7.0043 -1.2027 1.0000
27.7304 -6.4248 -1.2027 1.0000
27.8053 -6.0923 -1.2027 1.0000
27.8412 -5.9258 -1.2027 1.0000
27.8762 -5.7590 -1.2027 1.0000
27.8933 -5.6757 -1.2027 1.0000
27.9102 -5.5921 -1.2027 1.0000
27.9268 -5.5085 -1.2027 1.0000
27.9432 -5.4249 -1.2027 1.0000
27.9593 -5.3412 -1.2027 1.0000
27.9908 -5.1739 -1.2027 1.0000
28.0061 -5.0900 -1.2027 1.0000
28.0507 -4.8384 -1.2027 1.0000
28.0650 -4.7544 -1.2027 1.0000
28.1330 -4.3340 -1.2027 1.0000
28.1459 -4.2498 -1.2027 1.0000
28.1708 -4.0813 -1.2027 1.0000
28.1947 -3.9125 -1.2027 1.0000
28.2176 -3.7437 -1.2027 1.0000
28.2288 -3.6592 -1.2027 1.0000
28.2395 -3.5748 -1.2027 1.0000
28.2501 -3.4902 -1.2027 1.0000
28.2705 -3.3211 -1.2027 1.0000
28.2899 -3.1518 -1.2027 1.0000
28.3082 -2.9824 -1.2027 1.0000
28.3170 -2.8977 -1.2027 1.0000
28.3418 -2.6434 -1.2027 1.0000
28.3573 -2.4737 -1.2027 1.0000
28.3645 -2.3887 -1.2027 1.0000
28.3783 -2.2190 -1.2027 1.0000
28.4028 -1.8791 -1.2027 1.0000
28.4136 -1.7090 -1.2027 1.0000
28.4233 -1.5389 -1.2027 1.0000
28.4360 -1.2837 -1.2027 1.0000
28.4396 -1.1986 -1.2027 1.0000
28.4463 -1.0284 -1.2027 1.0000
28.4493 -0.9432 -1.2027 1.0000
28.4545 -0.7730 -1.2027 1.0000
28.4617 -0.4323 -1.2027 1.0000
28.4637 -0.2620 -1.2027 1.0000
28.4648 -0.0915 -1.2027 1.0000
28.4644 0.1641 -1.2027 1.0000
28.4618 0.4197 -1.2027 1.0000
28.4605 0.5047 -1.2027 1.0000
28.4497 0.9305 -1.2027 1.0000
28.4468 1.0156 -1.2027 1.0000
28.4436 1.1008 -1.2027 1.0000
28.4326 1.3562 -1.2027 1.0000
28.4284 1.4412 -1.2027 1.0000
28.4240 1.5263 -1.2027 1.0000
28.4143 1.6964 -1.2027 1.0000
28.4037 1.8664 -1.2027 1.0000
28.3979 1.9514 -1.2027 1.0000
28.3793 2.2063 -1.2027 1.0000
28.3726 2.2912 -1.2027 1.0000
28.3431 2.6308 -1.2027 1.0000
28.3268 2.8002 -1.2027 1.0000
20.2968 -0.9797 -1.2027 1.0000
20.2996 -0.9189 -1.2027 1.0000
20.3023 -0.8582 -1.2027 1.0000
20.3048 -0.7974 -1.2027 1.0000
20.3158 -0.4328 -1.2027 1.0000
20.3171 -0.3720 -1.2027 1.0000
20.3180 -0.3111 -1.2027 1.0000
20.3189 -0.2502 -1.2027 1.0000
20.3196 -0.1895 -1.2027 1.0000
20.3204 -0.0679 -1.2027 1.0000
20.3204 0.0537 -1.2027 1.0000
20.3201 0.1146 -1.2027 1.0000
20.3197 0.1753 -1.2027 1.0000
20.3191 0.2362 -1.2027 1.0000
20.3173 0.3578 -1.2027 1.0000
20.3148 0.4793 -1.2027 1.0000
20.3133 0.5401 -1.2027 1.0000
20.3076 0.7226 -1.2027 1.0000
20.3003 0.9048 -1.2027 1.0000
20.2975 0.9655 -1.2027 1.0000
20.2945 1.0263 -1.2027 1.0000
20.2880 1.1478 -1.2027 1.0000
20.2845 1.2085 -1.2027 1.0000
20.2769 1.3299 -1.2027 1.0000
20.2728 1.3906 -1.2027 1.0000
20.2595 1.5725 -1.2027 1.0000
20.2547 1.6330 -1.2027 1.0000
20.2498 1.6937 -1.2027 1.0000
20.2393 1.8149 -1.2027 1.0000
20.2221 1.9965 -1.2027 1.0000
20.1968 2.2385 -1.2027 1.0000
20.1830 2.3593 -1.2027 1.0000
20.1686 2.4801 -1.2027 1.0000
20.1610 2.5403 -1.2027 1.0000
20.1533 2.6008 -1.2027 1.0000
20.1455 2.6611 -1.2027 1.0000
20.1292 2.7816 -1.2027 1.0000
20.1122 2.9020 -1.2027 1.0000
20.0944 3.0223 -1.2027 1.0000
20.0853 3.0825 -1.2027 1.0000
20.0760 3.1425 -1.2027 1.0000
20.0665 3.2027 -1.2027 1.0000
20.0568 3.2627 -1.2027 1.0000
20.0163 3.5025 -1.2027 1.0000
20.0058 3.5625 -1.2027 1.0000
19.9502 3.8614 -1.2027 1.0000
19.9386 3.9211 -1.2027 1.0000
19.9147 4.0404 -1.2027 1.0000
19.9026 4.1000 -1.2027 1.0000
19.8902 4.1594 -1.2027 1.0000
19.8390 4.3972 -1.2027 1.0000
19.8257 4.4566 -1.2027 1.0000
19.7849 4.6344 -1.2027 1.0000
19.7425 4.8119 -1.2027 1.0000
19.7134 4.9300 -1.2027 1.0000
19.6835 5.0478 -1.2027 1.0000
19.6529 5.1656 -1.2027 1.0000
19.6374 5.2243 -1.2027 1.0000
19.6344 -5.2355 -1.2027 1.0000
19.6500 -5.1768 -1.2027 1.0000
19.6654 -5.1180 -1.2027 1.0000
19.7541 -4.7640 -1.2027 1.0000
19.7682 -4.7048 -1.2027 1.0000
19.7822 -4.6458 -1.2027 1.0000
19.8097 -4.5271 -1.2027 1.0000
19.8232 -4.4679 -1.2027 1.0000
19.8364 -4.4085 -1.2027 1.0000
19.8496 -4.3492 -1.2027 1.0000
19.8879 -4.1708 -1.2027 1.0000
19.9002 -4.1112 -1.2027 1.0000
19.9124 -4.0516 -1.2027 1.0000
19.9245 -3.9921 -1.2027 1.0000
19.9595 -3.8130 -1.2027 1.0000
19.9708 -3.7532 -1.2027 1.0000
19.9820 -3.6934 -1.2027 1.0000
19.9929 -3.6336 -1.2027 1.0000
20.0037 -3.5738 -1.2027 1.0000
20.0248 -3.4540 -1.2027 1.0000
20.0350 -3.3942 -1.2027 1.0000
20.0451 -3.3341 -1.2027 1.0000
20.0549 -3.2740 -1.2027 1.0000
20.0927 -3.0338 -1.2027 1.0000
20.1105 -2.9135 -1.2027 1.0000
20.1276 -2.7931 -1.2027 1.0000
20.1358 -2.7328 -1.2027 1.0000
20.1595 -2.5519 -1.2027 1.0000
20.1745 -2.4312 -1.2027 1.0000
20.1817 -2.3708 -1.2027 1.0000
20.1887 -2.3104 -1.2027 1.0000
20.1955 -2.2500 -1.2027 1.0000
20.2210 -2.0080 -1.2027 1.0000
20.2269 -1.9476 -1.2027 1.0000
20.2327 -1.8871 -1.2027 1.0000
20.2382 -1.8264 -1.2027 1.0000
20.2436 -1.7659 -1.2027 1.0000
20.2677 -1.4629 -1.2027 1.0000
20.2720 -1.4021 -1.2027 1.0000
20.2761 -1.3414 -1.2027 1.0000
20.2837 -1.2200 -1.2027 1.0000
20.2939 -1.0379 -1.2027 1.0000
20.2969 -0.9771 -1.2027 1.0000
20.3049 -0.7948 -1.2027 1.0000
20.3093 -0.6734 -1.2027 1.0000
20.3112 -0.6125 -1.2027 1.0000
20.3145 -0.4909 -1.2027 1.0000
20.3159 -0.4301 -1.2027 1.0000
20.3189 -0.2477 -1.2027 1.0000
20.3201 -0.1262 -1.2027 1.0000
20.3204 -0.0653 -1.2027 1.0000
20.3204 -0.0045 -1.2027 1.0000
20.3197 0.1780 -1.2027 1.0000
20.3190 0.2387 -1.2027 1.0000
20.3182 0.2995 -1.2027 1.0000
20.3173 0.3604 -1.2027 1.0000
20.3161 0.4211 -1.2027 1.0000
20.3147 0.4820 -1.2027 1.0000
20.3096 0.6644 -1.2027 1.0000
20.3053 0.7858 -1.2027 1.0000
20.3028 0.8467 -1.2027 1.0000
20.2944 1.0289 -1.2027 1.0000
20.2913 1.0896 -1.2027 1.0000
20.2843 1.2110 -1.2027 1.0000
20.2726 1.3931 -1.2027 1.0000
20.2684 1.4537 -1.2027 1.0000
20.2640 1.5145 -1.2027 1.0000
20.2593 1.5751 -1.2027 1.0000
20.2545 1.6356 -1.2027 1.0000
20.2495 1.6963 -1.2027 1.0000
20.2335 1.8779 -1.2027 1.0000
20.2278 1.9386 -1.2027 1.0000
20.2219 1.9991 -1.2027 1.0000
15.7766 -0.7142 -1.2027 1.0000
15.7805 -0.6198 -1.2027 1.0000
15.7868 -0.4308 -1.2027 1.0000
15.7881 -0.3835 -1.2027 1.0000
15.7891 -0.3363 -1.2027 1.0000
15.7901 -0.2891 -1.2027 1.0000
15.7908 -0.2419 -1.2027 1.0000
15.7924 -0.1000 -1.2027 1.0000
15.7927 -0.0528 -1.2027 1.0000
15.7927 0.0417 -1.2027 1.0000
15.7921 0.1362 -1.2027 1.0000
15.7910 0.2308 -1.2027 1.0000
15.7903 0.2780 -1.2027 1.0000
15.7810 0.6087 -1.2027 1.0000
15.7770 0.7032 -1.2027 1.0000
15.7749 0.7504 -1.2027 1.0000
15.7726 0.7976 -1.2027 1.0000
15.7701 0.8448 -1.2027 1.0000
15.7675 0.8921 -1.2027 1.0000
15.7648 0.9392 -1.2027 1.0000
15.7619 0.9863 -1.2027 1.0000
15.7588 1.0336 -1.2027 1.0000
15.7557 1.0807 -1.2027 1.0000
15.7524 1.1278 -1.2027 1.0000
15.7490 1.1750 -1.2027 1.0000
15.7454 1.2221 -1.2027 1.0000
15.7416 1.2692 -1.2027 1.0000
15.7337 1.3634 -1.2027 1.0000
15.7296 1.4105 -1.2027 1.0000
15.7253 1.4576 -1.2027 1.0000
15.7209 1.5046 -1.2027 1.0000
15.7162 1.5516 -1.2027 1.0000
15.7116 1.5987 -1.2027 1.0000
15.7067 1.6457 -1.2027 1.0000
15.6914 1.7866 -1.2027 1.0000
15.6860 1.8337 -1.2027 1.0000
15.6629 2.0212 -1.2027 1.0000
15.6567 2.0681 -1.2027 1.0000
15.6375 2.2086 -1.2027 1.0000
15.6309 2.2553 -1.2027 1.0000
15.6099 2.3957 -1.2027 1.0000
15.6027 2.4423 -1.2027 1.0000
15.5878 2.5356 -1.2027 1.0000
15.5723 2.6290 -1.2027 1.0000
15.5645 2.6755 -1.2027 1.0000
15.5563 2.7221 -1.2027 1.0000
15.5398 2.8151 -1.2027 1.0000
15.5313 2.8617 -1.2027 1.0000
15.5139 2.9547 -1.2027 1.0000
15.4959 3.0474 -1.2027 1.0000
15.4774 3.1401 -1.2027 1.0000
15.4680 3.1864 -1.2027 1.0000
15.4583 3.2326 -1.2027 1.0000
15.4486 3.2789 -1.2027 1.0000
15.4387 3.3250 -1.2027 1.0000
15.4082 3.4636 -1.2027 1.0000
15.3978 3.5097 -1.2027 1.0000
15.3547 3.6937 -1.2027 1.0000
15.3436 3.7397 -1.2027 1.0000
15.3094 3.8772 -1.2027 1.0000
15.2977 3.9231 -1.2027 1.0000
15.2739 4.0145 -1.2027 1.0000
15.2619 4.0602 -1.2027 1.0000
15.2836 -3.9777 -1.2027 1.0000
15.3414 -3.7485 -1.2027 1.0000
15.3525 -3.7025 -1.2027 1.0000
15.3744 -3.6105 -1.2027 1.0000
15.3852 -3.5646 -1.2027 1.0000
15.3958 -3.5185 -1.2027 1.0000
15.4062 -3.4724 -1.2027 1.0000
15.4467 -3.2877 -1.2027 1.0000
15.5033 -3.0098 -1.2027 1.0000
15.5122 -2.9633 -1.2027 1.0000
15.5297 -2.8705 -1.2027 1.0000
15.5382 -2.8241 -1.2027 1.0000
15.5466 -2.7775 -1.2027 1.0000
15.5548 -2.7309 -1.2027 1.0000
15.5864 -2.5446 -1.2027 1.0000
15.6013 -2.4513 -1.2027 1.0000
15.6086 -2.4046 -1.2027 1.0000
15.6227 -2.3111 -1.2027 1.0000
15.6296 -2.2643 -1.2027 1.0000
15.6362 -2.2175 -1.2027 1.0000
15.6428 -2.1707 -1.2027 1.0000
15.6555 -2.0771 -1.2027 1.0000
15.6677 -1.9833 -1.2027 1.0000
15.6735 -1.9364 -1.2027 1.0000
15.6849 -1.8426 -1.2027 1.0000
15.6904 -1.7956 -1.2027 1.0000
15.6956 -1.7486 -1.2027 1.0000
15.7008 -1.7017 -1.2027 1.0000
15.7200 -1.5135 -1.2027 1.0000
15.7244 -1.4666 -1.2027 1.0000
15.7330 -1.3724 -1.2027 1.0000
15.7370 -1.3253 -1.2027 1.0000
15.7409 -1.2782 -1.2027 1.0000
15.7447 -1.2311 -1.2027 1.0000
15.7483 -1.1840 -1.2027 1.0000
15.7517 -1.1369 -1.2027 1.0000
15.7582 -1.0426 -1.2027 1.0000
15.7613 -0.9954 -1.2027 1.0000
15.7642 -0.9482 -1.2027 1.0000
15.7696 -0.8538 -1.2027 1.0000
15.7721 -0.8066 -1.2027 1.0000
15.7767 -0.7123 -1.2027 1.0000
15.7824 -0.5706 -1.2027 1.0000
15.7855 -0.4761 -1.2027 1.0000
15.7892 -0.3344 -1.2027 1.0000
15.7909 -0.2398 -1.2027 1.0000
15.7927 -0.0035 -1.2027 1.0000
15.7921 0.1383 -1.2027 1.0000
15.7916 0.1856 -1.2027 1.0000
15.7910 0.2327 -1.2027 1.0000
15.7893 0.3273 -1.2027 1.0000
15.7871 0.4218 -1.2027 1.0000
15.7858 0.4690 -1.2027 1.0000
15.7809 0.6108 -1.2027 1.0000
15.7724 0.7996 -1.2027 1.0000
15.7674 0.8941 -1.2027 1.0000
15.7647 0.9412 -1.2027 1.0000
15.7617 0.9883 -1.2027 1.0000
15.7488 1.1770 -1.2027 1.0000
15.7452 1.2241 -1.2027 1.0000
15.7415 1.2712 -1.2027 1.0000
15.7336 1.3655 -1.2027 1.0000
15.7207 1.5066 -1.2027 1.0000
15.7161 1.5536 -1.2027 1.0000
15.7114 1.6007 -1.2027 1.0000
12.8958 -0.5838 -1.2027 1.0000
12.8975 -0.5453 -1.2027 1.0000
12.9005 -0.4680 -1.2027 1.0000
12.9019 -0.4294 -1.2027 1.0000
12.9052 -0.3135 -1.2027 1.0000
12.9069 -0.2362 -1.2027 1.0000
12.9084 -0.1203 -1.2027 1.0000
12.9087 -0.0818 -1.2027 1.0000
12.9090 -0.0045 -1.2027 1.0000
12.9089 0.0342 -1.2027 1.0000
12.9086 0.1114 -1.2027 1.0000
12.9063 0.2659 -1.2027 1.0000
12.9022 0.4204 -1.2027 1.0000
12.9008 0.4590 -1.2027 1.0000
12.8979 0.5362 -1.2027 1.0000
12.8944 0.6134 -1.2027 1.0000
12.8925 0.6520 -1.2027 1.0000
12.8905 0.6906 -1.2027 1.0000
12.8884 0.7291 -1.2027 1.0000
12.8862 0.7677 -1.2027 1.0000
12.8838 0.8062 -1.2027 1.0000
12.8814 0.8449 -1.2027 1.0000
12.8574 1.1530 -1.2027 1.0000
12.8466 1.2683 -1.2027 1.0000
12.8427 1.3067 -1.2027 1.0000
12.8387 1.3451 -1.2027 1.0000
12.8305 1.4221 -1.2027 1.0000
12.8217 1.4988 -1.2027 1.0000
12.8172 1.5371 -1.2027 1.0000
12.8125 1.5755 -1.2027 1.0000
12.7927 1.7287 -1.2027 1.0000
12.7875 1.7671 -1.2027 1.0000
12.7767 1.8435 -1.2027 1.0000
12.7711 1.8818 -1.2027 1.0000
12.7654 1.9200 -1.2027 1.0000
12.7596 1.9582 -1.2027 1.0000
12.7477 2.0346 -1.2027 1.0000
12.7415 2.0727 -1.2027 1.0000
12.7353 2.1108 -1.2027 1.0000
12.7289 2.1489 -1.2027 1.0000
12.7224 2.1870 -1.2027 1.0000
12.6953 2.3390 -1.2027 1.0000
12.6664 2.4909 -1.2027 1.0000
12.6589 2.5288 -1.2027 1.0000
12.6512 2.5667 -1.2027 1.0000
12.6277 2.6802 -1.2027 1.0000
12.6114 2.7558 -1.2027 1.0000
12.5947 2.8311 -1.2027 1.0000
12.5776 2.9064 -1.2027 1.0000
12.5599 2.9817 -1.2027 1.0000
12.5139 3.1693 -1.2027 1.0000
12.4947 3.2442 -1.2027 1.0000
12.4849 3.2815 -1.2027 1.0000
12.4751 3.3188 -1.2027 1.0000
12.4732 -3.3260 -1.2027 1.0000
12.4831 -3.2886 -1.2027 1.0000
12.5121 -3.1764 -1.2027 1.0000
12.5215 -3.1390 -1.2027 1.0000
12.5309 -3.1016 -1.2027 1.0000
12.5401 -3.0641 -1.2027 1.0000
12.5492 -3.0264 -1.2027 1.0000
12.5846 -2.8760 -1.2027 1.0000
12.5931 -2.8383 -1.2027 1.0000
12.6341 -2.6496 -1.2027 1.0000
12.6498 -2.5739 -1.2027 1.0000
12.6650 -2.4982 -1.2027 1.0000
12.6724 -2.4602 -1.2027 1.0000
12.6940 -2.3464 -1.2027 1.0000
12.7009 -2.3084 -1.2027 1.0000
12.7145 -2.2323 -1.2027 1.0000
12.7277 -2.1562 -1.2027 1.0000
12.7341 -2.1181 -1.2027 1.0000
12.7404 -2.0800 -1.2027 1.0000
12.7465 -2.0418 -1.2027 1.0000
12.7700 -1.8891 -1.2027 1.0000
12.7811 -1.8127 -1.2027 1.0000
12.7917 -1.7361 -1.2027 1.0000
12.7969 -1.6978 -1.2027 1.0000
12.8116 -1.5829 -1.2027 1.0000
12.8209 -1.5061 -1.2027 1.0000
12.8379 -1.3525 -1.2027 1.0000
12.8567 -1.1603 -1.2027 1.0000
12.8635 -1.0834 -1.2027 1.0000
12.8666 -1.0448 -1.2027 1.0000
12.8697 -1.0063 -1.2027 1.0000
12.8727 -0.9678 -1.2027 1.0000
12.8755 -0.9293 -1.2027 1.0000
12.8808 -0.8522 -1.2027 1.0000
12.8833 -0.8137 -1.2027 1.0000
12.8880 -0.7364 -1.2027 1.0000
12.8940 -0.6207 -1.2027 1.0000
12.8959 -0.5821 -1.2027 1.0000
12.8975 -0.5436 -1.2027 1.0000
12.9006 -0.4664 -1.2027 1.0000
12.9031 -0.3891 -1.2027 1.0000
12.9043 -0.3505 -1.2027 1.0000
12.9052 -0.3119 -1.2027 1.0000
12.9061 -0.2732 -1.2027 1.0000
12.9089 -0.0415 -1.2027 1.0000
12.9085 0.1130 -1.2027 1.0000
12.9081 0.1516 -1.2027 1.0000
12.9076 0.1903 -1.2027 1.0000
12.9054 0.3062 -1.2027 1.0000
12.9044 0.3448 -1.2027 1.0000
12.9021 0.4220 -1.2027 1.0000
12.9008 0.4606 -1.2027 1.0000
12.8978 0.5378 -1.2027 1.0000
12.8961 0.5764 -1.2027 1.0000
12.8943 0.6150 -1.2027 1.0000
12.8925 0.6536 -1.2027 1.0000
12.8883 0.7307 -1.2027 1.0000
12.8860 0.7693 -1.2027 1.0000
12.8731 0.9621 -1.2027 1.0000
12.8702 1.0006 -1.2027 1.0000
12.8671 1.0390 -1.2027 1.0000
12.8572 1.1546 -1.2027 1.0000
12.8464 1.2699 -1.2027 1.0000
10.8978 -0.5261 -1.2027 1.0000
10.8993 -0.4934 -1.2027 1.0000
10.9007 -0.4608 -1.2027 1.0000
10.9021 -0.4281 -1.2027 1.0000
10.9033 -0.3956 -1.2027 1.0000
10.9045 -0.3629 -1.2027 1.0000
10.9054 -0.3303 -1.2027 1.0000
10.9064 -0.2976 -1.2027 1.0000
10.9073 -0.2650 -1.2027 1.0000
10.9080 -0.2324 -1.2027 1.0000
10.9099 -0.1018 -1.2027 1.0000
10.9103 -0.0691 -1.2027 1.0000
10.9104 -0.0365 -1.2027 1.0000
10.9104 0.0289 -1.2027 1.0000
10.9103 0.0615 -1.2027 1.0000
10.9097 0.1268 -1.2027 1.0000
10.9093 0.1595 -1.2027 1.0000
10.9088 0.1921 -1.2027 1.0000
10.9075 0.2574 -1.2027 1.0000
10.9066 0.2901 -1.2027 1.0000
10.9057 0.3226 -1.2027 1.0000
10.9036 0.3879 -1.2027 1.0000
10.9011 0.4532 -1.2027 1.0000
10.8996 0.4859 -1.2027 1.0000
10.8982 0.5185 -1.2027 1.0000
10.8965 0.5510 -1.2027 1.0000
10.8948 0.5837 -1.2027 1.0000
10.8892 0.6813 -1.2027 1.0000
10.8871 0.7140 -1.2027 1.0000
10.8849 0.7466 -1.2027 1.0000
10.8827 0.7792 -1.2027 1.0000
10.8752 0.8769 -1.2027 1.0000
10.8725 0.9094 -1.2027 1.0000
10.8577 1.0720 -1.2027 1.0000
10.8544 1.1045 -1.2027 1.0000
10.8476 1.1694 -1.2027 1.0000
10.8441 1.2019 -1.2027 1.0000
10.8404 1.2343 -1.2027 1.0000
10.8367 1.2668 -1.2027 1.0000
10.8328 1.2992 -1.2027 1.0000
10.8249 1.3639 -1.2027 1.0000
10.8207 1.3964 -1.2027 1.0000
10.8165 1.4288 -1.2027 1.0000
10.8078 1.4935 -1.2027 1.0000
10.8033 1.5259 -1.2027 1.0000
10.7892 1.6228 -1.2027 1.0000
10.7842 1.6551 -1.2027 1.0000
10.7792 1.6873 -1.2027 1.0000
10.7689 1.7517 -1.2027 1.0000
10.7636 1.7839 -1.2027 1.0000
10.7582 1.8162 -1.2027 1.0000
10.7528 1.8484 -1.2027 1.0000
10.7472 1.8805 -1.2027 1.0000
10.7415 1.9128 -1.2027 1.0000
10.7357 1.9449 -1.2027 1.0000
10.7299 1.9770 -1.2027 1.0000
10.7179 2.0411 -1.2027 1.0000
10.7117 2.0733 -1.2027 1.0000
10.6991 2.1373 -1.2027 1.0000
10.6794 2.2333 -1.2027 1.0000
10.6727 2.2653 -1.2027 1.0000
10.6659 2.2971 -1.2027 1.0000
10.6520 2.3610 -1.2027 1.0000
10.6448 2.3928 -1.2027 1.0000
10.6229 2.4883 -1.2027 1.0000
10.6154 2.5200 -1.2027 1.0000
10.6002 2.5836 -1.2027 1.0000
10.5924 2.6153 -1.2027 1.0000
10.5845 2.6470 -1.2027 1.0000
10.5765 2.6787 -1.2027 1.0000
10.5685 2.7102 -1.2027 1.0000
10.5604 2.7419 -1.2027 1.0000
10.5521 2.7735 -1.2027 1.0000
10.5437 2.8051 -1.2027 1.0000
10.5504 -2.7795 -1.2027 1.0000
10.5588 -2.7479 -1.2027 1.0000
10.5830 -2.6530 -1.2027 1.0000
10.5987 -2.5896 -1.2027 1.0000
10.6064 -2.5578 -1.2027 1.0000
10.6215 -2.4944 -1.2027 1.0000
10.6289 -2.4626 -1.2027 1.0000
10.6363 -2.4307 -1.2027 1.0000
10.6435 -2.3990 -1.2027 1.0000
10.6506 -2.3671 -1.2027 1.0000
10.6914 -2.1754 -1.2027 1.0000
10.7042 -2.1114 -1.2027 1.0000
10.7104 -2.0794 -1.2027 1.0000
10.7227 -2.0152 -1.2027 1.0000
10.7287 -1.9831 -1.2027 1.0000
10.7346 -1.9510 -1.2027 1.0000
10.7461 -1.8867 -1.2027 1.0000
10.7517 -1.8546 -1.2027 1.0000
10.7572 -1.8223 -1.2027 1.0000
10.7679 -1.7580 -1.2027 1.0000
10.7782 -1.6935 -1.2027 1.0000
10.8113 -1.4672 -1.2027 1.0000
10.8200 -1.4026 -1.2027 1.0000
10.8282 -1.3378 -1.2027 1.0000
10.8397 -1.2405 -1.2027 1.0000
10.8571 -1.0781 -1.2027 1.0000
10.8603 -1.0457 -1.2027 1.0000
10.8633 -1.0132 -1.2027 1.0000
10.8692 -0.9481 -1.2027 1.0000
10.8747 -0.8830 -1.2027 1.0000
10.8798 -0.8180 -1.2027 1.0000
10.8822 -0.7853 -1.2027 1.0000
10.8867 -0.7203 -1.2027 1.0000
10.8927 -0.6225 -1.2027 1.0000
10.8945 -0.5898 -1.2027 1.0000
10.8979 -0.5246 -1.2027 1.0000
10.8994 -0.4920 -1.2027 1.0000
10.9008 -0.4593 -1.2027 1.0000
10.9021 -0.4268 -1.2027 1.0000
10.9033 -0.3942 -1.2027 1.0000
10.9045 -0.3615 -1.2027 1.0000
10.9055 -0.3289 -1.2027 1.0000
10.9065 -0.2963 -1.2027 1.0000
10.9073 -0.2636 -1.2027 1.0000
10.9080 -0.2310 -1.2027 1.0000
10.9087 -0.1983 -1.2027 1.0000
10.9096 -0.1330 -1.2027 1.0000
10.9102 -0.0677 -1.2027 1.0000
10.9104 0.0302 -1.2027 1.0000
10.9093 0.1608 -1.2027 1.0000
10.9088 0.1935 -1.2027 1.0000
10.9081 0.2262 -1.2027 1.0000
10.9074 0.2588 -1.2027 1.0000
10.9057 0.3240 -1.2027 1.0000
10.9046 0.3567 -1.2027 1.0000
10.9035 0.3893 -1.2027 1.0000
10.9023 0.4220 -1.2027 1.0000
10.8981 0.5198 -1.2027 1.0000
10.8965 0.5525 -1.2027 1.0000
10.8930 0.6177 -1.2027 1.0000
10.8911 0.6502 -1.2027 1.0000
10.8891 0.6828 -1.2027 1.0000
10.8870 0.7154 -1.2027 1.0000
10.8848 0.7480 -1.2027 1.0000
10.8825 0.7806 -1.2027 1.0000
10.8801 0.8131 -1.2027 1.0000
10.8751 0.8783 -1.2027 1.0000
10.8696 0.9433 -1.2027 1.0000
10.8607 1.0409 -1.2027 1.0000
10.8576 1.0733 -1.2027 1.0000
10.8543 1.1059 -1.2027 1.0000
9.4346 -0.3988 -1.2027 1.0000
9.4369 -0.3424 -1.2027 1.0000
9.4379 -0.3142 -1.2027 1.0000
9.4387 -0.2858 -1.2027 1.0000
9.4396 -0.2576 -1.2027 1.0000
9.4410 -0.2011 -1.2027 1.0000
9.4415 -0.1729 -1.2027 1.0000
9.4427 -0.0881 -1.2027 1.0000
9.4429 -0.0598 -1.2027 1.0000
9.4431 -0.0033 -1.2027 1.0000
9.4430 0.0250 -1.2027 1.0000
9.4429 0.0532 -1.2027 1.0000
9.4427 0.0815 -1.2027 1.0000
9.4425 0.1098 -1.2027 1.0000
9.4389 0.2793 -1.2027 1.0000
9.4381 0.3075 -1.2027 1.0000
9.4371 0.3358 -1.2027 1.0000
9.4361 0.3639 -1.2027 1.0000
9.4350 0.3922 -1.2027 1.0000
9.4324 0.4487 -1.2027 1.0000
9.4311 0.4770 -1.2027 1.0000
9.4280 0.5334 -1.2027 1.0000
9.4264 0.5616 -1.2027 1.0000
9.4247 0.5898 -1.2027 1.0000
9.4190 0.6745 -1.2027 1.0000
9.4170 0.7026 -1.2027 1.0000
9.4102 0.7871 -1.2027 1.0000
9.4054 0.8434 -1.2027 1.0000
9.3917 0.9840 -1.2027 1.0000
9.3887 1.0121 -1.2027 1.0000
9.3857 1.0402 -1.2027 1.0000
9.3792 1.0964 -1.2027 1.0000
9.3759 1.1245 -1.2027 1.0000
9.3725 1.1526 -1.2027 1.0000
9.3654 1.2086 -1.2027 1.0000
9.3618 1.2366 -1.2027 1.0000
9.3580 1.2647 -1.2027 1.0000
9.3542 1.2926 -1.2027 1.0000
9.3503 1.3206 -1.2027 1.0000
9.3422 1.3766 -1.2027 1.0000
9.3381 1.4046 -1.2027 1.0000
9.3295 1.4604 -1.2027 1.0000
9.3251 1.4883 -1.2027 1.0000
9.3206 1.5162 -1.2027 1.0000
9.3160 1.5441 -1.2027 1.0000
9.3113 1.5720 -1.2027 1.0000
9.3066 1.5998 -1.2027 1.0000
9.2969 1.6555 -1.2027 1.0000
9.2710 1.7944 -1.2027 1.0000
9.2656 1.8222 -1.2027 1.0000
9.2601 1.8498 -1.2027 1.0000
9.2431 1.9330 -1.2027 1.0000
9.2373 1.9606 -1.2027 1.0000
9.2314 1.9882 -1.2027 1.0000
9.2254 2.0158 -1.2027 1.0000
9.2132 2.0710 -1.2027 1.0000
9.2070 2.0986 -1.2027 1.0000
9.2006 2.1262 -1.2027 1.0000
9.1942 2.1537 -1.2027 1.0000
9.1877 2.1811 -1.2027 1.0000
9.1812 2.2087 -1.2027 1.0000
9.1745 2.2362 -1.2027 1.0000
9.1610 2.2910 -1.2027 1.0000
9.1541 2.3184 -1.2027 1.0000
9.1400 2.3732 -1.2027 1.0000
9.1257 2.4278 -1.2027 1.0000
9.1243 -2.4330 -1.2027 1.0000
9.1315 -2.4058 -1.2027 1.0000
9.1527 -2.3236 -1.2027 1.0000
9.1597 -2.2961 -1.2027 1.0000
9.1865 -2.1864 -1.2027 1.0000
9.2120 -2.0763 -1.2027 1.0000
9.2182 -2.0487 -1.2027 1.0000
9.2362 -1.9658 -1.2027 1.0000
9.2478 -1.9106 -1.2027 1.0000
9.2535 -1.8828 -1.2027 1.0000
9.2646 -1.8275 -1.2027 1.0000
9.2700 -1.7996 -1.2027 1.0000
9.2858 -1.7164 -1.2027 1.0000
9.3008 -1.6330 -1.2027 1.0000
9.3056 -1.6051 -1.2027 1.0000
9.3104 -1.5772 -1.2027 1.0000
9.3151 -1.5494 -1.2027 1.0000
9.3197 -1.5215 -1.2027 1.0000
9.3242 -1.4936 -1.2027 1.0000
9.3330 -1.4378 -1.2027 1.0000
9.3373 -1.4097 -1.2027 1.0000
9.3455 -1.3540 -1.2027 1.0000
9.3495 -1.3260 -1.2027 1.0000
9.3535 -1.2979 -1.2027 1.0000
9.3753 -1.1298 -1.2027 1.0000
9.3786 -1.1017 -1.2027 1.0000
9.3818 -1.0736 -1.2027 1.0000
9.3940 -0.9613 -1.2027 1.0000
9.3969 -0.9332 -1.2027 1.0000
9.3997 -0.9050 -1.2027 1.0000
9.4023 -0.8769 -1.2027 1.0000
9.4049 -0.8487 -1.2027 1.0000
9.4121 -0.7643 -1.2027 1.0000
9.4186 -0.6797 -1.2027 1.0000
9.4206 -0.6516 -1.2027 1.0000
9.4243 -0.5952 -1.2027 1.0000
9.4277 -0.5388 -1.2027 1.0000
9.4308 -0.4823 -1.2027 1.0000
9.4347 -0.3976 -1.2027 1.0000
9.4369 -0.3411 -1.2027 1.0000
9.4379 -0.3129 -1.2027 1.0000
9.4388 -0.2846 -1.2027 1.0000
9.4403 -0.2281 -1.2027 1.0000
9.4415 -0.1716 -1.2027 1.0000
9.4420 -0.1434 -1.2027 1.0000
9.4427 -0.0868 -1.2027 1.0000
9.4430 -0.0303 -1.2027 1.0000
9.4427 0.0827 -1.2027 1.0000
9.4424 0.1110 -1.2027 1.0000
9.4421 0.1393 -1.2027 1.0000
9.4411 0.1957 -1.2027 1.0000
9.4404 0.2240 -1.2027 1.0000
9.4397 0.2523 -1.2027 1.0000
9.4380 0.3088 -1.2027 1.0000
9.4349 0.3935 -1.2027 1.0000
9.4324 0.4499 -1.2027 1.0000
9.4310 0.4782 -1.2027 1.0000
9.4295 0.5063 -1.2027 1.0000
9.4263 0.5627 -1.2027 1.0000
9.4246 0.5910 -1.2027 1.0000
9.4228 0.6192 -1.2027 1.0000
9.4189 0.6756 -1.2027 1.0000
9.4168 0.7038 -1.2027 1.0000
9.4147 0.7321 -1.2027 1.0000
9.4077 0.8164 -1.2027 1.0000
9.3944 0.9571 -1.2027 1.0000
8.3109 -0.3762 -1.2027 1.0000
8.3129 -0.3265 -1.2027 1.0000
8.3139 -0.3017 -1.2027 1.0000
8.3155 -0.2518 -1.2027 1.0000
8.3162 -0.2269 -1.2027 1.0000
8.3180 -0.1522 -1.2027 1.0000
8.3184 -0.1274 -1.2027 1.0000
8.3187 -0.1025 -1.2027 1.0000
8.3192 -0.0527 -1.2027 1.0000
8.3194 -0.0029 -1.2027 1.0000
8.3193 0.0220 -1.2027 1.0000
8.3188 0.0967 -1.2027 1.0000
8.3185 0.1216 -1.2027 1.0000
8.3176 0.1714 -1.2027 1.0000
8.3157 0.2459 -1.2027 1.0000
8.3132 0.3207 -1.2027 1.0000
8.3122 0.3455 -1.2027 1.0000
8.3100 0.3953 -1.2027 1.0000
8.2981 0.5941 -1.2027 1.0000
8.2944 0.6438 -1.2027 1.0000
8.2925 0.6686 -1.2027 1.0000
8.2883 0.7183 -1.2027 1.0000
8.2839 0.7678 -1.2027 1.0000
8.2815 0.7926 -1.2027 1.0000
8.2766 0.8421 -1.2027 1.0000
8.2687 0.9164 -1.2027 1.0000
8.2631 0.9659 -1.2027 1.0000
8.2572 1.0154 -1.2027 1.0000
8.2477 1.0895 -1.2027 1.0000
8.2444 1.1142 -1.2027 1.0000
8.2411 1.1388 -1.2027 1.0000
8.2341 1.1881 -1.2027 1.0000
8.2231 1.2620 -1.2027 1.0000
8.2154 1.3112 -1.2027 1.0000
8.2033 1.3849 -1.2027 1.0000
8.1948 1.4340 -1.2027 1.0000
8.1905 1.4586 -1.2027 1.0000
8.1817 1.5075 -1.2027 1.0000
8.1725 1.5564 -1.2027 1.0000
8.1678 1.5809 -1.2027 1.0000
8.1582 1.6298 -1.2027 1.0000
8.1533 1.6542 -1.2027 1.0000
8.1483 1.6785 -1.2027 1.0000
8.1432 1.7029 -1.2027 1.0000
8.1329 1.7516 -1.2027 1.0000
8.1276 1.7759 -1.2027 1.0000
8.1223 1.8003 -1.2027 1.0000
8.1168 1.8245 -1.2027 1.0000
8.1057 1.8731 -1.2027 1.0000
8.0886 1.9459 -1.2027 1.0000
8.0828 1.9700 -1.2027 1.0000
8.0586 2.0666 -1.2027 1.0000
8.0524 2.0907 -1.2027 1.0000
8.0397 2.1388 -1.2027 1.0000
8.0385 -2.1435 -1.2027 1.0000
8.0512 -2.0953 -1.2027 1.0000
8.0636 -2.0471 -1.2027 1.0000
8.0816 -1.9747 -1.2027 1.0000
8.0933 -1.9263 -1.2027 1.0000
8.1047 -1.8778 -1.2027 1.0000
8.1103 -1.8535 -1.2027 1.0000
8.1212 -1.8049 -1.2027 1.0000
8.1266 -1.7806 -1.2027 1.0000
8.1371 -1.7319 -1.2027 1.0000
8.1523 -1.6588 -1.2027 1.0000
8.1716 -1.5610 -1.2027 1.0000
8.1762 -1.5366 -1.2027 1.0000
8.1853 -1.4876 -1.2027 1.0000
8.1940 -1.4386 -1.2027 1.0000
8.1982 -1.4142 -1.2027 1.0000
8.2025 -1.3896 -1.2027 1.0000
8.2066 -1.3650 -1.2027 1.0000
8.2106 -1.3405 -1.2027 1.0000
8.2146 -1.3158 -1.2027 1.0000
8.2185 -1.2912 -1.2027 1.0000
8.2369 -1.1681 -1.2027 1.0000
8.2438 -1.1188 -1.2027 1.0000
8.2504 -1.0695 -1.2027 1.0000
8.2654 -0.9459 -1.2027 1.0000
8.2682 -0.9212 -1.2027 1.0000
8.2736 -0.8717 -1.2027 1.0000
8.2762 -0.8468 -1.2027 1.0000
8.2786 -0.8221 -1.2027 1.0000
8.2879 -0.7229 -1.2027 1.0000
8.2921 -0.6733 -1.2027 1.0000
8.2940 -0.6486 -1.2027 1.0000
8.2960 -0.6237 -1.2027 1.0000
8.3011 -0.5492 -1.2027 1.0000
8.3029 -0.5243 -1.2027 1.0000
8.3043 -0.4995 -1.2027 1.0000
8.3072 -0.4499 -1.2027 1.0000
8.3097 -0.4001 -1.2027 1.0000
8.3130 -0.3254 -1.2027 1.0000
8.3148 -0.2757 -1.2027 1.0000
8.3156 -0.2508 -1.2027 1.0000
8.3163 -0.2258 -1.2027 1.0000
8.3169 -0.2010 -1.2027 1.0000
8.3175 -0.1761 -1.2027 1.0000
8.3190 -0.0765 -1.2027 1.0000
8.3192 -0.0516 -1.2027 1.0000
8.3194 -0.0019 -1.2027 1.0000
8.3193 0.0230 -1.2027 1.0000
8.3192 0.0479 -1.2027 1.0000
8.3190 0.0729 -1.2027 1.0000
8.3188 0.0977 -1.2027 1.0000
8.3180 0.1475 -1.2027 1.0000
8.3157 0.2472 -1.2027 1.0000
8.3111 0.3715 -1.2027 1.0000
8.3060 0.4710 -1.2027 1.0000
8.3046 0.4958 -1.2027 1.0000
8.2998 0.5703 -1.2027 1.0000
8.2962 0.6200 -1.2027 1.0000
8.2943 0.6449 -1.2027 1.0000
8.2903 0.6945 -1.2027 1.0000
8.2882 0.7193 -1.2027 1.0000
8.2837 0.7689 -1.2027 1.0000
8.2814 0.7937 -1.2027 1.0000
8.2765 0.8432 -1.2027 1.0000
7.4259 -0.2694 -1.2027 1.0000
7.4295 -0.1360 -1.2027 1.0000
7.4302 -0.0916 -1.2027 1.0000
7.4307 -0.0248 -1.2027 1.0000
7.4308 0.0196 -1.2027 1.0000
7.4305 0.0642 -1.2027 1.0000
7.4303 0.0864 -1.2027 1.0000
7.4296 0.1308 -1.2027 1.0000
7.4281 0.1975 -1.2027 1.0000
7.4275 0.2197 -1.2027 1.0000
7.4268 0.2420 -1.2027 1.0000
7.4261 0.2643 -1.2027 1.0000
7.4234 0.3309 -1.2027 1.0000
7.4223 0.3531 -1.2027 1.0000
7.4213 0.3753 -1.2027 1.0000
7.4201 0.3975 -1.2027 1.0000
7.4189 0.4198 -1.2027 1.0000
7.4148 0.4863 -1.2027 1.0000
7.4118 0.5306 -1.2027 1.0000
7.4085 0.5750 -1.2027 1.0000
7.4067 0.5972 -1.2027 1.0000
7.4049 0.6193 -1.2027 1.0000
7.4030 0.6416 -1.2027 1.0000
7.3926 0.7523 -1.2027 1.0000
7.3903 0.7743 -1.2027 1.0000
7.3805 0.8627 -1.2027 1.0000
7.3779 0.8849 -1.2027 1.0000
7.3752 0.9069 -1.2027 1.0000
7.3725 0.9289 -1.2027 1.0000
7.3697 0.9510 -1.2027 1.0000
7.3638 0.9952 -1.2027 1.0000
7.3546 1.0612 -1.2027 1.0000
7.3481 1.1052 -1.2027 1.0000
7.3379 1.1711 -1.2027 1.0000
7.3344 1.1931 -1.2027 1.0000
7.3157 1.3027 -1.2027 1.0000
7.3117 1.3246 -1.2027 1.0000
7.3037 1.3684 -1.2027 1.0000
7.2996 1.3902 -1.2027 1.0000
7.2911 1.4338 -1.2027 1.0000
7.2868 1.4557 -1.2027 1.0000
7.2824 1.4775 -1.2027 1.0000
7.2780 1.4993 -1.2027 1.0000
7.2688 1.5428 -1.2027 1.0000
7.2595 1.5863 -1.2027 1.0000
7.2547 1.6080 -1.2027 1.0000
7.2450 1.6514 -1.2027 1.0000
7.2400 1.6730 -1.2027 1.0000
7.2298 1.7163 -1.2027 1.0000
7.2087 1.8027 -1.2027 1.0000
7.2033 1.8244 -1.2027 1.0000
7.1923 1.8674 -1.2027 1.0000
7.1810 1.9104 -1.2027 1.0000
7.1799 -1.9146 -1.2027 1.0000
7.1856 -1.8930 -1.2027 1.0000
7.2184 -1.7637 -1.2027 1.0000
7.2237 -1.7421 -1.2027 1.0000
7.2340 -1.6988 -1.2027 1.0000
7.2390 -1.6771 -1.2027 1.0000
7.2440 -1.6556 -1.2027 1.0000
7.2489 -1.6338 -1.2027 1.0000
7.2538 -1.6121 -1.2027 1.0000
7.2680 -1.5469 -1.2027 1.0000
7.2903 -1.4379 -1.2027 1.0000
7.2946 -1.4162 -1.2027 1.0000
7.3149 -1.3068 -1.2027 1.0000
7.3373 -1.1753 -1.2027 1.0000
7.3475 -1.1093 -1.2027 1.0000
7.3571 -1.0434 -1.2027 1.0000
7.3633 -0.9992 -1.2027 1.0000
7.3662 -0.9773 -1.2027 1.0000
7.3800 -0.8669 -1.2027 1.0000
7.3875 -0.8006 -1.2027 1.0000
7.3922 -0.7564 -1.2027 1.0000
7.3944 -0.7343 -1.2027 1.0000
7.3987 -0.6900 -1.2027 1.0000
7.4007 -0.6679 -1.2027 1.0000
7.4027 -0.6458 -1.2027 1.0000
7.4046 -0.6236 -1.2027 1.0000
7.4081 -0.5793 -1.2027 1.0000
7.4099 -0.5571 -1.2027 1.0000
7.4115 -0.5348 -1.2027 1.0000
7.4131 -0.5128 -1.2027 1.0000
7.4173 -0.4461 -1.2027 1.0000
7.4187 -0.4239 -1.2027 1.0000
7.4211 -0.3796 -1.2027 1.0000
7.4267 -0.2462 -1.2027 1.0000
7.4274 -0.2240 -1.2027 1.0000
7.4280 -0.2018 -1.2027 1.0000
7.4286 -0.1795 -1.2027 1.0000
7.4295 -0.1350 -1.2027 1.0000
7.4299 -0.1128 -1.2027 1.0000
7.4304 -0.0684 -1.2027 1.0000
7.4306 -0.0462 -1.2027 1.0000
7.4305 0.0650 -1.2027 1.0000
7.4302 0.0874 -1.2027 1.0000
7.4300 0.1096 -1.2027 1.0000
7.4296 0.1319 -1.2027 1.0000
7.4291 0.1541 -1.2027 1.0000
7.4287 0.1763 -1.2027 1.0000
7.4281 0.1985 -1.2027 1.0000
7.4275 0.2207 -1.2027 1.0000
7.4268 0.2430 -1.2027 1.0000
7.4260 0.2652 -1.2027 1.0000
7.4252 0.2873 -1.2027 1.0000
7.4212 0.3763 -1.2027 1.0000
7.4200 0.3984 -1.2027 1.0000
7.4176 0.4429 -1.2027 1.0000
7.4162 0.4651 -1.2027 1.0000
7.4133 0.5094 -1.2027 1.0000
7.4118 0.5316 -1.2027 1.0000
7.4101 0.5538 -1.2027 1.0000
7.4084 0.5760 -1.2027 1.0000
7.4048 0.6203 -1.2027 1.0000
7.4029 0.6425 -1.2027 1.0000
7.4010 0.6646 -1.2027 1.0000
7.3969 0.7088 -1.2027 1.0000
7.3947 0.7311 -1.2027 1.0000
7.3925 0.7531 -1.2027 1.0000
6.7023 -0.3235 -1.2027 1.0000
6.7033 -0.3034 -1.2027 1.0000
6.7041 -0.2834 -1.2027 1.0000
6.7064 -0.2232 -1.2027 1.0000
6.7076 -0.1831 -1.2027 1.0000
6.7090 -0.1228 -1.2027 1.0000
6.7098 -0.0627 -1.2027 1.0000
6.7100 -0.0425 -1.2027 1.0000
6.7101 -0.0023 -1.2027 1.0000
6.7101 0.0178 -1.2027 1.0000
6.7100 0.0378 -1.2027 1.0000
6.7099 0.0580 -1.2027 1.0000
6.7097 0.0780 -1.2027 1.0000
6.7094 0.0981 -1.2027 1.0000
6.7078 0.1785 -1.2027 1.0000
6.7059 0.2385 -1.2027 1.0000
6.7043 0.2787 -1.2027 1.0000
6.7035 0.2987 -1.2027 1.0000
6.6982 0.3990 -1.2027 1.0000
6.6970 0.4190 -1.2027 1.0000
6.6957 0.4392 -1.2027 1.0000
6.6944 0.4591 -1.2027 1.0000
6.6900 0.5192 -1.2027 1.0000
6.6833 0.5994 -1.2027 1.0000
6.6815 0.6193 -1.2027 1.0000
6.6796 0.6393 -1.2027 1.0000
6.6736 0.6993 -1.2027 1.0000
6.6671 0.7592 -1.2027 1.0000
6.6648 0.7790 -1.2027 1.0000
6.6624 0.7990 -1.2027 1.0000
6.6575 0.8389 -1.2027 1.0000
6.6550 0.8588 -1.2027 1.0000
6.6497 0.8986 -1.2027 1.0000
6.6470 0.9186 -1.2027 1.0000
6.6442 0.9383 -1.2027 1.0000
6.6384 0.9781 -1.2027 1.0000
6.6263 1.0576 -1.2027 1.0000
6.6231 1.0774 -1.2027 1.0000
6.6198 1.0972 -1.2027 1.0000
6.6165 1.1169 -1.2027 1.0000
6.6097 1.1565 -1.2027 1.0000
6.6027 1.1962 -1.2027 1.0000
6.5879 1.2750 -1.2027 1.0000
6.5762 1.3342 -1.2027 1.0000
6.5721 1.3538 -1.2027 1.0000
6.5680 1.3735 -1.2027 1.0000
6.5639 1.3932 -1.2027 1.0000
6.5597 1.4128 -1.2027 1.0000
6.5554 1.4324 -1.2027 1.0000
6.5511 1.4521 -1.2027 1.0000
6.5467 1.4718 -1.2027 1.0000
6.5287 1.5499 -1.2027 1.0000
6.5193 1.5889 -1.2027 1.0000
6.5097 1.6279 -1.2027 1.0000
6.4897 1.7058 -1.2027 1.0000
6.4845 1.7251 -1.2027 1.0000
6.4988 -1.6706 -1.2027 1.0000
6.5038 -1.6511 -1.2027 1.0000
6.5087 -1.6318 -1.2027 1.0000
6.5136 -1.6122 -1.2027 1.0000
6.5183 -1.5927 -1.2027 1.0000
6.5278 -1.5536 -1.2027 1.0000
6.5369 -1.5145 -1.2027 1.0000
6.5459 -1.4753 -1.2027 1.0000
6.5503 -1.4558 -1.2027 1.0000
6.5589 -1.4166 -1.2027 1.0000
6.5631 -1.3969 -1.2027 1.0000
6.5672 -1.3773 -1.2027 1.0000
6.5754 -1.3379 -1.2027 1.0000
6.5793 -1.3183 -1.2027 1.0000
6.5947 -1.2393 -1.2027 1.0000
6.5983 -1.2196 -1.2027 1.0000
6.6159 -1.1208 -1.2027 1.0000
6.6192 -1.1009 -1.2027 1.0000
6.6224 -1.0812 -1.2027 1.0000
6.6288 -1.0416 -1.2027 1.0000
6.6319 -1.0217 -1.2027 1.0000
6.6349 -1.0018 -1.2027 1.0000
6.6408 -0.9620 -1.2027 1.0000
6.6436 -0.9421 -1.2027 1.0000
6.6464 -0.9224 -1.2027 1.0000
6.6595 -0.8228 -1.2027 1.0000
6.6643 -0.7830 -1.2027 1.0000
6.6689 -0.7430 -1.2027 1.0000
6.6732 -0.7030 -1.2027 1.0000
6.6773 -0.6631 -1.2027 1.0000
6.6830 -0.6031 -1.2027 1.0000
6.6881 -0.5431 -1.2027 1.0000
6.6912 -0.5030 -1.2027 1.0000
6.6927 -0.4831 -1.2027 1.0000
6.6980 -0.4029 -1.2027 1.0000
6.7023 -0.3227 -1.2027 1.0000
6.7042 -0.2825 -1.2027 1.0000
6.7050 -0.2624 -1.2027 1.0000
6.7057 -0.2424 -1.2027 1.0000
6.7064 -0.2224 -1.2027 1.0000
6.7076 -0.1822 -1.2027 1.0000
6.7082 -0.1621 -1.2027 1.0000
6.7096 -0.0818 -1.2027 1.0000
6.7100 -0.0416 -1.2027 1.0000
6.7101 -0.0216 -1.2027 1.0000
6.7101 -0.0014 -1.2027 1.0000
6.7099 0.0587 -1.2027 1.0000
6.7096 0.0789 -1.2027 1.0000
6.7094 0.0990 -1.2027 1.0000
6.7091 0.1190 -1.2027 1.0000
6.7077 0.1791 -1.2027 1.0000
6.7065 0.2194 -1.2027 1.0000
6.7025 0.3196 -1.2027 1.0000
6.7015 0.3397 -1.2027 1.0000
6.7005 0.3598 -1.2027 1.0000
6.6994 0.3799 -1.2027 1.0000
6.6929 0.4801 -1.2027 1.0000
6.6914 0.5001 -1.2027 1.0000
6.6899 0.5202 -1.2027 1.0000
6.6867 0.5601 -1.2027 1.0000
6.6850 0.5802 -1.2027 1.0000
6.6832 0.6002 -1.2027 1.0000
6.6776 0.6601 -1.2027 1.0000
6.6756 0.6800 -1.2027 1.0000
6.1074 -0.2764 -1.2027 1.0000
6.1089 -0.2399 -1.2027 1.0000
6.1096 -0.2217 -1.2027 1.0000
6.1126 -0.1119 -1.2027 1.0000
6.1129 -0.0936 -1.2027 1.0000
6.1132 -0.0753 -1.2027 1.0000
6.1134 -0.0570 -1.2027 1.0000
6.1136 -0.0205 -1.2027 1.0000
6.1136 0.0162 -1.2027 1.0000
6.1135 0.0346 -1.2027 1.0000
6.1134 0.0529 -1.2027 1.0000
6.1132 0.0710 -1.2027 1.0000
6.1127 0.1077 -1.2027 1.0000
6.1120 0.1443 -1.2027 1.0000
6.1115 0.1626 -1.2027 1.0000
6.1104 0.1991 -1.2027 1.0000
6.1098 0.2174 -1.2027 1.0000
6.1091 0.2357 -1.2027 1.0000
6.1084 0.2540 -1.2027 1.0000
6.1039 0.3454 -1.2027 1.0000
6.1028 0.3636 -1.2027 1.0000
6.0980 0.4366 -1.2027 1.0000
6.0939 0.4914 -1.2027 1.0000
6.0923 0.5096 -1.2027 1.0000
6.0875 0.5642 -1.2027 1.0000
6.0840 0.6006 -1.2027 1.0000
6.0744 0.6916 -1.2027 1.0000
6.0634 0.7825 -1.2027 1.0000
6.0610 0.8006 -1.2027 1.0000
6.0585 0.8187 -1.2027 1.0000
6.0509 0.8731 -1.2027 1.0000
6.0484 0.8913 -1.2027 1.0000
6.0456 0.9093 -1.2027 1.0000
6.0343 0.9816 -1.2027 1.0000
6.0252 1.0358 -1.2027 1.0000
6.0221 1.0538 -1.2027 1.0000
6.0189 1.0718 -1.2027 1.0000
6.0157 1.0898 -1.2027 1.0000
6.0091 1.1257 -1.2027 1.0000
5.9916 1.2155 -1.2027 1.0000
5.9842 1.2514 -1.2027 1.0000
5.9804 1.2694 -1.2027 1.0000
5.9766 1.2872 -1.2027 1.0000
5.9648 1.3409 -1.2027 1.0000
5.9567 1.3766 -1.2027 1.0000
5.9525 1.3943 -1.2027 1.0000
5.9397 1.4477 -1.2027 1.0000
5.9354 1.4654 -1.2027 1.0000
5.9128 1.5541 -1.2027 1.0000
5.9072 -1.5752 -1.2027 1.0000
5.9166 -1.5398 -1.2027 1.0000
5.9211 -1.5220 -1.2027 1.0000
5.9256 -1.5044 -1.2027 1.0000
5.9301 -1.4867 -1.2027 1.0000
5.9346 -1.4690 -1.2027 1.0000
5.9475 -1.4155 -1.2027 1.0000
5.9517 -1.3977 -1.2027 1.0000
5.9559 -1.3798 -1.2027 1.0000
5.9600 -1.3620 -1.2027 1.0000
5.9640 -1.3442 -1.2027 1.0000
5.9680 -1.3263 -1.2027 1.0000
5.9758 -1.2907 -1.2027 1.0000
5.9797 -1.2728 -1.2027 1.0000
5.9872 -1.2370 -1.2027 1.0000
5.9980 -1.1831 -1.2027 1.0000
6.0051 -1.1471 -1.2027 1.0000
6.0118 -1.1112 -1.2027 1.0000
6.0151 -1.0931 -1.2027 1.0000
6.0215 -1.0572 -1.2027 1.0000
6.0278 -1.0211 -1.2027 1.0000
6.0308 -1.0030 -1.2027 1.0000
6.0338 -0.9851 -1.2027 1.0000
6.0367 -0.9671 -1.2027 1.0000
6.0423 -0.9308 -1.2027 1.0000
6.0451 -0.9128 -1.2027 1.0000
6.0478 -0.8946 -1.2027 1.0000
6.0504 -0.8766 -1.2027 1.0000
6.0531 -0.8584 -1.2027 1.0000
6.0556 -0.8403 -1.2027 1.0000
6.0581 -0.8221 -1.2027 1.0000
6.0605 -0.8041 -1.2027 1.0000
6.0629 -0.7860 -1.2027 1.0000
6.0652 -0.7677 -1.2027 1.0000
6.0675 -0.7496 -1.2027 1.0000
6.0697 -0.7314 -1.2027 1.0000
6.0740 -0.6951 -1.2027 1.0000
6.0760 -0.6770 -1.2027 1.0000
6.0872 -0.5677 -1.2027 1.0000
6.0905 -0.5313 -1.2027 1.0000
6.0950 -0.4766 -1.2027 1.0000
6.0977 -0.4401 -1.2027 1.0000
6.0990 -0.4217 -1.2027 1.0000
6.1003 -0.4036 -1.2027 1.0000
6.1015 -0.3853 -1.2027 1.0000
6.1026 -0.3671 -1.2027 1.0000
6.1047 -0.3306 -1.2027 1.0000
6.1057 -0.3122 -1.2027 1.0000
6.1065 -0.2940 -1.2027 1.0000
6.1102 -0.2026 -1.2027 1.0000
6.1108 -0.1843 -1.2027 1.0000
6.1114 -0.1660 -1.2027 1.0000
6.1118 -0.1478 -1.2027 1.0000
6.1123 -0.1295 -1.2027 1.0000
6.1126 -0.1112 -1.2027 1.0000
6.1129 -0.0928 -1.2027 1.0000
6.1132 -0.0745 -1.2027 1.0000
6.1136 -0.0013 -1.2027 1.0000
6.1123 0.1267 -1.2027 1.0000
6.1115 0.1633 -1.2027 1.0000
6.1110 0.1816 -1.2027 1.0000
6.1103 0.1999 -1.2027 1.0000
6.1083 0.2547 -1.2027 1.0000
6.1075 0.2731 -1.2027 1.0000
6.1067 0.2913 -1.2027 1.0000
6.1058 0.3095 -1.2027 1.0000
6.0966 0.4557 -1.2027 1.0000
6.0938 0.4921 -1.2027 1.0000
6.0875 0.5650 -1.2027 1.0000
5.6065 -0.2369 -1.2027 1.0000
5.6094 -0.1530 -1.2027 1.0000
5.6098 -0.1363 -1.2027 1.0000
5.6102 -0.1195 -1.2027 1.0000
5.6105 -0.1028 -1.2027 1.0000
5.6108 -0.0858 -1.2027 1.0000
5.6113 -0.0355 -1.2027 1.0000
5.6114 0.0315 -1.2027 1.0000
5.6111 0.0652 -1.2027 1.0000
5.6106 0.0988 -1.2027 1.0000
5.6099 0.1323 -1.2027 1.0000
5.6095 0.1491 -1.2027 1.0000
5.6085 0.1827 -1.2027 1.0000
5.6066 0.2331 -1.2027 1.0000
5.6051 0.2667 -1.2027 1.0000
5.6034 0.3002 -1.2027 1.0000
5.6005 0.3505 -1.2027 1.0000
5.5995 0.3673 -1.2027 1.0000
5.5983 0.3840 -1.2027 1.0000
5.5971 0.4007 -1.2027 1.0000
5.5959 0.4175 -1.2027 1.0000
5.5946 0.4343 -1.2027 1.0000
5.5934 0.4511 -1.2027 1.0000
5.5919 0.4677 -1.2027 1.0000
5.5905 0.4845 -1.2027 1.0000
5.5890 0.5011 -1.2027 1.0000
5.5875 0.5180 -1.2027 1.0000
5.5843 0.5514 -1.2027 1.0000
5.5826 0.5680 -1.2027 1.0000
5.5791 0.6015 -1.2027 1.0000
5.5696 0.6849 -1.2027 1.0000
5.5654 0.7182 -1.2027 1.0000
5.5563 0.7848 -1.2027 1.0000
5.5539 0.8014 -1.2027 1.0000
5.5515 0.8179 -1.2027 1.0000
5.5490 0.8346 -1.2027 1.0000
5.5359 0.9176 -1.2027 1.0000
5.5331 0.9341 -1.2027 1.0000
