ply
format ascii 1.0
element vertex 1585
property float32 x
property float32 y
property float32 z
property float32 I
end_header
50.0938 8.2754 6.4664 1.0000
50.0938 8.5841 6.4729 1.0000
50.0938 8.7387 6.4762 1.0000
50.0938 8.8935 6.4797 1.0000
50.0938 9.0484 6.4831 1.0000
50.0938 9.3587 6.4903 1.0000
50.0938 9.6698 6.4977 1.0000
50.0938 9.8256 6.5015 1.0000
50.0938 9.9816 6.5053 1.0000
50.0938 10.1377 6.5092 1.0000
50.0938 10.2941 6.5132 1.0000
50.0938 10.6074 6.5214 1.0000
50.0938 10.9214 6.5298 1.0000
50.0938 11.0788 6.5341 1.0000
50.0938 11.5521 6.5473 1.0000
50.0938 11.7103 6.5519 1.0000
50.0938 11.8688 6.5565 1.0000
50.0938 12.0274 6.5612 1.0000
50.0938 12.1863 6.5660 1.0000
50.0938 12.8241 6.5856 1.0000
50.0938 12.9842 6.5907 1.0000
50.0938 13.1445 6.5959 1.0000
50.0938 -13.3793 6.6035 1.0000
50.0938 -13.0581 6.5931 1.0000
50.0938 -12.8980 6.5880 1.0000
50.0938 -12.2597 6.5682 1.0000
50.0938 -11.9420 6.5587 1.0000
50.0938 -11.7834 6.5540 1.0000
50.0938 -11.6251 6.5494 1.0000
50.0938 -11.4670 6.5449 1.0000
50.0938 -11.1514 6.5361 1.0000
50.0938 -10.3663 6.5151 1.0000
50.0938 -10.2098 6.5111 1.0000
50.0938 -9.4304 6.4920 1.0000
50.0938 -9.2751 6.4883 1.0000
50.0938 -9.1199 6.4848 1.0000
50.0938 -8.8101 6.4778 1.0000
50.0938 -8.3466 6.4679 1.0000
50.0938 -8.1923 6.4647 1.0000
50.0938 -7.8844 6.4584 1.0000
50.0937 -7.2702 6.4467 1.0000
50.0937 -7.1170 6.4440 1.0000
50.0938 -6.9639 6.4412 1.0000
50.0938 -6.8110 6.4386 1.0000
50.0937 -6.3529 6.4310 1.0000
50.0938 -5.5916 6.4195 1.0000
50.0938 -5.4397 6.4174 1.0000
50.0937 -4.6814 6.4077 1.0000
50.0937 -4.5300 6.4059 1.0000
50.0938 -4.3788 6.4042 1.0000
50.0937 -4.0764 6.4010 1.0000
50.0937 -3.6234 6.3966 1.0000
50.0938 -3.4725 6.3952 1.0000
50.0937 -2.8697 6.3904 1.0000
50.0938 -2.7191 6.3893 1.0000
50.0938 -2.5686 6.3883 1.0000
50.0938 -13.4226 5.7166 1.0000
50.0938 -13.2618 5.7121 1.0000
50.0938 -13.1013 5.7076 1.0000
50.0938 -11.9846 5.6777 1.0000
50.0938 -11.8260 5.6736 1.0000
50.0938 -11.6677 5.6697 1.0000
50.0938 -11.3516 5.6618 1.0000
50.0938 -11.1939 5.6580 1.0000
50.0938 -11.0364 5.6543 1.0000
50.0938 -10.8791 5.6506 1.0000
50.0938 -10.7220 5.6469 1.0000
50.0938 -10.5651 5.6433 1.0000
50.0938 -10.4084 5.6398 1.0000
50.0938 -10.2520 5.6363 1.0000
50.0938 -9.9395 5.6295 1.0000
50.0938 -9.7836 5.6262 1.0000
50.0938 -9.4723 5.6197 1.0000
50.0938 -9.1616 5.6134 1.0000
50.0938 -9.0066 5.6104 1.0000
50.0938 -8.8517 5.6074 1.0000
50.0938 -8.6970 5.6044 1.0000
50.0938 -8.5424 5.6016 1.0000
50.0938 -8.2338 5.5959 1.0000
50.0938 -7.7720 5.5879 1.0000
50.0938 -7.6183 5.5853 1.0000
50.0937 -7.1582 5.5779 1.0000
50.0938 -7.0051 5.5756 1.0000
50.0937 -6.8521 5.5733 1.0000
50.0937 -6.5465 5.5688 1.0000
50.0938 -6.3939 5.5666 1.0000
50.0938 -6.0890 5.5625 1.0000
50.0938 -5.9368 5.5605 1.0000
50.0937 -5.7846 5.5585 1.0000
50.0938 -5.6325 5.5566 1.0000
50.0937 -5.0253 5.5496 1.0000
50.0937 -4.8737 5.5479 1.0000
50.0938 -4.7222 5.5463 1.0000
50.0937 -4.5708 5.5448 1.0000
50.0938 -4.2682 5.5419 1.0000
50.0938 -4.1171 5.5405 1.0000
50.0938 -3.6640 5.5366 1.0000
50.0937 -3.5131 5.5354 1.0000
50.0938 -3.3623 5.5343 1.0000
50.0938 -3.2116 5.5332 1.0000
50.0938 -3.0609 5.5321 1.0000
50.0938 -2.9102 5.5312 1.0000
50.0938 -2.7596 5.5302 1.0000
50.0937 -2.4586 5.5285 1.0000
50.0938 -2.3081 5.5277 1.0000
50.0938 -2.1577 5.5270 1.0000
50.0938 -2.0073 5.5263 1.0000
50.0938 -1.8570 5.5256 1.0000
50.0938 -1.7067 5.5250 1.0000
50.0938 -1.5564 5.5245 1.0000
50.0938 -1.2560 5.5236 1.0000
50.0938 -1.1057 5.5232 1.0000
50.0938 -0.9556 5.5228 1.0000
50.0938 -0.8054 5.5226 1.0000
50.0938 -0.5052 5.5221 1.0000
50.0938 -0.3550 5.5220 1.0000
50.0938 0.0953 5.5219 1.0000
50.0938 0.2454 5.5219 1.0000
50.0938 0.3955 5.5220 1.0000
50.0938 0.5457 5.5222 1.0000
50.0938 0.6958 5.5224 1.0000
50.0938 0.9961 5.5229 1.0000
50.0938 1.1463 5.5233 1.0000
50.0938 1.2965 5.5237 1.0000
50.0938 1.4467 5.5241 1.0000
50.0938 1.5970 5.5246 1.0000
50.0938 1.7472 5.5252 1.0000
50.0938 2.1982 5.5272 1.0000
50.0938 2.3487 5.5279 1.0000
50.0938 2.4991 5.5287 1.0000
50.0938 2.9508 5.5314 1.0000
50.0938 3.1015 5.5324 1.0000
50.0938 3.2522 5.5335 1.0000
50.0938 3.5538 5.5357 1.0000
50.0938 3.7047 5.5369 1.0000
50.0938 3.8557 5.5382 1.0000
50.0938 4.1578 5.5408 1.0000
50.0938 4.6116 5.5452 1.0000
50.0938 5.0661 5.5500 1.0000
50.0938 5.2179 5.5517 1.0000
50.0938 5.6735 5.5571 1.0000
50.0938 5.8256 5.5591 1.0000
50.0938 6.2825 5.5651 1.0000
50.0938 6.5876 5.5694 1.0000
50.0938 6.7404 5.5716 1.0000
50.0938 6.8933 5.5739 1.0000
50.0938 7.3528 5.5810 1.0000
50.0938 7.5062 5.5835 1.0000
50.0938 7.9673 5.5912 1.0000
50.0938 8.2754 5.5967 1.0000
50.0938 8.4296 5.5995 1.0000
50.0938 8.5841 5.6023 1.0000
50.0938 8.8935 5.6082 1.0000
50.0938 9.0484 5.6112 1.0000
50.0938 9.3587 5.6174 1.0000
50.0938 9.5142 5.6206 1.0000
50.0938 9.8256 5.6271 1.0000
50.0938 9.9816 5.6304 1.0000
50.0938 10.1377 5.6338 1.0000
50.0938 10.2941 5.6372 1.0000
50.0938 10.6074 5.6443 1.0000
50.0938 10.7643 5.6479 1.0000
50.0938 10.9214 5.6516 1.0000
50.0938 11.2364 5.6590 1.0000
50.0938 11.3941 5.6629 1.0000
50.0938 11.5521 5.6668 1.0000
50.0938 12.5047 5.6913 1.0000
50.0938 12.6643 5.6956 1.0000
50.0938 12.8241 5.6999 1.0000
50.0938 13.1445 5.7088 1.0000
50.0938 13.3051 5.7133 1.0000
50.0938 -13.3793 5.7154 1.0000
50.0938 -13.0581 5.7064 1.0000
50.0938 -12.8980 5.7019 1.0000
50.0938 -12.5784 5.6933 1.0000
50.0938 -11.9420 5.6766 1.0000
50.0938 -11.6251 5.6686 1.0000
50.0938 -11.4670 5.6647 1.0000
50.0938 -11.3091 5.6608 1.0000
50.0938 -10.3663 5.6388 1.0000
50.0938 -10.2098 5.6354 1.0000
50.0938 -10.0536 5.6320 1.0000
50.0938 -9.8975 5.6286 1.0000
50.0938 -8.9649 5.6096 1.0000
50.0938 -8.5009 5.6008 1.0000
50.0938 -8.0383 5.5925 1.0000
50.0938 -7.7306 5.5872 1.0000
50.0938 -7.5770 5.5847 1.0000
50.0937 -7.4236 5.5821 1.0000
50.0937 -7.1170 5.5773 1.0000
50.0938 -6.6582 5.5704 1.0000
50.0937 -6.5054 5.5682 1.0000
50.0937 -6.3529 5.5661 1.0000
50.0938 -6.0480 5.5619 1.0000
50.0938 -5.8958 5.5600 1.0000
50.0937 -5.7436 5.5580 1.0000
50.0937 -5.2879 5.5525 1.0000
50.0938 -4.9845 5.5491 1.0000
50.0937 -4.6814 5.5459 1.0000
50.0938 -4.5301 5.5444 1.0000
50.0938 -4.3788 5.5429 1.0000
50.0938 -4.2276 5.5415 1.0000
50.0938 -3.9254 5.5388 1.0000
50.0938 -3.6234 5.5363 1.0000
50.0938 -3.4725 5.5351 1.0000
50.0938 -3.1710 5.5329 1.0000
50.0938 -3.0204 5.5319 1.0000
50.0937 -2.8697 5.5309 1.0000
50.0938 -13.2618 4.8277 1.0000
50.0938 -12.9410 4.8202 1.0000
50.0938 -12.6213 4.8128 1.0000
50.0938 -12.3025 4.8057 1.0000
50.0938 -12.1434 4.8021 1.0000
50.0938 -11.8260 4.7953 1.0000
50.0938 -11.6677 4.7919 1.0000
50.0938 -11.3516 4.7853 1.0000
50.0938 -10.8791 4.7758 1.0000
50.0938 -10.5651 4.7696 1.0000
50.0938 -10.2519 4.7637 1.0000
50.0938 -10.0956 4.7608 1.0000
50.0938 -9.9395 4.7580 1.0000
50.0938 -9.6278 4.7524 1.0000
50.0938 -9.4723 4.7497 1.0000
50.0938 -9.3169 4.7470 1.0000
50.0938 -8.8517 4.7393 1.0000
50.0938 -8.6970 4.7368 1.0000
50.0938 -8.2337 4.7296 1.0000
50.0938 -8.0797 4.7273 1.0000
50.0938 -7.9258 4.7250 1.0000
50.0938 -7.7720 4.7228 1.0000
50.0938 -7.6183 4.7206 1.0000
50.0937 -7.3114 4.7164 1.0000
50.0937 -7.1582 4.7144 1.0000
50.0938 -7.0051 4.7124 1.0000
50.0937 -6.3939 4.7048 1.0000
50.0938 -5.9368 4.6996 1.0000
50.0938 -5.3287 4.6933 1.0000
50.0937 -4.4195 4.6851 1.0000
50.0938 -4.1171 4.6827 1.0000
50.0937 -3.9660 4.6816 1.0000
50.0937 -3.6640 4.6794 1.0000
50.0937 -3.5132 4.6784 1.0000
50.0938 -3.3623 4.6775 1.0000
50.0938 -3.0609 4.6757 1.0000
50.0938 -2.9102 4.6748 1.0000
50.0938 -2.6091 4.6733 1.0000
50.0938 -2.4586 4.6726 1.0000
50.0938 -2.0073 4.6707 1.0000
50.0938 -1.8570 4.6702 1.0000
50.0938 -1.7067 4.6697 1.0000
50.0938 -1.5564 4.6692 1.0000
50.0938 -1.4062 4.6688 1.0000
50.0938 -0.9556 4.6678 1.0000
50.0938 -0.6553 4.6674 1.0000
50.0938 -0.3550 4.6671 1.0000
50.0938 0.0953 4.6670 1.0000
50.0938 0.3955 4.6671 1.0000
50.0938 0.8459 4.6676 1.0000
50.0938 0.9961 4.6679 1.0000
50.0938 1.1463 4.6682 1.0000
50.0938 1.2964 4.6685 1.0000
50.0938 1.4467 4.6689 1.0000
50.0938 1.7472 4.6698 1.0000
50.0938 1.8975 4.6703 1.0000
50.0938 2.0479 4.6709 1.0000
50.0938 2.1982 4.6715 1.0000
50.0938 2.3487 4.6721 1.0000
50.0938 2.6496 4.6735 1.0000
50.0938 2.8002 4.6743 1.0000
50.0938 3.1015 4.6759 1.0000
50.0938 3.2522 4.6768 1.0000
50.0938 3.4029 4.6777 1.0000
50.0938 3.5538 4.6787 1.0000
50.0938 3.7047 4.6797 1.0000
50.0938 3.8557 4.6808 1.0000
50.0938 4.3090 4.6842 1.0000
50.0938 4.6116 4.6867 1.0000
50.0938 4.7630 4.6880 1.0000
50.0938 4.9145 4.6894 1.0000
50.0938 5.0661 4.6908 1.0000
50.0938 5.5215 4.6952 1.0000
50.0938 5.8256 4.6984 1.0000
50.0938 6.4350 4.7053 1.0000
50.0938 6.7404 4.7090 1.0000
50.0938 6.8933 4.7109 1.0000
50.0938 7.0464 4.7129 1.0000
50.0938 7.3528 4.7170 1.0000
50.0938 7.5062 4.7191 1.0000
50.0938 7.6597 4.7212 1.0000
50.0938 7.9673 4.7256 1.0000
50.0938 8.1213 4.7279 1.0000
50.0938 8.7387 4.7374 1.0000
50.0938 8.8935 4.7399 1.0000
50.0938 9.0484 4.7425 1.0000
50.0938 9.2035 4.7451 1.0000
50.0938 9.6698 4.7531 1.0000
50.0938 9.9816 4.7587 1.0000
50.0938 10.6074 4.7704 1.0000
50.0938 10.7643 4.7735 1.0000
50.0938 10.9214 4.7766 1.0000
50.0938 11.2364 4.7829 1.0000
50.0938 11.3941 4.7862 1.0000
50.0938 11.5521 4.7895 1.0000
50.0938 11.7104 4.7928 1.0000
50.0938 12.1863 4.8031 1.0000
50.0938 12.8241 4.8175 1.0000
50.0938 12.9842 4.8212 1.0000
50.0938 13.1445 4.8250 1.0000
50.0938 -13.3793 4.8306 1.0000
50.0938 -13.2186 4.8267 1.0000
50.0938 -12.5784 4.8118 1.0000
50.0938 -11.9419 4.7978 1.0000
50.0938 -11.6251 4.7910 1.0000
50.0938 -11.4670 4.7877 1.0000
50.0938 -11.3091 4.7844 1.0000
50.0938 -11.1514 4.7812 1.0000
50.0938 -10.8368 4.7749 1.0000
50.0938 -10.5229 4.7688 1.0000
50.0938 -10.2098 4.7629 1.0000
50.0938 -10.0536 4.7600 1.0000
50.0938 -9.8975 4.7572 1.0000
50.0938 -9.5859 4.7517 1.0000
50.0938 -9.2751 4.7463 1.0000
50.0938 -9.1199 4.7437 1.0000
50.0938 -8.9649 4.7411 1.0000
50.0938 -8.8101 4.7386 1.0000
50.0938 -8.5009 4.7337 1.0000
50.0938 -8.0383 4.7267 1.0000
50.0938 -7.8844 4.7244 1.0000
50.0938 -7.7306 4.7222 1.0000
50.0938 -7.5770 4.7201 1.0000
50.0937 -7.2702 4.7159 1.0000
50.0938 -6.9639 4.7118 1.0000
50.0938 -6.8110 4.7099 1.0000
50.0938 -6.6582 4.7080 1.0000
50.0938 -6.2004 4.7026 1.0000
50.0938 -6.0480 4.7009 1.0000
50.0938 -5.8958 4.6992 1.0000
50.0938 -5.5916 4.6960 1.0000
50.0938 -5.4397 4.6944 1.0000
50.0938 -5.2879 4.6929 1.0000
50.0938 -4.9845 4.6900 1.0000
50.0938 -4.8329 4.6886 1.0000
50.0938 -4.2275 4.6836 1.0000
50.0937 -4.0764 4.6824 1.0000
50.0938 -3.9254 4.6813 1.0000
50.0938 -3.7744 4.6802 1.0000
50.0937 -3.3218 4.6772 1.0000
50.0938 -3.1710 4.6763 1.0000
50.0937 -2.8697 4.6746 1.0000
50.0937 -2.7191 4.6738 1.0000
50.0938 -13.2618 3.9462 1.0000
50.0938 -13.1013 3.9431 1.0000
50.0938 -12.7810 3.9370 1.0000
50.0938 -12.4618 3.9311 1.0000
50.0938 -11.9846 3.9225 1.0000
50.0938 -11.5095 3.9142 1.0000
50.0938 -11.3516 3.9115 1.0000
50.0938 -11.1939 3.9089 1.0000
50.0938 -10.4084 3.8963 1.0000
50.0938 -10.0956 3.8915 1.0000
50.0938 -9.9395 3.8892 1.0000
50.0938 -8.8517 3.8739 1.0000
50.0938 -8.6970 3.8719 1.0000
50.0938 -8.5424 3.8699 1.0000
50.0938 -8.3880 3.8679 1.0000
50.0938 -8.0797 3.8641 1.0000
50.0938 -7.7720 3.8604 1.0000
50.0938 -7.6183 3.8587 1.0000
50.0937 -7.4648 3.8569 1.0000
50.0938 -7.3114 3.8552 1.0000
50.0938 -7.0051 3.8519 1.0000
50.0937 -6.0890 3.8429 1.0000
50.0938 -5.9368 3.8415 1.0000
50.0938 -5.6325 3.8388 1.0000
50.0938 -5.3287 3.8363 1.0000
50.0937 -4.8737 3.8328 1.0000
50.0938 -4.5708 3.8306 1.0000
50.0938 -4.1171 3.8277 1.0000
50.0937 -3.9660 3.8267 1.0000
50.0938 -3.8150 3.8258 1.0000
50.0937 -3.3623 3.8234 1.0000
50.0938 -3.2116 3.8226 1.0000
50.0938 -3.0609 3.8219 1.0000
50.0938 -2.9102 3.8212 1.0000
50.0938 -2.1577 3.8183 1.0000
50.0938 -1.7067 3.8170 1.0000
50.0938 -1.5564 3.8166 1.0000
50.0938 -1.2560 3.8160 1.0000
50.0938 -1.1058 3.8157 1.0000
50.0938 -0.8054 3.8153 1.0000
50.0938 -0.5052 3.8150 1.0000
50.0938 -0.3550 3.8149 1.0000
50.0938 0.0953 3.8148 1.0000
50.0938 0.3955 3.8149 1.0000
50.0938 0.5457 3.8150 1.0000
50.0938 1.1463 3.8158 1.0000
50.0938 1.7472 3.8171 1.0000
50.0938 2.0479 3.8180 1.0000
50.0938 2.3487 3.8190 1.0000
50.0938 2.4991 3.8195 1.0000
50.0938 2.8002 3.8207 1.0000
50.0938 2.9508 3.8214 1.0000
50.0938 3.1015 3.8221 1.0000
50.0938 3.4029 3.8236 1.0000
50.0938 3.5538 3.8244 1.0000
50.0938 3.8557 3.8261 1.0000
50.0938 4.4603 3.8299 1.0000
50.0938 4.6116 3.8309 1.0000
50.0938 5.2178 3.8354 1.0000
50.0938 5.5215 3.8379 1.0000
50.0938 5.9778 3.8419 1.0000
50.0938 6.2825 3.8447 1.0000
50.0938 6.8933 3.8507 1.0000
50.0938 7.5062 3.8574 1.0000
50.0938 7.8134 3.8609 1.0000
50.0938 7.9673 3.8627 1.0000
50.0938 8.2754 3.8665 1.0000
50.0938 8.4296 3.8684 1.0000
50.0938 8.5841 3.8704 1.0000
50.0938 8.7387 3.8724 1.0000
50.0938 9.0484 3.8765 1.0000
50.0938 9.6698 3.8852 1.0000
50.0938 9.9816 3.8898 1.0000
50.0938 10.1377 3.8921 1.0000
50.0938 10.6074 3.8994 1.0000
50.0938 10.7643 3.9019 1.0000
50.0938 11.5521 3.9149 1.0000
50.0938 11.7103 3.9176 1.0000
50.0938 12.0274 3.9232 1.0000
50.0938 12.1863 3.9260 1.0000
50.0938 12.5047 3.9319 1.0000
50.0938 12.9842 3.9409 1.0000
50.0938 13.3051 3.9471 1.0000
50.0938 -13.0581 3.9423 1.0000
50.0938 -12.8980 3.9392 1.0000
50.0938 -12.5784 3.9332 1.0000
50.0938 -12.4189 3.9303 1.0000
50.0938 -12.2597 3.9274 1.0000
50.0938 -11.9420 3.9217 1.0000
50.0938 -11.6251 3.9162 1.0000
50.0938 -11.4670 3.9135 1.0000
50.0938 -10.8368 3.9030 1.0000
50.0938 -10.6798 3.9005 1.0000
50.0938 -10.5229 3.8981 1.0000
50.0938 -10.3663 3.8956 1.0000
50.0938 -10.0536 3.8909 1.0000
50.0938 -9.8975 3.8885 1.0000
50.0938 -9.4304 3.8818 1.0000
50.0938 -8.5009 3.8693 1.0000
50.0938 -8.3465 3.8674 1.0000
50.0938 -8.1923 3.8655 1.0000
50.0938 -7.8844 3.8618 1.0000
50.0938 -7.7306 3.8600 1.0000
50.0937 -7.4236 3.8565 1.0000
50.0938 -6.8110 3.8499 1.0000
50.0938 -6.2004 3.8439 1.0000
50.0938 -6.0480 3.8425 1.0000
50.0938 -5.8958 3.8411 1.0000
50.0938 -5.4397 3.8372 1.0000
50.0938 -5.2879 3.8360 1.0000
50.0937 -4.9845 3.8336 1.0000
50.0938 -4.5301 3.8304 1.0000
50.0938 -4.3788 3.8293 1.0000
50.0938 -4.2275 3.8284 1.0000
50.0938 -3.9254 3.8265 1.0000
50.0938 -3.4725 3.8239 1.0000
50.0938 -3.0204 3.8217 1.0000
50.0938 -2.5686 3.8198 1.0000
50.0938 -13.2618 3.0669 1.0000
50.0938 -12.9411 3.0621 1.0000
50.0938 -12.7811 3.0598 1.0000
50.0938 -12.3025 3.0529 1.0000
50.0938 -11.9846 3.0485 1.0000
50.0938 -11.8260 3.0463 1.0000
50.0938 -11.5095 3.0420 1.0000
50.0938 -11.0364 3.0359 1.0000
50.0938 -10.8791 3.0339 1.0000
50.0938 -10.5651 3.0300 1.0000
50.0938 -10.2520 3.0262 1.0000
50.0938 -10.0956 3.0244 1.0000
50.0938 -9.7836 3.0208 1.0000
50.0938 -9.0066 3.0123 1.0000
50.0938 -8.8517 3.0107 1.0000
50.0938 -8.6970 3.0091 1.0000
50.0938 -8.5424 3.0076 1.0000
50.0938 -8.3880 3.0061 1.0000
50.0938 -7.9258 3.0017 1.0000
50.0938 -7.7720 3.0003 1.0000
50.0937 -7.4648 2.9975 1.0000
50.0938 -6.6993 2.9912 1.0000
50.0938 -6.3939 2.9888 1.0000
50.0938 -5.9368 2.9855 1.0000
50.0937 -5.7846 2.9845 1.0000
50.0938 -5.4806 2.9825 1.0000
50.0938 -5.3287 2.9815 1.0000
50.0937 -4.5708 2.9771 1.0000
50.0938 -4.2682 2.9755 1.0000
50.0938 -3.8150 2.9734 1.0000
50.0937 -3.5131 2.9721 1.0000
50.0938 -3.2116 2.9709 1.0000
50.0938 -3.0609 2.9703 1.0000
50.0938 -2.9102 2.9698 1.0000
50.0938 -2.7596 2.9693 1.0000
50.0938 -2.3081 2.9679 1.0000
50.0938 -2.1577 2.9675 1.0000
50.0938 -2.0074 2.9672 1.0000
50.0938 -1.8570 2.9668 1.0000
50.0938 -1.7067 2.9665 1.0000
50.0938 -1.5564 2.9662 1.0000
50.0938 -1.2560 2.9657 1.0000
50.0938 -1.1057 2.9655 1.0000
50.0938 -0.6553 2.9650 1.0000
50.0938 -0.5052 2.9649 1.0000
50.0938 -0.2050 2.9648 1.0000
50.0938 0.0953 2.9648 1.0000
50.0938 0.2454 2.9648 1.0000
50.0938 0.3955 2.9649 1.0000
50.0938 0.6958 2.9651 1.0000
50.0938 1.1463 2.9656 1.0000
50.0938 1.4467 2.9660 1.0000
50.0938 1.7472 2.9666 1.0000
50.0938 1.8975 2.9669 1.0000
50.0938 2.1982 2.9676 1.0000
50.0938 2.3486 2.9681 1.0000
50.0938 2.4991 2.9685 1.0000
50.0938 2.8002 2.9694 1.0000
50.0938 3.1014 2.9705 1.0000
50.0938 3.2522 2.9710 1.0000
50.0938 3.4029 2.9716 1.0000
50.0938 3.5538 2.9722 1.0000
50.0938 3.7046 2.9729 1.0000
50.0938 3.8557 2.9736 1.0000
50.0938 4.0067 2.9743 1.0000
50.0938 4.3090 2.9757 1.0000
50.0938 4.9145 2.9790 1.0000
50.0938 5.2178 2.9808 1.0000
50.0938 5.6735 2.9837 1.0000
50.0938 5.8256 2.9848 1.0000
50.0938 5.9778 2.9858 1.0000
50.0938 6.1300 2.9869 1.0000
50.0938 6.2825 2.9880 1.0000
50.0938 6.4350 2.9892 1.0000
50.0938 6.5877 2.9903 1.0000
50.0938 6.7404 2.9915 1.0000
50.0938 6.8933 2.9927 1.0000
50.0938 7.1995 2.9953 1.0000
50.0938 8.1212 3.0035 1.0000
50.0938 8.4296 3.0065 1.0000
50.0938 8.7387 3.0096 1.0000
50.0938 8.8935 3.0112 1.0000
50.0938 9.0484 3.0128 1.0000
50.0938 9.2035 3.0144 1.0000
50.0938 9.6698 3.0195 1.0000
50.0938 9.9815 3.0231 1.0000
50.0938 10.6073 3.0305 1.0000
50.0938 10.9214 3.0344 1.0000
50.0938 11.0788 3.0364 1.0000
50.0938 11.7104 3.0447 1.0000
50.0938 11.8687 3.0469 1.0000
50.0938 12.0274 3.0491 1.0000
50.0938 12.5047 3.0558 1.0000
50.0938 12.6643 3.0581 1.0000
50.0938 -13.3793 3.0687 1.0000
50.0938 -13.2186 3.0663 1.0000
50.0938 -13.0582 3.0639 1.0000
50.0938 -12.8980 3.0615 1.0000
50.0938 -12.4189 3.0545 1.0000
50.0938 -12.2597 3.0523 1.0000
50.0938 -12.1007 3.0501 1.0000
50.0938 -11.9420 3.0479 1.0000
50.0938 -11.4670 3.0415 1.0000
50.0938 -11.1515 3.0374 1.0000
50.0938 -10.9940 3.0354 1.0000
50.0938 -10.8368 3.0334 1.0000
50.0938 -10.3663 3.0276 1.0000
50.0938 -10.0536 3.0239 1.0000
50.0938 -9.8975 3.0221 1.0000
50.0938 -8.8101 3.0103 1.0000
50.0938 -8.6554 3.0087 1.0000
50.0938 -8.5009 3.0072 1.0000
50.0938 -8.3465 3.0057 1.0000
50.0938 -8.1923 3.0042 1.0000
50.0938 -8.0383 3.0027 1.0000
50.0938 -7.7306 2.9999 1.0000
50.0938 -7.5770 2.9985 1.0000
50.0937 -7.4236 2.9972 1.0000
50.0938 -7.2702 2.9959 1.0000
50.0937 -7.1170 2.9946 1.0000
50.0938 -6.9639 2.9933 1.0000
50.0937 -6.6582 2.9909 1.0000
50.0937 -6.3529 2.9885 1.0000
50.0938 -6.2004 2.9874 1.0000
50.0937 -6.0480 2.9863 1.0000
50.0937 -5.7436 2.9842 1.0000
50.0937 -5.5916 2.9832 1.0000
50.0938 -5.1361 2.9803 1.0000
50.0937 -4.6814 2.9777 1.0000
50.0937 -4.5300 2.9769 1.0000
50.0938 -4.3788 2.9761 1.0000
50.0938 -3.9254 2.9739 1.0000
50.0937 -3.6234 2.9725 1.0000
50.0938 -3.4725 2.9719 1.0000
50.0937 -3.3218 2.9713 1.0000
50.0937 -3.0204 2.9702 1.0000
50.0938 -2.5686 2.9687 1.0000
50.0938 -13.4226 2.1912 1.0000
50.0938 -13.2618 2.1894 1.0000
50.0938 -13.1013 2.1877 1.0000
50.0938 -12.9411 2.1860 1.0000
50.0938 -12.6213 2.1826 1.0000
50.0938 -12.4618 2.1810 1.0000
50.0938 -11.9846 2.1762 1.0000
50.0938 -11.6677 2.1732 1.0000
50.0938 -11.3516 2.1702 1.0000
50.0938 -11.1939 2.1687 1.0000
50.0938 -10.5651 2.1631 1.0000
50.0938 -10.4084 2.1617 1.0000
50.0938 -10.2520 2.1604 1.0000
50.0938 -10.0956 2.1591 1.0000
50.0938 -9.7836 2.1565 1.0000
50.0938 -9.6278 2.1552 1.0000
50.0938 -9.4723 2.1540 1.0000
50.0938 -9.0066 2.1504 1.0000
50.0938 -8.8517 2.1493 1.0000
50.0938 -8.6970 2.1482 1.0000
50.0938 -8.5424 2.1471 1.0000
50.0938 -7.9258 2.1428 1.0000
50.0938 -7.6183 2.1408 1.0000
50.0937 -7.4648 2.1399 1.0000
50.0937 -7.1582 2.1380 1.0000
50.0937 -6.5465 2.1345 1.0000
50.0938 -6.3939 2.1337 1.0000
50.0938 -6.2414 2.1329 1.0000
50.0938 -6.0890 2.1321 1.0000
50.0937 -5.7846 2.1306 1.0000
50.0937 -5.4806 2.1291 1.0000
50.0938 -5.1770 2.1278 1.0000
50.0937 -5.0253 2.1271 1.0000
50.0937 -4.8737 2.1265 1.0000
50.0938 -4.7222 2.1259 1.0000
50.0937 -4.5708 2.1253 1.0000
50.0937 -3.9660 2.1231 1.0000
50.0938 -3.8150 2.1226 1.0000
50.0937 -3.6640 2.1222 1.0000
50.0937 -3.5132 2.1217 1.0000
50.0938 -3.2116 2.1208 1.0000
50.0938 -3.0609 2.1204 1.0000
50.0938 -2.9102 2.1201 1.0000
45.0325 -2.3454 1.9052 1.0000
45.0313 -2.0748 1.9046 1.0000
45.0344 -1.8046 1.9043 1.0000
45.0368 -1.6695 1.9041 1.0000
45.0391 -1.5345 1.9040 1.0000
45.0406 -1.2644 1.9037 1.0000
45.0395 -1.1292 1.9035 1.0000
45.0409 -0.8592 1.9034 1.0000
45.0480 -0.4543 1.9034 1.0000
45.0504 -0.3193 1.9035 1.0000
45.0552 -0.0493 1.9036 1.0000
45.0560 0.0857 1.9037 1.0000
45.0567 0.2207 1.9037 1.0000
45.0580 0.4907 1.9038 1.0000
45.0588 0.6259 1.9039 1.0000
45.0594 0.7609 1.9041 1.0000
45.2644 0.9000 1.9128 1.0000
45.2598 1.0356 1.9128 1.0000
45.2624 1.3072 1.9132 1.0000
45.2669 1.5789 1.9137 1.0000
45.2708 1.7148 1.9141 1.0000
45.2745 1.8509 1.9145 1.0000
45.2802 1.9871 1.9150 1.0000
45.2953 2.1237 1.9159 1.0000
45.3105 2.2605 1.9168 1.0000
45.3257 2.3974 1.9177 1.0000
45.3409 2.5345 1.9187 1.0000
50.0938 2.9508 2.1202 1.0000
50.0938 3.1015 2.1206 1.0000
50.0938 3.4029 2.1214 1.0000
50.0938 3.5538 2.1218 1.0000
50.0938 3.7047 2.1223 1.0000
50.0938 4.0067 2.1233 1.0000
50.0938 4.1578 2.1238 1.0000
50.0938 4.3090 2.1243 1.0000
50.0938 4.9145 2.1267 1.0000
50.0938 5.0661 2.1273 1.0000
50.0938 5.2178 2.1279 1.0000
50.0938 5.3696 2.1286 1.0000
50.0938 5.9778 2.1315 1.0000
50.0938 6.1300 2.1323 1.0000
50.0938 6.2825 2.1331 1.0000
50.0938 6.4350 2.1339 1.0000
50.0938 6.5876 2.1347 1.0000
50.0938 6.7404 2.1356 1.0000
50.0938 6.8933 2.1364 1.0000
50.0938 7.0464 2.1373 1.0000
50.0938 7.1995 2.1382 1.0000
50.0938 7.3528 2.1392 1.0000
50.0938 7.5062 2.1401 1.0000
50.0938 7.8134 2.1421 1.0000
50.0938 8.5841 2.1473 1.0000
50.0938 8.7387 2.1485 1.0000
50.0938 8.8935 2.1496 1.0000
50.0938 9.0484 2.1507 1.0000
50.0938 9.3587 2.1531 1.0000
50.0938 9.6698 2.1556 1.0000
50.0938 9.8256 2.1568 1.0000
50.0938 9.9816 2.1581 1.0000
50.0938 10.2941 2.1607 1.0000
50.0938 10.4506 2.1621 1.0000
50.0938 10.7643 2.1648 1.0000
50.0938 10.9214 2.1662 1.0000
50.0938 11.0788 2.1676 1.0000
50.0938 11.2364 2.1691 1.0000
50.0938 11.3941 2.1706 1.0000
50.0938 11.8688 2.1751 1.0000
50.0938 12.0274 2.1766 1.0000
50.0938 12.1863 2.1782 1.0000
50.0938 12.3454 2.1798 1.0000
50.0938 12.5048 2.1814 1.0000
50.0938 12.6643 2.1831 1.0000
50.0938 12.8242 2.1848 1.0000
50.0938 13.1445 2.1881 1.0000
50.0938 -12.8980 2.1855 1.0000
50.0938 -12.7380 2.1839 1.0000
50.0938 -12.5784 2.1822 1.0000
50.0938 -12.4189 2.1806 1.0000
50.0938 -12.2597 2.1790 1.0000
50.0938 -12.1007 2.1774 1.0000
50.0938 -11.9419 2.1758 1.0000
50.0938 -11.7834 2.1743 1.0000
50.0938 -11.6251 2.1727 1.0000
50.0938 -11.4670 2.1712 1.0000
50.0938 -11.3091 2.1698 1.0000
50.0938 -11.1515 2.1683 1.0000
50.0938 -10.9940 2.1669 1.0000
50.0938 -10.8368 2.1655 1.0000
50.0938 -10.6797 2.1641 1.0000
50.0938 -10.3663 2.1613 1.0000
50.0938 -9.8975 2.1574 1.0000
50.0938 -9.7416 2.1562 1.0000
50.0938 -9.5859 2.1549 1.0000
50.0938 -9.1199 2.1513 1.0000
50.0938 -8.9649 2.1501 1.0000
50.0938 -8.8101 2.1490 1.0000
50.0938 -8.3465 2.1457 1.0000
50.0938 -8.0383 2.1436 1.0000
50.0938 -7.5770 2.1406 1.0000
50.0938 -6.8110 2.1360 1.0000
50.0937 -6.6582 2.1351 1.0000
50.0937 -6.5054 2.1343 1.0000
50.0937 -6.3529 2.1334 1.0000
50.0938 -6.0480 2.1319 1.0000
50.0938 -5.5916 2.1296 1.0000
50.0938 -5.1361 2.1276 1.0000
50.0938 -4.9845 2.1269 1.0000
50.0937 -4.8329 2.1263 1.0000
50.0938 -4.5301 2.1251 1.0000
50.0938 -4.3788 2.1246 1.0000
50.0938 -4.2276 2.1240 1.0000
50.0937 -4.0764 2.1235 1.0000
50.0938 -3.9254 2.1230 1.0000
50.0938 -3.7744 2.1225 1.0000
50.0938 -3.6234 2.1220 1.0000
50.0938 -3.4725 2.1216 1.0000
50.0937 -3.3218 2.1211 1.0000
50.0937 -3.0204 2.1203 1.0000
50.0937 -2.8697 2.1200 1.0000
45.0323 -2.3090 1.9051 1.0000
50.0938 -13.4226 1.3142 1.0000
50.0938 -12.7810 1.3101 1.0000
50.0938 -12.3025 1.3071 1.0000
50.0938 -12.1434 1.3062 1.0000
50.0938 -11.9846 1.3052 1.0000
50.0938 -11.8260 1.3043 1.0000
50.0938 -11.5095 1.3025 1.0000
50.0938 -11.0364 1.2999 1.0000
50.0938 -10.8791 1.2990 1.0000
50.0938 -10.0956 1.2949 1.0000
50.0938 -9.9395 1.2942 1.0000
50.0938 -9.4723 1.2919 1.0000
50.0938 -9.0066 1.2898 1.0000
50.0938 -8.8517 1.2891 1.0000
50.0938 -8.6970 1.2884 1.0000
50.0938 -8.5424 1.2877 1.0000
50.0938 -8.3880 1.2871 1.0000
50.0938 -8.2338 1.2865 1.0000
50.0938 -8.0797 1.2858 1.0000
50.0938 -7.7720 1.2846 1.0000
50.0938 -7.6183 1.2840 1.0000
50.0937 -7.4648 1.2834 1.0000
50.0937 -7.3114 1.2829 1.0000
50.0937 -6.8521 1.2812 1.0000
50.0938 -6.6993 1.2807 1.0000
50.0937 -6.5465 1.2802 1.0000
50.0938 -6.3939 1.2797 1.0000
50.0937 -5.7846 1.2778 1.0000
50.0938 -5.3287 1.2766 1.0000
50.0938 -4.7222 1.2750 1.0000
50.0938 -4.4195 1.2743 1.0000
50.0938 -4.2682 1.2740 1.0000
50.0938 -4.1171 1.2737 1.0000
50.0938 -3.8150 1.2731 1.0000
50.0937 -3.5131 1.2725 1.0000
50.0938 -3.3623 1.2723 1.0000
50.0938 -2.9102 1.2716 1.0000
50.0938 -2.7596 1.2713 1.0000
44.9662 -2.2069 1.1409 1.0000
44.9791 -1.8024 1.1407 1.0000
45.0016 -0.9934 1.1407 1.0000
45.0060 -0.8586 1.1407 1.0000
45.0101 -0.7237 1.1407 1.0000
45.0143 -0.5888 1.1408 1.0000
45.0185 -0.4540 1.1409 1.0000
45.0268 -0.1842 1.1410 1.0000
45.0311 -0.0493 1.1411 1.0000
45.0352 0.0857 1.1412 1.0000
45.0386 0.2207 1.1413 1.0000
45.0409 0.3556 1.1414 1.0000
45.0432 0.4907 1.1415 1.0000
45.2061 0.8989 1.1458 1.0000
45.2028 1.0343 1.1458 1.0000
45.1970 1.4409 1.1459 1.0000
45.1992 1.5764 1.1461 1.0000
45.2021 1.8479 1.1464 1.0000
45.2060 1.9838 1.1467 1.0000
45.2123 2.1198 1.1470 1.0000
45.2246 2.3921 1.1476 1.0000
45.2306 2.5283 1.1480 1.0000
50.0938 3.1015 1.2718 1.0000
50.0938 3.4029 1.2723 1.0000
50.0938 3.5538 1.2726 1.0000
50.0938 3.7046 1.2729 1.0000
50.0938 3.8557 1.2732 1.0000
50.0938 4.1578 1.2738 1.0000
50.0938 4.3090 1.2741 1.0000
50.0938 4.4603 1.2744 1.0000
50.0938 5.2178 1.2763 1.0000
50.0938 5.5215 1.2771 1.0000
50.0938 5.6735 1.2775 1.0000
50.0938 5.8256 1.2780 1.0000
50.0938 5.9778 1.2784 1.0000
50.0938 6.1300 1.2789 1.0000
50.0938 6.2825 1.2794 1.0000
50.0938 6.8933 1.2814 1.0000
50.0938 7.5062 1.2836 1.0000
50.0938 8.1212 1.2860 1.0000
50.0938 8.4296 1.2873 1.0000
50.0938 8.5841 1.2879 1.0000
50.0938 8.7387 1.2886 1.0000
50.0938 8.8934 1.2893 1.0000
50.0938 9.8256 1.2936 1.0000
50.0938 10.1377 1.2951 1.0000
50.0938 10.2941 1.2959 1.0000
50.0938 10.6074 1.2976 1.0000
50.0938 10.9214 1.2992 1.0000
50.0938 11.0788 1.3001 1.0000
50.0938 11.3941 1.3018 1.0000
50.0938 11.7103 1.3036 1.0000
50.0938 11.8688 1.3046 1.0000
50.0938 12.0274 1.3055 1.0000
50.0938 12.8242 1.3104 1.0000
50.0938 13.1446 1.3124 1.0000
50.0938 -13.3793 1.3139 1.0000
50.0938 -12.5784 1.3088 1.0000
50.0938 -12.4189 1.3078 1.0000
50.0938 -12.1007 1.3059 1.0000
50.0938 -11.9420 1.3050 1.0000
50.0938 -11.7834 1.3041 1.0000
50.0938 -11.4670 1.3023 1.0000
50.0938 -10.9940 1.2996 1.0000
50.0938 -10.6797 1.2979 1.0000
50.0938 -10.5229 1.2971 1.0000
50.0938 -9.8975 1.2940 1.0000
50.0938 -9.7416 1.2932 1.0000
50.0938 -9.5859 1.2925 1.0000
50.0938 -9.4304 1.2917 1.0000
50.0938 -9.2751 1.2910 1.0000
50.0938 -9.1199 1.2903 1.0000
50.0938 -8.9649 1.2896 1.0000
50.0938 -8.5009 1.2876 1.0000
50.0938 -8.1923 1.2863 1.0000
50.0938 -8.0383 1.2857 1.0000
50.0938 -7.8844 1.2850 1.0000
50.0937 -7.4236 1.2833 1.0000
50.0937 -6.6582 1.2806 1.0000
50.0938 -6.2004 1.2791 1.0000
50.0938 -4.9845 1.2757 1.0000
50.0937 -4.8329 1.2753 1.0000
50.0938 -4.5301 1.2746 1.0000
50.0938 -4.2276 1.2739 1.0000
50.0937 -4.0764 1.2736 1.0000
50.0938 -3.7744 1.2730 1.0000
50.0937 -3.6234 1.2727 1.0000
50.0938 -3.4725 1.2725 1.0000
50.0938 -3.1710 1.2720 1.0000
44.9621 -2.4405 1.1410 1.0000
44.9644 -2.3055 1.1409 1.0000
50.0938 -13.4226 0.4380 1.0000
50.0938 -13.1013 0.4373 1.0000
50.0938 -12.7811 0.4366 1.0000
50.0938 -12.6213 0.4363 1.0000
50.0938 -12.4617 0.4360 1.0000
50.0938 -11.8260 0.4347 1.0000
50.0938 -11.3516 0.4338 1.0000
50.0938 -11.1939 0.4335 1.0000
50.0938 -10.8791 0.4329 1.0000
50.0938 -10.7220 0.4326 1.0000
50.0938 -10.5651 0.4324 1.0000
50.0938 -9.9395 0.4313 1.0000
50.0938 -9.6278 0.4308 1.0000
50.0938 -9.4723 0.4306 1.0000
50.0938 -9.3169 0.4303 1.0000
50.0938 -9.1617 0.4301 1.0000
50.0938 -8.8517 0.4296 1.0000
50.0938 -8.6970 0.4294 1.0000
50.0938 -8.5424 0.4292 1.0000
50.0938 -8.3880 0.4290 1.0000
50.0938 -8.2337 0.4287 1.0000
50.0938 -8.0797 0.4285 1.0000
50.0938 -7.9258 0.4283 1.0000
50.0938 -7.6183 0.4279 1.0000
50.0938 -7.3114 0.4275 1.0000
50.0938 -7.1582 0.4274 1.0000
50.0938 -7.0051 0.4272 1.0000
50.0938 -6.6993 0.4268 1.0000
50.0937 -6.5465 0.4267 1.0000
50.0938 -5.9368 0.4260 1.0000
50.0938 -5.7846 0.4259 1.0000
50.0937 -5.0253 0.4252 1.0000
50.0937 -4.8737 0.4251 1.0000
50.0938 -4.4195 0.4247 1.0000
50.0938 -4.2682 0.4246 1.0000
50.0938 -4.1171 0.4245 1.0000
50.0938 -3.9660 0.4244 1.0000
50.0937 -3.8150 0.4243 1.0000
50.0937 -3.6640 0.4242 1.0000
50.0937 -3.5132 0.4241 1.0000
50.0938 -3.3623 0.4240 1.0000
50.0938 -3.0609 0.4238 1.0000
50.0938 -2.9102 0.4238 1.0000
44.9393 -2.2055 0.3800 1.0000
44.9407 -2.0707 0.3799 1.0000
44.8615 -1.7977 0.3792 1.0000
45.3287 -1.6804 0.3831 1.0000
44.8300 -1.3929 0.3788 1.0000
44.8333 -1.1241 0.3788 1.0000
44.8249 -0.8551 0.3786 1.0000
44.8802 -0.7216 0.3791 1.0000
44.9890 -0.5885 0.3800 1.0000
44.9941 -0.4537 0.3800 1.0000
44.9998 -0.3189 0.3800 1.0000
45.0117 -0.0493 0.3801 1.0000
45.0177 0.0856 0.3802 1.0000
45.0236 0.2206 0.3802 1.0000
45.0295 0.3556 0.3803 1.0000
45.0354 0.4905 0.3804 1.0000
45.0414 0.6256 0.3804 1.0000
45.0473 0.7607 0.3805 1.0000
45.1088 0.8970 0.3810 1.0000
44.9654 1.0289 0.3798 1.0000
44.9778 1.4338 0.3800 1.0000
44.9711 1.7035 0.3801 1.0000
44.9976 2.2449 0.3805 1.0000
44.9976 2.3801 0.3806 1.0000
45.0340 2.5174 0.3809 1.0000
50.0938 3.1015 0.4239 1.0000
50.0938 3.2522 0.4240 1.0000
50.0938 3.4029 0.4240 1.0000
50.0938 3.5538 0.4241 1.0000
50.0938 3.7047 0.4242 1.0000
50.0938 4.0067 0.4244 1.0000
50.0938 4.1578 0.4245 1.0000
50.0938 4.3090 0.4246 1.0000
50.0938 4.4603 0.4247 1.0000
50.0938 4.7630 0.4250 1.0000
50.0938 4.9145 0.4251 1.0000
50.0938 5.0661 0.4252 1.0000
50.0938 5.3696 0.4255 1.0000
50.0938 5.5215 0.4256 1.0000
50.0938 5.6735 0.4258 1.0000
50.0938 5.8256 0.4259 1.0000
50.0938 5.9778 0.4261 1.0000
50.0938 6.2825 0.4264 1.0000
50.0938 6.4350 0.4265 1.0000
50.0938 7.1995 0.4274 1.0000
50.0938 7.5062 0.4278 1.0000
50.0938 7.6597 0.4280 1.0000
50.0938 7.8134 0.4282 1.0000
50.0938 8.1212 0.4286 1.0000
50.0938 8.8935 0.4297 1.0000
50.0938 9.5142 0.4306 1.0000
50.0938 9.6698 0.4309 1.0000
50.0938 9.8256 0.4311 1.0000
50.0938 9.9816 0.4314 1.0000
50.0938 10.1378 0.4316 1.0000
50.0938 10.2941 0.4319 1.0000
50.0938 10.4507 0.4322 1.0000
50.0938 10.6074 0.4324 1.0000
50.0938 10.7643 0.4327 1.0000
50.0938 11.0788 0.4333 1.0000
50.0938 11.3941 0.4339 1.0000
50.0938 11.8688 0.4348 1.0000
50.0938 12.1863 0.4354 1.0000
50.0938 12.5047 0.4360 1.0000
50.0938 12.6643 0.4364 1.0000
50.0938 12.8242 0.4367 1.0000
50.0938 13.1446 0.4374 1.0000
50.0938 -13.3793 0.4379 1.0000
50.0938 -13.2186 0.4375 1.0000
50.0938 -13.0581 0.4372 1.0000
50.0938 -12.8980 0.4369 1.0000
50.0938 -12.5784 0.4362 1.0000
50.0938 -12.4189 0.4359 1.0000
50.0938 -11.9420 0.4349 1.0000
50.0938 -11.7834 0.4346 1.0000
50.0938 -11.3091 0.4337 1.0000
50.0938 -10.5229 0.4323 1.0000
50.0938 -10.3663 0.4320 1.0000
50.0938 -10.0536 0.4315 1.0000
50.0938 -9.8975 0.4312 1.0000
50.0938 -9.7416 0.4310 1.0000
50.0938 -9.5859 0.4307 1.0000
50.0938 -9.2751 0.4302 1.0000
50.0938 -8.9649 0.4298 1.0000
50.0938 -8.3465 0.4289 1.0000
50.0938 -8.1923 0.4287 1.0000
50.0938 -7.8844 0.4283 1.0000
50.0938 -7.5770 0.4279 1.0000
50.0937 -7.4236 0.4277 1.0000
50.0937 -7.1170 0.4273 1.0000
50.0938 -6.8110 0.4270 1.0000
50.0938 -6.3529 0.4264 1.0000
50.0937 -6.2004 0.4263 1.0000
50.0938 -5.8958 0.4260 1.0000
50.0937 -5.7436 0.4258 1.0000
50.0937 -5.2879 0.4254 1.0000
50.0938 -5.1361 0.4253 1.0000
50.0937 -4.8329 0.4250 1.0000
50.0938 -4.3788 0.4247 1.0000
50.0937 -3.7743 0.4243 1.0000
50.0938 -3.4725 0.4241 1.0000
50.0937 -3.3218 0.4240 1.0000
50.0937 -2.8697 0.4238 1.0000
44.9459 -2.4396 0.3801 1.0000
44.9403 -2.3043 0.3800 1.0000
50.0938 -13.2618 -0.4376 1.0000
50.0938 -12.9411 -0.4369 1.0000
50.0938 -12.7811 -0.4366 1.0000
50.0938 -12.4617 -0.4360 1.0000
50.0938 -12.1434 -0.4353 1.0000
50.0938 -11.8260 -0.4347 1.0000
50.0938 -11.1939 -0.4335 1.0000
50.0938 -10.8791 -0.4329 1.0000
50.0938 -10.7220 -0.4326 1.0000
50.0938 -10.4084 -0.4321 1.0000
50.0938 -10.2519 -0.4318 1.0000
50.0938 -10.0956 -0.4316 1.0000
50.0938 -9.9395 -0.4313 1.0000
50.0938 -9.6278 -0.4308 1.0000
50.0938 -9.4723 -0.4306 1.0000
50.0938 -9.1617 -0.4301 1.0000
50.0938 -9.0066 -0.4298 1.0000
50.0938 -8.8517 -0.4296 1.0000
50.0938 -8.6970 -0.4294 1.0000
50.0938 -8.5424 -0.4292 1.0000
50.0938 -8.3880 -0.4289 1.0000
50.0938 -8.0797 -0.4285 1.0000
50.0938 -7.9258 -0.4283 1.0000
50.0937 -7.4648 -0.4277 1.0000
50.0938 -7.1582 -0.4274 1.0000
50.0938 -7.0051 -0.4272 1.0000
50.0937 -6.8521 -0.4270 1.0000
50.0937 -6.3939 -0.4265 1.0000
50.0938 -6.2414 -0.4263 1.0000
50.0938 -5.9368 -0.4260 1.0000
50.0937 -5.7846 -0.4259 1.0000
50.0938 -5.6325 -0.4257 1.0000
50.0937 -5.0253 -0.4252 1.0000
50.0937 -4.8737 -0.4251 1.0000
50.0937 -4.7222 -0.4249 1.0000
50.0938 -4.2682 -0.4246 1.0000
50.0938 -3.9660 -0.4244 1.0000
50.0938 -3.6640 -0.4242 1.0000
50.0937 -3.3623 -0.4240 1.0000
50.0938 -2.9102 -0.4238 1.0000
50.0938 -2.7596 -0.4237 1.0000
50.0938 -2.4586 -0.4236 1.0000
50.0938 -2.3081 -0.4235 1.0000
50.0938 -2.0073 -0.4234 1.0000
50.0938 -1.8570 -0.4233 1.0000
50.0938 -1.7067 -0.4233 1.0000
50.0938 -1.5564 -0.4233 1.0000
50.0938 -1.2560 -0.4232 1.0000
50.0938 -1.1057 -0.4232 1.0000
50.0938 -0.9556 -0.4231 1.0000
50.0938 -0.8054 -0.4231 1.0000
50.0938 -0.5052 -0.4231 1.0000
50.0938 -0.2049 -0.4231 1.0000
50.0938 -0.0548 -0.4231 1.0000
50.0938 0.0953 -0.4231 1.0000
50.0938 0.2454 -0.4231 1.0000
50.0938 0.3955 -0.4231 1.0000
50.0938 0.5457 -0.4231 1.0000
50.0938 0.6958 -0.4231 1.0000
50.0938 0.8460 -0.4231 1.0000
50.0938 0.9961 -0.4231 1.0000
50.0938 1.1463 -0.4232 1.0000
50.0938 1.2964 -0.4232 1.0000
50.0938 1.4467 -0.4232 1.0000
50.0938 1.5970 -0.4233 1.0000
50.0938 2.0479 -0.4234 1.0000
50.0938 2.4991 -0.4236 1.0000
50.0938 2.8002 -0.4237 1.0000
50.0938 3.1015 -0.4239 1.0000
50.0938 3.2522 -0.4239 1.0000
50.0938 3.4029 -0.4240 1.0000
50.0938 3.5538 -0.4241 1.0000
50.0938 3.8557 -0.4243 1.0000
50.0938 4.0067 -0.4244 1.0000
50.0938 4.3090 -0.4246 1.0000
50.0938 4.7630 -0.4250 1.0000
50.0938 5.2178 -0.4253 1.0000
50.0938 6.5877 -0.4267 1.0000
50.0938 6.7404 -0.4269 1.0000
50.0938 7.0463 -0.4272 1.0000
50.0938 7.5062 -0.4278 1.0000
50.0938 7.8134 -0.4282 1.0000
50.0938 8.1212 -0.4286 1.0000
50.0938 8.4296 -0.4290 1.0000
50.0938 8.5841 -0.4292 1.0000
50.0938 9.0484 -0.4299 1.0000
50.0938 9.2035 -0.4301 1.0000
50.0938 9.3587 -0.4304 1.0000
50.0938 9.6698 -0.4309 1.0000
50.0938 9.9816 -0.4314 1.0000
50.0938 10.1378 -0.4316 1.0000
50.0938 10.2941 -0.4319 1.0000
50.0938 10.4506 -0.4322 1.0000
50.0938 10.7643 -0.4327 1.0000
50.0938 10.9214 -0.4330 1.0000
50.0938 11.2364 -0.4336 1.0000
50.0938 11.5521 -0.4342 1.0000
50.0938 11.8688 -0.4348 1.0000
50.0938 12.0274 -0.4351 1.0000
50.0938 12.3454 -0.4357 1.0000
50.0938 12.6643 -0.4364 1.0000
50.0938 12.8242 -0.4367 1.0000
50.0938 13.3051 -0.4377 1.0000
50.0938 -13.0581 -0.4372 1.0000
50.0938 -12.5784 -0.4362 1.0000
50.0938 -12.2597 -0.4355 1.0000
50.0938 -12.1007 -0.4352 1.0000
50.0938 -11.9420 -0.4349 1.0000
50.0938 -11.6251 -0.4343 1.0000
50.0938 -11.4670 -0.4340 1.0000
50.0938 -11.3091 -0.4337 1.0000
50.0938 -10.8368 -0.4328 1.0000
50.0938 -10.3663 -0.4320 1.0000
50.0938 -10.0536 -0.4315 1.0000
50.0938 -9.8975 -0.4312 1.0000
50.0938 -9.5859 -0.4307 1.0000
50.0938 -9.4304 -0.4305 1.0000
50.0938 -9.1199 -0.4300 1.0000
50.0938 -8.8101 -0.4296 1.0000
50.0938 -8.3465 -0.4289 1.0000
50.0938 -8.1923 -0.4287 1.0000
50.0938 -8.0383 -0.4285 1.0000
50.0938 -7.8844 -0.4283 1.0000
50.0938 -7.7306 -0.4281 1.0000
50.0938 -7.2702 -0.4275 1.0000
50.0937 -7.1170 -0.4273 1.0000
50.0938 -6.9639 -0.4271 1.0000
50.0938 -6.8110 -0.4270 1.0000
50.0937 -6.5054 -0.4266 1.0000
50.0938 -6.3529 -0.4264 1.0000
50.0937 -6.2004 -0.4263 1.0000
50.0938 -6.0480 -0.4261 1.0000
50.0937 -5.5916 -0.4257 1.0000
50.0938 -5.4397 -0.4255 1.0000
50.0937 -5.2879 -0.4254 1.0000
50.0938 -5.1361 -0.4253 1.0000
50.0937 -4.8329 -0.4250 1.0000
50.0938 -4.3788 -0.4247 1.0000
50.0938 -4.2275 -0.4246 1.0000
50.0937 -4.0764 -0.4245 1.0000
50.0938 -3.9254 -0.4244 1.0000
50.0938 -3.6234 -0.4242 1.0000
50.0938 -3.4725 -0.4241 1.0000
50.0937 -3.3218 -0.4240 1.0000
50.0938 -3.0204 -0.4238 1.0000
50.0938 -2.7191 -0.4237 1.0000
50.0937 -2.5686 -0.4236 1.0000
50.0938 -13.4226 -1.3142 1.0000
50.0938 -13.2618 -1.3131 1.0000
50.0938 -12.9411 -1.3111 1.0000
50.0938 -12.7810 -1.3101 1.0000
50.0938 -12.6213 -1.3091 1.0000
50.0938 -12.4618 -1.3081 1.0000
50.0938 -11.8260 -1.3043 1.0000
50.0938 -11.5095 -1.3025 1.0000
50.0938 -11.1939 -1.3007 1.0000
50.0938 -10.8791 -1.2990 1.0000
50.0938 -10.5651 -1.2973 1.0000
50.0938 -10.4084 -1.2965 1.0000
50.0938 -10.2519 -1.2957 1.0000
50.0938 -10.0956 -1.2949 1.0000
50.0938 -9.9395 -1.2942 1.0000
50.0938 -9.6278 -1.2926 1.0000
50.0938 -9.3169 -1.2912 1.0000
50.0938 -9.1616 -1.2905 1.0000
50.0938 -8.8517 -1.2891 1.0000
50.0938 -8.6970 -1.2884 1.0000
50.0938 -8.2338 -1.2864 1.0000
50.0937 -7.1582 -1.2823 1.0000
50.0938 -7.0051 -1.2818 1.0000
50.0937 -6.5465 -1.2802 1.0000
50.0938 -6.3939 -1.2797 1.0000
50.0938 -6.2414 -1.2792 1.0000
50.0938 -5.9368 -1.2783 1.0000
50.0937 -5.7846 -1.2778 1.0000
50.0938 -5.6325 -1.2774 1.0000
50.0938 -5.4806 -1.2770 1.0000
50.0938 -5.3287 -1.2766 1.0000
50.0938 -5.1770 -1.2762 1.0000
50.0937 -4.8737 -1.2754 1.0000
50.0938 -4.7222 -1.2750 1.0000
50.0938 -4.4195 -1.2743 1.0000
50.0938 -4.2682 -1.2740 1.0000
50.0938 -4.1171 -1.2737 1.0000
50.0938 -3.8150 -1.2731 1.0000
50.0938 -3.6640 -1.2728 1.0000
50.0938 -3.3623 -1.2723 1.0000
50.0938 -3.2116 -1.2720 1.0000
50.0938 -3.0609 -1.2718 1.0000
50.0938 -2.6091 -1.2711 1.0000
50.0938 -2.4586 -1.2709 1.0000
50.0938 -1.7067 -1.2702 1.0000
50.0938 -1.5564 -1.2700 1.0000
50.0938 -1.2560 -1.2698 1.0000
50.0938 -1.1057 -1.2697 1.0000
50.0938 -0.9556 -1.2696 1.0000
50.0938 -0.8054 -1.2696 1.0000
50.0938 -0.6553 -1.2695 1.0000
50.0938 -0.5052 -1.2695 1.0000
50.0938 -0.3550 -1.2694 1.0000
50.0938 -0.0548 -1.2694 1.0000
50.0938 0.0953 -1.2694 1.0000
50.0938 0.6958 -1.2695 1.0000
50.0938 1.2965 -1.2698 1.0000
50.0938 1.4467 -1.2699 1.0000
50.0938 1.5970 -1.2701 1.0000
50.0938 1.7472 -1.2702 1.0000
50.0938 1.8975 -1.2703 1.0000
50.0938 2.0479 -1.2705 1.0000
50.0938 2.1982 -1.2706 1.0000
50.0938 2.6496 -1.2712 1.0000
50.0938 2.9508 -1.2716 1.0000
50.0938 3.1015 -1.2718 1.0000
50.0938 3.5538 -1.2726 1.0000
50.0938 3.8557 -1.2732 1.0000
50.0938 4.0067 -1.2735 1.0000
50.0938 4.1578 -1.2738 1.0000
50.0938 4.3090 -1.2741 1.0000
50.0938 4.9145 -1.2755 1.0000
50.0938 5.0661 -1.2759 1.0000
50.0938 5.2178 -1.2763 1.0000
50.0938 5.3696 -1.2767 1.0000
50.0938 5.8256 -1.2780 1.0000
50.0938 6.1300 -1.2789 1.0000
50.0938 7.1995 -1.2825 1.0000
50.0938 7.5062 -1.2836 1.0000
50.0938 8.1212 -1.2860 1.0000
50.0938 8.2754 -1.2866 1.0000
50.0938 8.4296 -1.2873 1.0000
50.0938 8.5841 -1.2879 1.0000
50.0938 8.7387 -1.2886 1.0000
50.0938 9.2035 -1.2907 1.0000
50.0938 9.6698 -1.2928 1.0000
50.0938 9.9816 -1.2944 1.0000
50.0938 10.2941 -1.2959 1.0000
50.0938 10.6074 -1.2976 1.0000
50.0938 10.7643 -1.2984 1.0000
50.0938 11.0788 -1.3001 1.0000
50.0938 11.2364 -1.3010 1.0000
50.0938 11.5521 -1.3027 1.0000
50.0938 11.8688 -1.3046 1.0000
50.0938 12.5048 -1.3084 1.0000
50.0938 12.6643 -1.3094 1.0000
50.0938 12.9842 -1.3114 1.0000
50.0938 13.1446 -1.3124 1.0000
50.0938 -13.3793 -1.3139 1.0000
50.0938 -13.2186 -1.3129 1.0000
50.0938 -13.0581 -1.3118 1.0000
50.0938 -12.8980 -1.3108 1.0000
50.0938 -12.7380 -1.3098 1.0000
50.0938 -12.1007 -1.3059 1.0000
50.0938 -11.4670 -1.3022 1.0000
50.0938 -11.3091 -1.3014 1.0000
50.0938 -11.1515 -1.3005 1.0000
50.0938 -10.9940 -1.2996 1.0000
50.0938 -10.8368 -1.2988 1.0000
50.0938 -10.5229 -1.2971 1.0000
50.0938 -10.3663 -1.2963 1.0000
50.0938 -9.5859 -1.2924 1.0000
50.0938 -9.4304 -1.2917 1.0000
50.0938 -8.8101 -1.2889 1.0000
50.0938 -8.3465 -1.2869 1.0000
50.0938 -7.7306 -1.2844 1.0000
50.0937 -7.4236 -1.2833 1.0000
50.0937 -7.1170 -1.2822 1.0000
50.0938 -6.9639 -1.2816 1.0000
50.0938 -6.2004 -1.2791 1.0000
50.0938 -5.8958 -1.2782 1.0000
50.0937 -5.7436 -1.2777 1.0000
50.0938 -5.5916 -1.2773 1.0000
50.0938 -5.4397 -1.2769 1.0000
50.0938 -5.1361 -1.2761 1.0000
50.0938 -4.9845 -1.2757 1.0000
50.0938 -4.6815 -1.2749 1.0000
50.0938 -4.5301 -1.2746 1.0000
50.0938 -4.3788 -1.2743 1.0000
50.0937 -4.0764 -1.2736 1.0000
50.0938 -3.7744 -1.2730 1.0000
50.0937 -3.6234 -1.2727 1.0000
50.0938 -3.4725 -1.2725 1.0000
50.0937 -3.3218 -1.2722 1.0000
50.0937 -2.8697 -1.2715 1.0000
50.0938 -2.7191 -1.2713 1.0000
50.0938 -2.5686 -1.2711 1.0000
37.6653 -10.0923 -1.6475 1.0000
37.7545 -9.7533 -1.6475 1.0000
37.7836 -9.6401 -1.6475 1.0000
37.8122 -9.5268 -1.6475 1.0000
37.8687 -9.3000 -1.6475 1.0000
37.9508 -8.9594 -1.6475 1.0000
37.9775 -8.8455 -1.6475 1.0000
38.0038 -8.7318 -1.6475 1.0000
38.0554 -8.5038 -1.6475 1.0000
38.0808 -8.3898 -1.6475 1.0000
38.1057 -8.2755 -1.6475 1.0000
38.2021 -7.8182 -1.6475 1.0000
38.2254 -7.7037 -1.6475 1.0000
38.2483 -7.5892 -1.6475 1.0000
38.2709 -7.4745 -1.6475 1.0000
38.2931 -7.3598 -1.6475 1.0000
38.3150 -7.2450 -1.6475 1.0000
38.3365 -7.1301 -1.6475 1.0000
38.3578 -7.0152 -1.6475 1.0000
38.4777 -6.3245 -1.6475 1.0000
38.4965 -6.2091 -1.6475 1.0000
38.5149 -6.0938 -1.6475 1.0000
38.5330 -5.9783 -1.6475 1.0000
38.5507 -5.8629 -1.6475 1.0000
38.5681 -5.7473 -1.6475 1.0000
38.5852 -5.6316 -1.6475 1.0000
38.6182 -5.4004 -1.6475 1.0000
38.6342 -5.2846 -1.6475 1.0000
38.6499 -5.1687 -1.6475 1.0000
38.6802 -4.9371 -1.6475 1.0000
38.6948 -4.8211 -1.6475 1.0000
38.7090 -4.7052 -1.6475 1.0000
38.7230 -4.5892 -1.6475 1.0000
38.7498 -4.3570 -1.6475 1.0000
38.7627 -4.2409 -1.6475 1.0000
38.7752 -4.1246 -1.6475 1.0000
38.8107 -3.7759 -1.6475 1.0000
38.8219 -3.6596 -1.6475 1.0000
38.8431 -3.4268 -1.6475 1.0000
38.8532 -3.3104 -1.6475 1.0000
38.8630 -3.1940 -1.6475 1.0000
38.8723 -3.0776 -1.6475 1.0000
38.8814 -2.9611 -1.6475 1.0000
38.8900 -2.8445 -1.6475 1.0000
38.8984 -2.7280 -1.6475 1.0000
38.9065 -2.6113 -1.6475 1.0000
38.9284 -2.2616 -1.6475 1.0000
38.9579 -1.6780 -1.6475 1.0000
38.9627 -1.5612 -1.6475 1.0000
38.9672 -1.4446 -1.6475 1.0000
38.9752 -1.2110 -1.6475 1.0000
38.9818 -0.9774 -1.6475 1.0000
38.9844 -0.8605 -1.6475 1.0000
38.9889 -0.6269 -1.6475 1.0000
38.9920 -0.3932 -1.6475 1.0000
38.9940 -0.0427 -1.6475 1.0000
38.9939 0.0743 -1.6475 1.0000
38.9935 0.1911 -1.6475 1.0000
38.9917 0.4246 -1.6475 1.0000
38.9903 0.5416 -1.6475 1.0000
38.9863 0.7752 -1.6475 1.0000
38.9837 0.8921 -1.6475 1.0000
38.9742 1.2424 -1.6475 1.0000
38.9703 1.3593 -1.6475 1.0000
38.9614 1.5928 -1.6475 1.0000
38.9456 1.9430 -1.6475 1.0000
38.9395 2.0596 -1.6475 1.0000
38.9265 2.2930 -1.6475 1.0000
38.9195 2.4096 -1.6475 1.0000
38.9121 2.5262 -1.6475 1.0000
38.9043 2.6429 -1.6475 1.0000
38.8962 2.7595 -1.6475 1.0000
38.8789 2.9925 -1.6475 1.0000
38.8699 3.1089 -1.6475 1.0000
38.8505 3.3419 -1.6475 1.0000
38.8298 3.5746 -1.6475 1.0000
38.8077 3.8074 -1.6475 1.0000
38.7961 3.9235 -1.6475 1.0000
38.7463 4.3883 -1.6475 1.0000
38.6762 4.9684 -1.6475 1.0000
38.6457 5.2000 -1.6475 1.0000
38.6138 5.4316 -1.6475 1.0000
38.5974 5.5473 -1.6475 1.0000
38.5806 5.6629 -1.6475 1.0000
38.5282 6.0095 -1.6475 1.0000
38.4533 6.4709 -1.6475 1.0000
38.4139 6.7012 -1.6475 1.0000
38.3936 6.8163 -1.6475 1.0000
38.3521 7.0463 -1.6475 1.0000
38.3307 7.1611 -1.6475 1.0000
38.2649 7.5054 -1.6475 1.0000
38.1721 7.9635 -1.6475 1.0000
38.0739 8.4205 -1.6475 1.0000
38.0485 8.5346 -1.6475 1.0000
38.0228 8.6485 -1.6475 1.0000
37.9967 8.7624 -1.6475 1.0000
37.9703 8.8762 -1.6475 1.0000
37.9436 8.9900 -1.6475 1.0000
37.9164 9.1036 -1.6475 1.0000
37.8889 9.2173 -1.6475 1.0000
37.8612 9.3307 -1.6475 1.0000
37.8330 9.4442 -1.6475 1.0000
37.8046 9.5575 -1.6475 1.0000
37.6873 10.0099 -1.6475 1.0000
37.6734 -10.0620 -1.6475 1.0000
37.7034 -9.9490 -1.6475 1.0000
37.7913 -9.6097 -1.6475 1.0000
37.8200 -9.4964 -1.6475 1.0000
37.8762 -9.2695 -1.6475 1.0000
37.9038 -9.1561 -1.6475 1.0000
38.0367 -8.5870 -1.6475 1.0000
38.0623 -8.4730 -1.6475 1.0000
38.0875 -8.3590 -1.6475 1.0000
38.2544 -7.5583 -1.6475 1.0000
38.2769 -7.4436 -1.6475 1.0000
38.2991 -7.3289 -1.6475 1.0000
38.3842 -6.8693 -1.6475 1.0000
38.4246 -6.6391 -1.6475 1.0000
38.5198 -6.0627 -1.6475 1.0000
38.5378 -5.9473 -1.6475 1.0000
38.5897 -5.6005 -1.6475 1.0000
38.6063 -5.4849 -1.6475 1.0000
38.6541 -5.1377 -1.6475 1.0000
38.6693 -5.0219 -1.6475 1.0000
38.6842 -4.9058 -1.6475 1.0000
38.7129 -4.6740 -1.6475 1.0000
38.7661 -4.2096 -1.6475 1.0000
38.7786 -4.0934 -1.6475 1.0000
38.7907 -3.9772 -1.6475 1.0000
38.8024 -3.8610 -1.6475 1.0000
38.8137 -3.7445 -1.6475 1.0000
38.8355 -3.5119 -1.6475 1.0000
38.8459 -3.3956 -1.6475 1.0000
38.8559 -3.2792 -1.6475 1.0000
38.8838 -2.9297 -1.6475 1.0000
38.9006 -2.6966 -1.6475 1.0000
38.9086 -2.5800 -1.6475 1.0000
38.9161 -2.4634 -1.6475 1.0000
38.9367 -2.1135 -1.6475 1.0000
38.9428 -1.9968 -1.6475 1.0000
26.8884 -7.2046 -1.6475 1.0000
26.9098 -7.1241 -1.6475 1.0000
26.9311 -7.0434 -1.6475 1.0000
26.9729 -6.8819 -1.6475 1.0000
26.9933 -6.8010 -1.6475 1.0000
27.0534 -6.5581 -1.6475 1.0000
27.0922 -6.3959 -1.6475 1.0000
27.1486 -6.1520 -1.6475 1.0000
27.1668 -6.0706 -1.6475 1.0000
27.1850 -5.9891 -1.6475 1.0000
27.2028 -5.9077 -1.6475 1.0000
27.2204 -5.8263 -1.6475 1.0000
27.2548 -5.6629 -1.6475 1.0000
27.2882 -5.4995 -1.6475 1.0000
27.3046 -5.4177 -1.6475 1.0000
27.3207 -5.3359 -1.6475 1.0000
27.3366 -5.2539 -1.6475 1.0000
27.3676 -5.0900 -1.6475 1.0000
27.3827 -5.0080 -1.6475 1.0000
27.4123 -4.8438 -1.6475 1.0000
27.4817 -4.4326 -1.6475 1.0000
27.5079 -4.2677 -1.6475 1.0000
27.5687 -3.8552 -1.6475 1.0000
27.5801 -3.7725 -1.6475 1.0000
27.6022 -3.6071 -1.6475 1.0000
27.6129 -3.5244 -1.6475 1.0000
27.6233 -3.4416 -1.6475 1.0000
27.6335 -3.3589 -1.6475 1.0000
27.6435 -3.2760 -1.6475 1.0000
27.6532 -3.1932 -1.6475 1.0000
27.6626 -3.1103 -1.6475 1.0000
27.6979 -2.7785 -1.6475 1.0000
27.7292 -2.4463 -1.6475 1.0000
27.7687 -1.9474 -1.6475 1.0000
27.7851 -1.6977 -1.6475 1.0000
27.7947 -1.5311 -1.6475 1.0000
27.8111 -1.1979 -1.6475 1.0000
27.8178 -1.0312 -1.6475 1.0000
27.8208 -0.9479 -1.6475 1.0000
27.8260 -0.7811 -1.6475 1.0000
27.8302 -0.6143 -1.6475 1.0000
27.8334 -0.4475 -1.6475 1.0000
27.8363 -0.1972 -1.6475 1.0000
27.8369 -0.0304 -1.6475 1.0000
27.8361 0.2199 -1.6475 1.0000
27.8343 0.3866 -1.6475 1.0000
27.8330 0.4701 -1.6475 1.0000
27.8314 0.5533 -1.6475 1.0000
27.8296 0.6368 -1.6475 1.0000
27.8254 0.8036 -1.6475 1.0000
27.8200 0.9703 -1.6475 1.0000
27.8170 1.0537 -1.6475 1.0000
27.8137 1.1371 -1.6475 1.0000
27.7981 1.4704 -1.6475 1.0000
27.7671 1.9699 -1.6475 1.0000
27.7483 2.2194 -1.6475 1.0000
27.7415 2.3027 -1.6475 1.0000
27.7272 2.4688 -1.6475 1.0000
27.7119 2.6349 -1.6475 1.0000
27.7039 2.7180 -1.6475 1.0000
27.6957 2.8010 -1.6475 1.0000
27.6871 2.8839 -1.6475 1.0000
27.6784 2.9669 -1.6475 1.0000
27.6694 3.0498 -1.6475 1.0000
27.6601 3.1326 -1.6475 1.0000
27.6407 3.2984 -1.6475 1.0000
27.6308 3.3812 -1.6475 1.0000
27.6205 3.4641 -1.6475 1.0000
27.5770 3.7949 -1.6475 1.0000
27.5538 3.9600 -1.6475 1.0000
27.5296 4.1252 -1.6475 1.0000
27.4914 4.3725 -1.6475 1.0000
27.4647 4.5371 -1.6475 1.0000
27.4509 4.6193 -1.6475 1.0000
27.4370 4.7017 -1.6475 1.0000
27.4228 4.7838 -1.6475 1.0000
27.3635 5.1122 -1.6475 1.0000
27.3480 5.1942 -1.6475 1.0000
27.3164 5.3579 -1.6475 1.0000
27.3003 5.4398 -1.6475 1.0000
27.2838 5.5215 -1.6475 1.0000
27.2672 5.6032 -1.6475 1.0000
27.2331 5.7666 -1.6475 1.0000
27.2157 5.8482 -1.6475 1.0000
27.1802 6.0113 -1.6475 1.0000
27.1620 6.0926 -1.6475 1.0000
27.1250 6.2553 -1.6475 1.0000
27.0870 6.4177 -1.6475 1.0000
27.0481 6.5800 -1.6475 1.0000
27.0082 6.7420 -1.6475 1.0000
26.9673 6.9037 -1.6475 1.0000
26.9041 7.1459 -1.6475 1.0000
26.8942 -7.1830 -1.6475 1.0000
26.9156 -7.1023 -1.6475 1.0000
26.9784 -6.8602 -1.6475 1.0000
27.0390 -6.6174 -1.6475 1.0000
27.0781 -6.4551 -1.6475 1.0000
27.0973 -6.3740 -1.6475 1.0000
27.1536 -6.1301 -1.6475 1.0000
27.1718 -6.0487 -1.6475 1.0000
27.2076 -5.8858 -1.6475 1.0000
27.2423 -5.7225 -1.6475 1.0000
27.2593 -5.6409 -1.6475 1.0000
27.3090 -5.3956 -1.6475 1.0000
27.3250 -5.3138 -1.6475 1.0000
27.3408 -5.2319 -1.6475 1.0000
27.3717 -5.0680 -1.6475 1.0000
27.3868 -4.9859 -1.6475 1.0000
27.4305 -4.7395 -1.6475 1.0000
27.4446 -4.6573 -1.6475 1.0000
27.4720 -4.4928 -1.6475 1.0000
27.4984 -4.3280 -1.6475 1.0000
27.5112 -4.2455 -1.6475 1.0000
27.5239 -4.1631 -1.6475 1.0000
27.5483 -3.9981 -1.6475 1.0000
