ply
format ascii 1.0
element vertex 1579
property float32 x
property float32 y
property float32 z
property float32 I
end_header
50.0941 2.3779 13.4378 1.0000
50.0941 2.5281 13.4397 1.0000
50.0941 2.9789 13.4464 1.0000
50.0941 3.4301 13.4541 1.0000
50.0941 3.8819 13.4629 1.0000
50.0941 4.0326 13.4661 1.0000
50.0941 4.1834 13.4694 1.0000
50.0941 4.6364 13.4800 1.0000
50.0941 4.7875 13.4838 1.0000
50.0941 4.9387 13.4877 1.0000
50.0941 5.2414 13.4959 1.0000
50.0941 5.5445 13.5046 1.0000
50.0941 5.6962 13.5092 1.0000
50.0941 5.8479 13.5138 1.0000
50.0941 5.9999 13.5186 1.0000
50.0941 6.1518 13.5235 1.0000
50.0941 6.4562 13.5337 1.0000
50.0941 6.6086 13.5389 1.0000
50.0941 6.9136 13.5499 1.0000
50.0941 7.2192 13.5613 1.0000
50.0941 7.5253 13.5733 1.0000
50.0941 7.9854 13.5921 1.0000
50.0941 8.1392 13.5987 1.0000
50.0941 8.6011 13.6191 1.0000
50.0941 8.7554 13.6261 1.0000
50.0941 9.2193 13.6481 1.0000
50.0941 9.3743 13.6557 1.0000
50.0941 9.6847 13.6712 1.0000
50.0941 9.9959 13.6873 1.0000
50.0941 10.1518 13.6955 1.0000
50.0941 10.4640 13.7124 1.0000
50.0941 10.7771 13.7298 1.0000
50.0941 11.2482 13.7569 1.0000
50.0941 11.8793 13.7949 1.0000
50.0941 12.0377 13.8048 1.0000
50.0941 12.8329 13.8561 1.0000
50.0941 -13.3720 13.8927 1.0000
50.0941 -12.8917 13.8600 1.0000
50.0941 -11.9377 13.7985 1.0000
50.0941 -11.6215 13.7791 1.0000
50.0941 -11.4637 13.7697 1.0000
50.0941 -10.9917 13.7420 1.0000
50.0941 -10.8348 13.7330 1.0000
50.0941 -10.2092 13.6986 1.0000
50.0941 -8.9668 13.6360 1.0000
50.0941 -8.8123 13.6288 1.0000
50.0941 -8.6579 13.6217 1.0000
50.0941 -8.3497 13.6079 1.0000
50.0941 -8.1958 13.6011 1.0000
50.0941 -7.5817 13.5755 1.0000
50.0941 -7.2755 13.5635 1.0000
50.0941 -6.8172 13.5464 1.0000
50.0941 -6.6646 13.5409 1.0000
50.0941 -6.5123 13.5356 1.0000
50.0941 -5.9038 13.5156 1.0000
50.0941 -5.7520 13.5108 1.0000
50.0941 -5.2971 13.4975 1.0000
50.0941 -5.1457 13.4933 1.0000
50.0941 -4.9944 13.4892 1.0000
50.0941 -4.8431 13.4852 1.0000
50.0941 -4.6920 13.4814 1.0000
50.0941 -4.5409 13.4777 1.0000
50.0941 -4.0881 13.4673 1.0000
50.0941 -3.4855 13.4551 1.0000
50.0941 -3.1845 13.4497 1.0000
50.0941 -3.0342 13.4473 1.0000
50.0940 -2.8838 13.4449 1.0000
50.0941 -2.7336 13.4426 1.0000
50.0941 -2.1329 13.4348 1.0000
50.0941 -1.9829 13.4332 1.0000
50.0941 -1.3830 13.4278 1.0000
50.0941 -1.2331 13.4267 1.0000
50.0941 -1.0832 13.4258 1.0000
50.0941 -0.7835 13.4243 1.0000
50.0941 -0.4839 13.4233 1.0000
50.0941 -0.3340 13.4230 1.0000
50.0941 -0.1842 13.4227 1.0000
50.0941 0.1154 13.4227 1.0000
50.0941 0.4150 13.4231 1.0000
50.0941 0.7146 13.4240 1.0000
50.0941 1.0143 13.4254 1.0000
50.0941 1.1642 13.4263 1.0000
50.0941 1.4640 13.4284 1.0000
50.0941 2.3642 13.4376 1.0000
50.0941 2.5143 13.4395 1.0000
50.0941 2.6645 13.4416 1.0000
50.0941 2.8148 13.4438 1.0000
50.0941 2.9650 13.4461 1.0000
50.0941 3.1154 13.4486 1.0000
50.0941 3.4163 13.4538 1.0000
50.0941 3.5668 13.4566 1.0000
50.0941 3.7175 13.4596 1.0000
50.0941 3.8681 13.4626 1.0000
50.0941 4.0189 13.4658 1.0000
50.0941 4.3205 13.4725 1.0000
50.0941 5.2275 13.4955 1.0000
50.0941 5.3790 13.4998 1.0000
50.0941 5.5306 13.5042 1.0000
50.0941 5.8341 13.5134 1.0000
50.0941 6.4423 13.5332 1.0000
50.0941 6.7471 13.5439 1.0000
50.0941 6.8996 13.5494 1.0000
50.0941 7.2052 13.5608 1.0000
50.0941 7.3582 13.5667 1.0000
50.0941 7.6645 13.5789 1.0000
50.0941 7.8179 13.5851 1.0000
50.0941 7.9714 13.5915 1.0000
50.0941 8.2789 13.6047 1.0000
50.0941 8.4329 13.6115 1.0000
50.0941 8.5870 13.6184 1.0000
50.0941 8.8957 13.6327 1.0000
50.0941 9.0504 13.6400 1.0000
50.0941 9.2051 13.6474 1.0000
50.0941 9.3600 13.6550 1.0000
50.0941 9.8260 13.6784 1.0000
50.0941 10.6061 13.7202 1.0000
50.0941 10.7628 13.7290 1.0000
50.0941 10.9196 13.7379 1.0000
50.0941 11.2338 13.7560 1.0000
50.0941 11.3913 13.7653 1.0000
50.0941 11.8649 13.7940 1.0000
50.0941 12.0232 13.8039 1.0000
50.0941 12.4996 13.8342 1.0000
50.0941 12.8183 13.8551 1.0000
50.0941 12.9780 13.8658 1.0000
50.0941 13.1380 13.8766 1.0000
50.0941 -13.3866 13.8937 1.0000
50.0941 -13.0662 13.8717 1.0000
50.0941 -12.9063 13.8610 1.0000
50.0941 -12.7467 13.8504 1.0000
50.0941 -12.5873 13.8399 1.0000
50.0941 -12.4282 13.8296 1.0000
50.0941 -12.2693 13.8194 1.0000
50.0941 -12.1106 13.8093 1.0000
50.0941 -11.9521 13.7994 1.0000
50.0941 -11.7939 13.7897 1.0000
50.0941 -11.4782 13.7705 1.0000
50.0941 -11.3206 13.7611 1.0000
50.0941 -11.1633 13.7519 1.0000
50.0941 -11.0061 13.7428 1.0000
50.0941 -10.8492 13.7339 1.0000
50.0941 -10.6924 13.7250 1.0000
50.0941 -10.5359 13.7163 1.0000
50.0941 -10.0675 13.6911 1.0000
50.0941 -9.7561 13.6749 1.0000
50.0941 -9.6008 13.6670 1.0000
50.0941 -9.4455 13.6592 1.0000
50.0941 -9.2905 13.6516 1.0000
50.0941 -8.9809 13.6367 1.0000
50.0941 -8.8264 13.6294 1.0000
50.0941 -8.5178 13.6153 1.0000
50.0941 -8.3637 13.6085 1.0000
50.0941 -8.2098 13.6017 1.0000
50.0941 -8.0561 13.5951 1.0000
50.0941 -7.5957 13.5761 1.0000
50.0941 -7.4425 13.5700 1.0000
50.0941 -7.2895 13.5640 1.0000
50.0941 -7.1366 13.5582 1.0000
50.0941 -6.9838 13.5525 1.0000
50.0940 -6.8311 13.5469 1.0000
50.0941 -6.5262 13.5361 1.0000
50.0940 -6.0696 13.5208 1.0000
50.0941 -5.4625 13.5022 1.0000
50.0941 -5.3110 13.4979 1.0000
50.0941 -5.1595 13.4937 1.0000
50.0941 -5.0082 13.4896 1.0000
50.0940 -4.8570 13.4856 1.0000
50.0940 -4.7058 13.4817 1.0000
50.0941 -4.5547 13.4780 1.0000
50.0941 -4.2528 13.4709 1.0000
50.0941 -3.1984 13.4500 1.0000
50.0941 -1.9966 13.4333 1.0000
50.0941 -1.8466 13.4318 1.0000
50.0941 -1.3968 13.4279 1.0000
50.0941 -1.2468 13.4268 1.0000
50.0941 -0.7972 13.4244 1.0000
50.0941 -0.6474 13.4238 1.0000
50.0941 -0.3477 13.4230 1.0000
50.0941 -0.1979 13.4228 1.0000
50.0941 -0.0481 13.4227 1.0000
50.0941 0.2515 13.4228 1.0000
50.0941 0.5511 13.4235 1.0000
50.0941 0.8508 13.4246 1.0000
50.0941 1.0007 13.4253 1.0000
50.0941 1.4504 13.4283 1.0000
50.0941 1.7502 13.4309 1.0000
50.0941 1.9002 13.4323 1.0000
50.0941 2.0503 13.4339 1.0000
50.0941 2.2003 13.4356 1.0000
50.0941 2.3504 13.4374 1.0000
50.0941 2.6508 13.4414 1.0000
50.0941 2.8011 13.4436 1.0000
50.0941 2.9513 13.4459 1.0000
50.0941 3.1017 13.4484 1.0000
50.0941 3.2521 13.4509 1.0000
50.0941 3.5531 13.4564 1.0000
50.0941 3.7037 13.4593 1.0000
50.0941 3.8543 13.4623 1.0000
50.0941 4.0050 13.4655 1.0000
50.0941 4.6087 13.4794 1.0000
50.0941 4.9111 13.4870 1.0000
50.0941 5.0623 13.4910 1.0000
50.0941 5.2137 13.4952 1.0000
50.0941 5.3652 13.4994 1.0000
50.0941 5.6684 13.5083 1.0000
50.0941 5.9720 13.5177 1.0000
50.0941 6.1241 13.5226 1.0000
50.0941 6.2761 13.5276 1.0000
50.0941 6.4284 13.5327 1.0000
50.0941 6.7331 13.5434 1.0000
50.0941 6.8857 13.5489 1.0000
50.0940 -5.5864 12.5974 1.0000
50.0940 -5.4348 12.5933 1.0000
50.0940 -5.2833 12.5892 1.0000
50.0940 -5.1319 12.5853 1.0000
50.0940 -4.5271 12.5708 1.0000
50.0940 -4.0743 12.5611 1.0000
50.0940 -3.9236 12.5581 1.0000
50.0940 -3.4717 12.5498 1.0000
50.0940 -3.3212 12.5473 1.0000
50.0940 -3.1708 12.5449 1.0000
50.0940 -2.7198 12.5382 1.0000
50.0941 -2.2693 12.5326 1.0000
50.0941 -2.1192 12.5310 1.0000
50.0941 -1.8191 12.5281 1.0000
50.0941 -1.6691 12.5267 1.0000
50.0941 -1.3693 12.5245 1.0000
50.0941 -1.2194 12.5235 1.0000
50.0941 -0.6200 12.5208 1.0000
50.0941 -0.4702 12.5204 1.0000
50.0941 -0.3203 12.5201 1.0000
50.0941 -0.1705 12.5199 1.0000
50.0941 0.1291 12.5198 1.0000
50.0941 0.4287 12.5203 1.0000
50.0941 0.5785 12.5206 1.0000
50.0941 1.0280 12.5224 1.0000
50.0941 1.1779 12.5233 1.0000
50.0941 1.3278 12.5242 1.0000
50.0941 1.6277 12.5264 1.0000
50.0941 1.7777 12.5277 1.0000
50.0941 2.2278 12.5322 1.0000
50.0941 2.8285 12.5397 1.0000
50.0941 2.9788 12.5419 1.0000
50.0941 3.4301 12.5491 1.0000
50.0941 3.5806 12.5517 1.0000
50.0941 3.8819 12.5573 1.0000
50.0941 4.0326 12.5603 1.0000
50.0941 4.3343 12.5666 1.0000
50.0941 4.4853 12.5699 1.0000
50.0941 4.9387 12.5805 1.0000
50.0941 5.0900 12.5843 1.0000
50.0941 5.6962 12.6005 1.0000
50.0941 5.8479 12.6048 1.0000
50.0941 5.9998 12.6093 1.0000
50.0941 6.1519 12.6139 1.0000
50.0941 6.4562 12.6234 1.0000
50.0941 6.6086 12.6283 1.0000
50.0941 6.7610 12.6333 1.0000
50.0941 7.0663 12.6438 1.0000
50.0941 7.3722 12.6547 1.0000
50.0941 7.5253 12.6603 1.0000
50.0941 7.9855 12.6779 1.0000
50.0941 8.1391 12.6840 1.0000
50.0941 8.4470 12.6966 1.0000
50.0941 8.7554 12.7096 1.0000
50.0941 9.2193 12.7301 1.0000
50.0941 9.6847 12.7516 1.0000
50.0941 9.8402 12.7591 1.0000
50.0941 9.9959 12.7666 1.0000
50.0941 10.1517 12.7743 1.0000
50.0941 10.3077 12.7821 1.0000
50.0941 10.4640 12.7900 1.0000
50.0941 10.6204 12.7981 1.0000
50.0941 11.2482 12.8315 1.0000
50.0941 11.4057 12.8402 1.0000
50.0941 11.7212 12.8580 1.0000
50.0941 12.3551 12.8950 1.0000
50.0941 12.8329 12.9241 1.0000
50.0941 12.9927 12.9341 1.0000
50.0941 13.3129 12.9544 1.0000
50.0941 -13.3720 12.9582 1.0000
50.0941 -13.0515 12.9378 1.0000
50.0941 -12.5727 12.9081 1.0000
50.0941 -11.9376 12.8704 1.0000
50.0941 -11.7795 12.8613 1.0000
50.0941 -11.4637 12.8435 1.0000
50.0941 -10.8348 12.8093 1.0000
50.0941 -10.6781 12.8011 1.0000
50.0941 -10.5216 12.7930 1.0000
50.0941 -10.2091 12.7772 1.0000
50.0941 -10.0532 12.7694 1.0000
50.0941 -9.8975 12.7618 1.0000
50.0941 -9.7419 12.7544 1.0000
50.0941 -9.5866 12.7470 1.0000
50.0941 -9.4313 12.7398 1.0000
50.0941 -8.8122 12.7121 1.0000
50.0941 -8.5037 12.6989 1.0000
50.0941 -8.3496 12.6925 1.0000
50.0941 -8.1957 12.6863 1.0000
50.0940 -7.1225 12.6457 1.0000
50.0940 -6.8171 12.6352 1.0000
50.0940 -6.6646 12.6301 1.0000
50.0940 -6.5122 12.6251 1.0000
50.0940 -6.3600 12.6203 1.0000
50.0940 -6.2079 12.6156 1.0000
50.0940 -5.7520 12.6021 1.0000
50.0940 -5.4486 12.5936 1.0000
50.0940 -5.2971 12.5896 1.0000
50.0940 -4.9944 12.5819 1.0000
50.0940 -4.6919 12.5746 1.0000
50.0940 -4.5409 12.5711 1.0000
50.0940 -4.3899 12.5678 1.0000
50.0940 -4.2390 12.5645 1.0000
50.0940 -3.9374 12.5584 1.0000
50.0940 -3.6361 12.5527 1.0000
50.0940 -3.4855 12.5501 1.0000
50.0940 -3.3350 12.5475 1.0000
50.0940 -2.8839 12.5405 1.0000
50.0941 -2.5834 12.5364 1.0000
50.0940 -2.2830 12.5328 1.0000
50.0941 -2.1329 12.5311 1.0000
50.0941 -1.9829 12.5296 1.0000
50.0941 -1.8329 12.5282 1.0000
50.0941 -1.6829 12.5269 1.0000
50.0941 -1.5330 12.5257 1.0000
50.0941 -1.3830 12.5246 1.0000
50.0941 -0.9333 12.5220 1.0000
50.0941 -0.7835 12.5213 1.0000
50.0941 -0.4838 12.5204 1.0000
50.0941 -0.3341 12.5201 1.0000
50.0941 -0.1842 12.5199 1.0000
50.0941 -0.0345 12.5198 1.0000
50.0941 0.7146 12.5211 1.0000
50.0941 0.8645 12.5217 1.0000
50.0941 1.1642 12.5232 1.0000
50.0941 1.3141 12.5241 1.0000
50.0941 1.4640 12.5251 1.0000
50.0941 1.6140 12.5263 1.0000
50.0941 1.7640 12.5276 1.0000
50.0941 2.0640 12.5304 1.0000
50.0941 2.5143 12.5356 1.0000
50.0941 2.6645 12.5375 1.0000
50.0941 3.1155 12.5440 1.0000
50.0941 3.2659 12.5464 1.0000
50.0941 3.4163 12.5489 1.0000
50.0941 3.5669 12.5515 1.0000
50.0941 3.8681 12.5571 1.0000
50.0941 4.0188 12.5600 1.0000
50.0941 4.4715 12.5696 1.0000
50.0941 4.6225 12.5730 1.0000
50.0941 4.7737 12.5765 1.0000
50.0941 4.9248 12.5802 1.0000
50.0941 5.0761 12.5839 1.0000
50.0941 5.2275 12.5878 1.0000
50.0941 5.6823 12.6001 1.0000
50.0941 5.8341 12.6044 1.0000
50.0941 6.2900 12.6181 1.0000
50.0941 6.5946 12.6278 1.0000
50.0941 6.7471 12.6329 1.0000
50.0941 6.8996 12.6380 1.0000
50.0941 7.3582 12.6542 1.0000
50.0941 7.6645 12.6655 1.0000
50.0941 8.2789 12.6896 1.0000
50.0941 8.4329 12.6960 1.0000
50.0941 9.0503 12.7225 1.0000
50.0941 9.2051 12.7294 1.0000
50.0941 9.6705 12.7510 1.0000
50.0941 9.9816 12.7659 1.0000
50.0941 10.1375 12.7736 1.0000
50.0941 10.4497 12.7893 1.0000
50.0941 10.9195 12.8138 1.0000
50.0941 11.0766 12.8222 1.0000
50.0941 11.3912 12.8394 1.0000
50.0941 11.7068 12.8571 1.0000
50.0941 11.8649 12.8662 1.0000
50.0941 12.3405 12.8941 1.0000
50.0941 12.4995 12.9037 1.0000
50.0941 13.1380 12.9432 1.0000
50.0941 -12.7467 12.9188 1.0000
50.0941 -12.4282 12.8994 1.0000
50.0941 -11.9521 12.8712 1.0000
50.0941 -11.7939 12.8621 1.0000
50.0941 -11.4781 12.8442 1.0000
50.0941 -11.1632 12.8269 1.0000
50.0941 -11.0061 12.8184 1.0000
50.0941 -10.8492 12.8101 1.0000
50.0941 -10.3796 12.7857 1.0000
50.0941 -8.9809 12.7194 1.0000
50.0941 -8.8264 12.7127 1.0000
50.0941 -8.5178 12.6995 1.0000
50.0941 -8.2098 12.6868 1.0000
50.0940 -7.4425 12.6572 1.0000
50.0940 -7.1365 12.6462 1.0000
50.0940 -6.9838 12.6409 1.0000
50.0940 -6.8311 12.6357 1.0000
50.0940 -6.6786 12.6306 1.0000
50.0940 -6.5262 12.6256 1.0000
50.0940 -6.0697 12.6114 1.0000
50.0940 -5.9177 12.6069 1.0000
50.0940 -5.6142 12.5982 1.0000
50.0940 -5.3110 12.5900 1.0000
50.0940 -5.1596 12.5860 1.0000
50.0940 -4.8570 12.5785 1.0000
50.0940 -4.7057 12.5749 1.0000
50.0940 -4.5547 12.5714 1.0000
50.0940 -4.4037 12.5681 1.0000
50.0940 -4.2528 12.5648 1.0000
50.0940 -4.1019 12.5617 1.0000
50.0940 -3.4993 12.5503 1.0000
50.0940 -3.3487 12.5477 1.0000
50.0940 -3.1983 12.5453 1.0000
50.0940 -2.2968 12.5330 1.0000
50.0941 -2.1466 12.5313 1.0000
50.0941 -1.9966 12.5297 1.0000
50.0941 -1.5466 12.5258 1.0000
50.0941 -1.3967 12.5247 1.0000
50.0941 -0.9470 12.5220 1.0000
50.0941 -0.6474 12.5208 1.0000
50.0941 -0.3477 12.5201 1.0000
50.0941 -0.0481 12.5198 1.0000
50.0941 0.1017 12.5198 1.0000
50.0941 0.2515 12.5200 1.0000
50.0941 0.5512 12.5206 1.0000
50.0941 1.0006 12.5223 1.0000
50.0941 1.1505 12.5231 1.0000
50.0941 1.4503 12.5250 1.0000
50.0941 2.0503 12.5303 1.0000
50.0941 2.3504 12.5336 1.0000
50.0941 2.5006 12.5354 1.0000
50.0941 2.6508 12.5373 1.0000
50.0941 2.8010 12.5394 1.0000
50.0941 2.9513 12.5415 1.0000
50.0941 3.1017 12.5438 1.0000
50.0941 3.7037 12.5540 1.0000
50.0941 3.8543 12.5568 1.0000
50.0941 4.6087 12.5727 1.0000
50.0941 4.7598 12.5762 1.0000
50.0941 5.0623 12.5836 1.0000
50.0941 5.3652 12.5914 1.0000
50.0941 5.5167 12.5955 1.0000
50.0941 5.6684 12.5997 1.0000
50.0941 5.8202 12.6040 1.0000
50.0941 5.9720 12.6085 1.0000
50.0941 6.1240 12.6130 1.0000
50.0941 6.2761 12.6177 1.0000
50.0941 6.4284 12.6225 1.0000
50.0941 6.7331 12.6324 1.0000
50.0941 7.0384 12.6428 1.0000
50.0940 -5.7381 11.7006 1.0000
50.0941 -5.5864 11.6966 1.0000
50.0941 -5.4348 11.6927 1.0000
50.0941 -4.9805 11.6818 1.0000
50.0940 -4.6781 11.6751 1.0000
50.0940 -4.5271 11.6719 1.0000
50.0940 -4.2252 11.6658 1.0000
50.0940 -4.0744 11.6629 1.0000
50.0940 -3.7729 11.6575 1.0000
50.0940 -3.4717 11.6524 1.0000
50.0940 -2.5696 11.6398 1.0000
50.0940 -2.4195 11.6381 1.0000
50.0940 -1.8192 11.6322 1.0000
50.0941 -1.5193 11.6299 1.0000
50.0940 -1.3693 11.6289 1.0000
50.0941 -1.0695 11.6272 1.0000
50.0940 -0.9196 11.6265 1.0000
50.0940 -0.7698 11.6259 1.0000
50.0940 -0.6200 11.6254 1.0000
50.0940 -0.4701 11.6251 1.0000
50.0940 -0.1705 11.6246 1.0000
50.0941 -0.0207 11.6245 1.0000
50.0941 0.7283 11.6258 1.0000
50.0941 0.8782 11.6263 1.0000
50.0941 1.0280 11.6270 1.0000
50.0941 1.1779 11.6278 1.0000
50.0940 1.4777 11.6296 1.0000
50.0941 1.9276 11.6331 1.0000
50.0941 2.0777 11.6345 1.0000
50.0940 2.2278 11.6360 1.0000
50.0941 2.3779 11.6376 1.0000
50.0940 2.5280 11.6393 1.0000
50.0940 2.6782 11.6411 1.0000
50.0940 2.8285 11.6431 1.0000
50.0941 3.1291 11.6472 1.0000
50.0940 3.4300 11.6518 1.0000
50.0940 3.5806 11.6542 1.0000
50.0940 3.7312 11.6567 1.0000
50.0940 4.0326 11.6621 1.0000
50.0940 4.1834 11.6650 1.0000
50.0940 4.3343 11.6680 1.0000
50.0940 4.4853 11.6710 1.0000
50.0941 4.7875 11.6775 1.0000
50.0941 4.9387 11.6809 1.0000
50.0941 5.0900 11.6844 1.0000
50.0941 5.5445 11.6955 1.0000
50.0941 5.8480 11.7035 1.0000
50.0941 5.9998 11.7076 1.0000
50.0941 6.6086 11.7253 1.0000
50.0941 6.9136 11.7347 1.0000
50.0941 7.0663 11.7396 1.0000
50.0941 7.3722 11.7498 1.0000
50.0941 7.5253 11.7550 1.0000
50.0941 7.6785 11.7603 1.0000
50.0941 7.8320 11.7658 1.0000
50.0941 8.1391 11.7770 1.0000
50.0941 8.6011 11.7946 1.0000
50.0941 8.7554 11.8008 1.0000
50.0941 8.9098 11.8070 1.0000
50.0941 9.0645 11.8133 1.0000
50.0941 9.2193 11.8198 1.0000
50.0941 9.6847 11.8398 1.0000
50.0941 9.8402 11.8467 1.0000
50.0941 9.9959 11.8537 1.0000
50.0941 10.6205 11.8829 1.0000
50.0941 10.7771 11.8905 1.0000
50.0941 10.9339 11.8982 1.0000
50.0941 11.2482 11.9140 1.0000
50.0941 11.8794 11.9469 1.0000
50.0941 12.5141 11.9818 1.0000
50.0941 12.6734 11.9908 1.0000
50.0941 13.3129 12.0281 1.0000
50.0941 -13.0515 12.0126 1.0000
50.0941 -12.8916 12.0033 1.0000
50.0941 -12.7321 11.9941 1.0000
50.0941 -12.4136 11.9761 1.0000
50.0941 -12.0961 11.9587 1.0000
50.0941 -11.9377 11.9501 1.0000
50.0941 -11.6214 11.9333 1.0000
50.0941 -11.4637 11.9251 1.0000
50.0941 -11.1489 11.9090 1.0000
50.0941 -10.5216 11.8782 1.0000
50.0941 -10.2092 11.8635 1.0000
50.0941 -9.8975 11.8493 1.0000
50.0941 -9.5866 11.8355 1.0000
50.0941 -9.4314 11.8288 1.0000
50.0941 -8.9668 11.8093 1.0000
50.0941 -8.5037 11.7909 1.0000
50.0941 -8.3497 11.7849 1.0000
50.0941 -8.1958 11.7791 1.0000
50.0941 -7.8884 11.7678 1.0000
50.0941 -7.7350 11.7623 1.0000
50.0940 -6.8172 11.7317 1.0000
50.0940 -6.3600 11.7178 1.0000
50.0941 -5.7520 11.7009 1.0000
50.0941 -5.6003 11.6970 1.0000
50.0940 -5.2971 11.6893 1.0000
50.0940 -4.3899 11.6691 1.0000
50.0940 -3.9374 11.6604 1.0000
50.0940 -3.7867 11.6577 1.0000
50.0940 -3.6361 11.6551 1.0000
50.0940 -3.3350 11.6503 1.0000
50.0940 -3.1846 11.6480 1.0000
50.0940 -2.8839 11.6438 1.0000
50.0940 -2.4332 11.6382 1.0000
50.0941 -2.2830 11.6366 1.0000
50.0940 -2.1329 11.6351 1.0000
50.0940 -1.8329 11.6323 1.0000
50.0940 -1.6829 11.6311 1.0000
50.0941 -1.3830 11.6290 1.0000
50.0941 -1.2331 11.6281 1.0000
50.0940 -1.0832 11.6273 1.0000
50.0941 -0.4839 11.6251 1.0000
50.0941 -0.1843 11.6246 1.0000
50.0941 0.1154 11.6246 1.0000
50.0940 0.2652 11.6247 1.0000
50.0940 0.5648 11.6253 1.0000
50.0940 0.8645 11.6263 1.0000
50.0941 1.4640 11.6295 1.0000
50.0940 2.2140 11.6359 1.0000
50.0941 2.6645 11.6410 1.0000
50.0940 2.8148 11.6429 1.0000
50.0941 2.9650 11.6449 1.0000
50.0941 3.1154 11.6470 1.0000
50.0940 3.7174 11.6565 1.0000
50.0940 4.0188 11.6619 1.0000
50.0940 4.4715 11.6708 1.0000
50.0941 4.7737 11.6772 1.0000
50.0941 5.0762 11.6841 1.0000
50.0941 5.2275 11.6877 1.0000
50.0941 5.3790 11.6914 1.0000
50.0941 5.5306 11.6952 1.0000
50.0941 5.6823 11.6991 1.0000
50.0941 5.8341 11.7031 1.0000
50.0941 6.4423 11.7203 1.0000
50.0941 6.5946 11.7248 1.0000
50.0941 6.8997 11.7343 1.0000
50.0941 7.0524 11.7392 1.0000
50.0941 7.6645 11.7598 1.0000
50.0941 7.8179 11.7653 1.0000
50.0941 8.1251 11.7765 1.0000
50.0941 8.5870 11.7941 1.0000
50.0941 8.7413 11.8002 1.0000
50.0941 8.8957 11.8064 1.0000
50.0941 9.2052 11.8192 1.0000
50.0941 9.3601 11.8257 1.0000
50.0941 9.5152 11.8324 1.0000
50.0941 9.8260 11.8461 1.0000
50.0941 9.9816 11.8531 1.0000
50.0941 10.2935 11.8674 1.0000
50.0941 10.4497 11.8748 1.0000
50.0941 10.9196 11.8975 1.0000
50.0941 11.0766 11.9053 1.0000
50.0941 11.2338 11.9133 1.0000
50.0941 11.3912 11.9213 1.0000
50.0941 11.8649 11.9462 1.0000
50.0941 12.0232 11.9547 1.0000
50.0941 12.3405 11.9721 1.0000
50.0941 12.4996 11.9810 1.0000
50.0941 12.6588 11.9900 1.0000
50.0941 12.8183 11.9991 1.0000
50.0941 12.9780 12.0083 1.0000
50.0941 13.2982 12.0272 1.0000
50.0941 -13.0662 12.0135 1.0000
50.0941 -12.7467 11.9950 1.0000
50.0941 -12.5873 11.9859 1.0000
50.0941 -12.4281 11.9770 1.0000
50.0941 -11.9521 11.9509 1.0000
50.0941 -11.4781 11.9258 1.0000
50.0941 -11.3205 11.9177 1.0000
50.0941 -11.1632 11.9097 1.0000
50.0941 -11.0061 11.9018 1.0000
50.0941 -10.6924 11.8864 1.0000
50.0941 -10.5359 11.8789 1.0000
50.0941 -10.3796 11.8715 1.0000
50.0941 -10.0675 11.8570 1.0000
50.0941 -9.9118 11.8499 1.0000
50.0941 -9.7562 11.8430 1.0000
50.0941 -9.6008 11.8361 1.0000
50.0941 -8.9809 11.8099 1.0000
50.0941 -8.8264 11.8036 1.0000
50.0941 -8.6720 11.7974 1.0000
50.0941 -8.0561 11.7739 1.0000
50.0941 -7.9025 11.7683 1.0000
50.0940 -7.4425 11.7521 1.0000
50.0941 -6.8312 11.7321 1.0000
50.0940 -6.6786 11.7274 1.0000
50.0941 -6.5262 11.7228 1.0000
50.0940 -6.2218 11.7139 1.0000
50.0940 -5.7659 11.7013 1.0000
50.0940 -5.6142 11.6973 1.0000
50.0940 -5.4626 11.6935 1.0000
50.0940 -5.1595 11.6860 1.0000
50.0941 -4.8570 11.6791 1.0000
50.0940 -4.7058 11.6757 1.0000
50.0940 -4.4037 11.6694 1.0000
50.0940 -4.2528 11.6664 1.0000
50.0940 -3.9512 11.6606 1.0000
50.0940 -3.8005 11.6579 1.0000
50.0940 -3.4993 11.6529 1.0000
50.0940 -3.3488 11.6505 1.0000
50.0940 -2.8976 11.6440 1.0000
50.0940 -2.4469 11.6384 1.0000
50.0941 -2.1467 11.6352 1.0000
50.0941 -1.9966 11.6338 1.0000
50.0941 -1.6966 11.6312 1.0000
50.0941 -1.0969 11.6273 1.0000
50.0941 -0.7972 11.6260 1.0000
50.0940 -0.6474 11.6255 1.0000
50.0941 -0.4975 11.6251 1.0000
50.0941 -0.3478 11.6248 1.0000
50.0940 0.2514 11.6247 1.0000
50.0940 0.4013 11.6249 1.0000
50.0941 0.5511 11.6252 1.0000
50.0941 0.7009 11.6257 1.0000
50.0940 1.1505 11.6276 1.0000
50.0941 1.3004 11.6285 1.0000
50.0941 1.6002 11.6305 1.0000
50.0940 1.9002 11.6329 1.0000
50.0941 2.2003 11.6358 1.0000
50.0940 2.8011 11.6427 1.0000
50.0941 3.2521 11.6490 1.0000
50.0940 3.4025 11.6513 1.0000
50.0940 3.5530 11.6537 1.0000
50.0940 3.7036 11.6563 1.0000
50.0940 3.8543 11.6589 1.0000
50.0940 4.0050 11.6616 1.0000
50.0940 4.4577 11.6705 1.0000
50.0941 4.9110 11.6803 1.0000
50.0941 5.0623 11.6838 1.0000
50.0941 5.3652 11.6910 1.0000
50.0941 5.6684 11.6987 1.0000
50.0941 5.8202 11.7027 1.0000
50.0941 6.1241 11.7111 1.0000
50.0941 6.4284 11.7199 1.0000
50.0941 6.5807 11.7244 1.0000
50.0941 6.7331 11.7291 1.0000
50.0939 -5.7381 10.8065 1.0000
50.0939 -5.5864 10.8028 1.0000
50.0939 -5.4348 10.7993 1.0000
50.0940 -5.2833 10.7958 1.0000
50.0939 -4.9805 10.7892 1.0000
50.0940 -4.5271 10.7800 1.0000
50.0939 -4.0743 10.7717 1.0000
50.0939 -3.9236 10.7691 1.0000
50.0940 -3.6223 10.7643 1.0000
50.0940 -3.4718 10.7620 1.0000
50.0939 -3.3212 10.7598 1.0000
50.0939 -3.0204 10.7558 1.0000
50.0939 -2.8701 10.7539 1.0000
50.0941 -2.5696 10.7504 1.0000
50.0940 -2.2693 10.7473 1.0000
50.0941 -1.9692 10.7446 1.0000
50.0940 -1.5192 10.7412 1.0000
50.0941 -1.2194 10.7394 1.0000
50.0941 -0.9197 10.7381 1.0000
50.0941 -0.7698 10.7375 1.0000
50.0941 -0.6200 10.7371 1.0000
50.0941 -0.4702 10.7367 1.0000
50.0940 0.1291 10.7363 1.0000
50.0940 0.2789 10.7364 1.0000
50.0940 0.5785 10.7370 1.0000
50.0940 0.7283 10.7374 1.0000
50.0940 1.1779 10.7392 1.0000
50.0941 1.6277 10.7419 1.0000
50.0940 2.5280 10.7499 1.0000
50.0941 2.8285 10.7534 1.0000
50.0940 3.2796 10.7593 1.0000
50.0940 3.8819 10.7685 1.0000
50.0940 4.0326 10.7710 1.0000
50.0941 4.6363 10.7822 1.0000
50.0940 4.7874 10.7852 1.0000
50.0940 4.9387 10.7883 1.0000
50.0940 5.0900 10.7916 1.0000
50.0941 5.2413 10.7949 1.0000
50.0940 5.5445 10.8018 1.0000
50.0940 5.8479 10.8092 1.0000
50.0940 5.9998 10.8130 1.0000
50.0940 6.4562 10.8251 1.0000
50.0940 6.6085 10.8293 1.0000
50.0941 6.7610 10.8336 1.0000
50.0940 6.9136 10.8380 1.0000
50.0940 7.2191 10.8472 1.0000
50.0940 7.6786 10.8617 1.0000
50.0941 8.1391 10.8771 1.0000
50.0941 8.2930 10.8824 1.0000
50.0941 8.9098 10.9048 1.0000
50.0940 9.0645 10.9106 1.0000
50.0941 9.2193 10.9166 1.0000
50.0940 9.5294 10.9288 1.0000
50.0940 9.6847 10.9351 1.0000
50.0941 10.1517 10.9545 1.0000
50.0941 10.3078 10.9612 1.0000
50.0941 10.4640 10.9680 1.0000
50.0940 11.0910 10.9963 1.0000
50.0940 11.8794 11.0340 1.0000
50.0941 12.8329 11.0830 1.0000
50.0941 12.9927 11.0915 1.0000
50.0940 13.1526 11.1002 1.0000
50.0941 -13.2116 11.1034 1.0000
50.0941 -13.0515 11.0947 1.0000
50.0941 -12.7321 11.0776 1.0000
50.0941 -12.5727 11.0693 1.0000
50.0941 -12.0961 11.0448 1.0000
50.0941 -11.9376 11.0369 1.0000
50.0941 -11.7795 11.0291 1.0000
50.0941 -11.6215 11.0214 1.0000
50.0941 -11.4637 11.0138 1.0000
50.0941 -11.3061 11.0063 1.0000
50.0941 -10.8348 10.9845 1.0000
50.0941 -10.6781 10.9775 1.0000
50.0941 -10.5216 10.9705 1.0000
50.0941 -10.3653 10.9637 1.0000
50.0941 -10.2091 10.9570 1.0000
50.0941 -9.7419 10.9374 1.0000
50.0941 -9.5865 10.9311 1.0000
50.0941 -9.4313 10.9249 1.0000
50.0941 -9.1214 10.9128 1.0000
50.0941 -8.8122 10.9011 1.0000
50.0941 -8.6579 10.8955 1.0000
50.0941 -8.3496 10.8844 1.0000
50.0941 -8.0420 10.8738 1.0000
50.0941 -7.8884 10.8686 1.0000
50.0941 -7.7350 10.8635 1.0000
50.0941 -7.5816 10.8586 1.0000
50.0940 -7.2755 10.8489 1.0000
50.0940 -7.1226 10.8442 1.0000
50.0940 -6.6647 10.8309 1.0000
50.0940 -6.3600 10.8225 1.0000
50.0940 -6.2079 10.8184 1.0000
50.0940 -6.0558 10.8144 1.0000
50.0939 -5.7520 10.8068 1.0000
50.0939 -5.6003 10.8032 1.0000
50.0939 -5.4487 10.7996 1.0000
50.0940 -5.2971 10.7961 1.0000
50.0940 -4.6920 10.7833 1.0000
50.0939 -4.5409 10.7803 1.0000
50.0940 -4.2390 10.7746 1.0000
50.0940 -3.0342 10.7559 1.0000
50.0939 -2.8839 10.7540 1.0000
50.0939 -2.1329 10.7460 1.0000
50.0940 -1.8329 10.7435 1.0000
50.0940 -1.6829 10.7423 1.0000
50.0940 -1.3830 10.7404 1.0000
50.0941 -1.2331 10.7395 1.0000
50.0941 -1.0832 10.7388 1.0000
50.0941 -0.7835 10.7376 1.0000
50.0941 -0.3341 10.7365 1.0000
50.0941 0.1153 10.7363 1.0000
50.0940 0.4150 10.7366 1.0000
50.0940 1.3141 10.7400 1.0000
50.0940 1.6140 10.7418 1.0000
50.0940 1.7639 10.7429 1.0000
50.0940 2.3641 10.7482 1.0000
50.0940 2.5143 10.7498 1.0000
50.0941 2.6645 10.7514 1.0000
50.0941 3.5668 10.7635 1.0000
50.0941 3.7174 10.7658 1.0000
50.0940 3.8681 10.7682 1.0000
50.0940 4.4715 10.7790 1.0000
50.0940 5.0761 10.7913 1.0000
50.0940 5.2275 10.7946 1.0000
50.0941 5.3790 10.7980 1.0000
50.0941 5.5305 10.8015 1.0000
50.0941 5.6822 10.8051 1.0000
50.0940 5.9859 10.8126 1.0000
50.0941 6.1379 10.8166 1.0000
50.0941 6.2900 10.8206 1.0000
50.0941 6.4422 10.8247 1.0000
50.0941 6.8996 10.8376 1.0000
50.0940 7.2052 10.8468 1.0000
50.0940 7.3582 10.8515 1.0000
50.0941 7.5113 10.8563 1.0000
50.0941 7.6645 10.8612 1.0000
50.0941 7.8179 10.8662 1.0000
50.0940 7.9714 10.8714 1.0000
50.0941 8.4329 10.8873 1.0000
50.0941 8.5870 10.8929 1.0000
50.0941 8.7413 10.8985 1.0000
50.0941 8.8957 10.9042 1.0000
50.0941 9.2051 10.9160 1.0000
50.0940 9.5152 10.9282 1.0000
50.0941 9.6705 10.9345 1.0000
50.0941 9.8259 10.9409 1.0000
50.0940 10.1375 10.9539 1.0000
50.0941 10.6061 10.9743 1.0000
50.0941 10.7628 10.9813 1.0000
50.0941 10.9196 10.9884 1.0000
50.0941 11.7068 11.0256 1.0000
50.0941 12.0232 11.0412 1.0000
50.0940 12.1818 11.0492 1.0000
50.0941 12.4995 11.0654 1.0000
50.0941 12.6588 11.0738 1.0000
50.0941 12.9780 11.0907 1.0000
50.0941 -13.3866 11.1130 1.0000
50.0941 -13.2262 11.1042 1.0000
50.0941 -13.0661 11.0955 1.0000
50.0941 -12.9063 11.0869 1.0000
50.0941 -12.5873 11.0700 1.0000
50.0941 -12.4281 11.0618 1.0000
50.0941 -12.1105 11.0456 1.0000
50.0941 -11.7939 11.0298 1.0000
50.0941 -10.8491 10.9852 1.0000
50.0941 -10.6924 10.9781 1.0000
50.0941 -10.5359 10.9712 1.0000
50.0941 -10.3795 10.9643 1.0000
50.0941 -10.2234 10.9576 1.0000
50.0941 -10.0675 10.9509 1.0000
50.0941 -9.7561 10.9380 1.0000
50.0941 -9.4455 10.9255 1.0000
50.0941 -9.1355 10.9133 1.0000
50.0941 -8.9809 10.9075 1.0000
50.0941 -8.8263 10.9017 1.0000
50.0941 -8.0561 10.8742 1.0000
50.0941 -7.7490 10.8640 1.0000
50.0941 -7.5957 10.8590 1.0000
50.0940 -7.4425 10.8541 1.0000
50.0939 -7.2895 10.8493 1.0000
50.0940 -7.1366 10.8447 1.0000
50.0939 -6.5262 10.8270 1.0000
50.0940 -6.3739 10.8228 1.0000
50.0939 -6.2218 10.8188 1.0000
50.0940 -5.9178 10.8109 1.0000
50.0940 -5.3110 10.7964 1.0000
50.0940 -5.0082 10.7898 1.0000
50.0940 -4.7058 10.7835 1.0000
50.0939 -4.4037 10.7777 1.0000
50.0940 -4.2528 10.7749 1.0000
50.0940 -3.3488 10.7602 1.0000
50.0940 -3.0479 10.7561 1.0000
50.0940 -2.7473 10.7524 1.0000
50.0939 -2.5971 10.7507 1.0000
50.0940 -2.4469 10.7491 1.0000
50.0940 -1.9966 10.7448 1.0000
50.0940 -1.8466 10.7436 1.0000
50.0941 -1.2468 10.7396 1.0000
50.0940 -0.7972 10.7376 1.0000
50.0941 -0.1980 10.7364 1.0000
50.0940 -0.0481 10.7363 1.0000
50.0940 0.2515 10.7364 1.0000
50.0940 0.5511 10.7369 1.0000
50.0940 0.7009 10.7373 1.0000
50.0941 1.0006 10.7384 1.0000
50.0941 1.3004 10.7399 1.0000
50.0940 1.4503 10.7408 1.0000
50.0941 1.9002 10.7440 1.0000
50.0941 2.0502 10.7453 1.0000
50.0941 2.6508 10.7513 1.0000
50.0941 2.9513 10.7549 1.0000
50.0940 3.1017 10.7568 1.0000
50.0941 3.4025 10.7610 1.0000
50.0941 3.5530 10.7632 1.0000
50.0941 3.7037 10.7656 1.0000
50.0941 3.8543 10.7680 1.0000
50.0941 4.0050 10.7705 1.0000
50.0940 4.3067 10.7759 1.0000
50.0940 4.4577 10.7787 1.0000
50.0941 4.7598 10.7846 1.0000
50.0941 5.3651 10.7977 1.0000
50.0940 5.5167 10.8012 1.0000
50.0941 5.9720 10.8123 1.0000
50.0941 6.1240 10.8162 1.0000
50.0941 6.2761 10.8202 1.0000
50.0941 6.4283 10.8243 1.0000
50.0941 6.5806 10.8285 1.0000
50.0940 6.7331 10.8328 1.0000
50.0939 -5.5864 9.9155 1.0000
50.0939 -5.4348 9.9122 1.0000
50.0939 -5.2833 9.9091 1.0000
50.0939 -4.9805 9.9030 1.0000
50.0939 -4.0744 9.8869 1.0000
50.0939 -3.6223 9.8801 1.0000
50.0939 -3.4717 9.8780 1.0000
50.0939 -3.3212 9.8760 1.0000
50.0939 -3.0205 9.8723 1.0000
50.0939 -2.5696 9.8674 1.0000
50.0940 -2.2693 9.8645 1.0000
50.0940 -1.8191 9.8609 1.0000
50.0940 -1.6691 9.8599 1.0000
50.0940 -1.5192 9.8589 1.0000
50.0940 0.2789 9.8546 1.0000
50.0940 0.4287 9.8548 1.0000
50.0940 0.5785 9.8551 1.0000
50.0940 0.8782 9.8559 1.0000
50.0940 1.7777 9.8606 1.0000
50.0940 1.9277 9.8617 1.0000
50.0940 2.5281 9.8669 1.0000
50.0940 2.8286 9.8701 1.0000
50.0940 3.4301 9.8775 1.0000
50.0940 3.5806 9.8796 1.0000
50.0940 3.7312 9.8817 1.0000
50.0940 3.8819 9.8839 1.0000
50.0940 4.1834 9.8887 1.0000
50.0940 4.6363 9.8965 1.0000
50.0940 4.9387 9.9022 1.0000
50.0940 5.0900 9.9051 1.0000
50.0940 5.2414 9.9082 1.0000
50.0940 5.3929 9.9113 1.0000
50.0940 5.8480 9.9213 1.0000
50.0940 5.9998 9.9248 1.0000
50.0940 6.3040 9.9321 1.0000
50.0940 6.4562 9.9359 1.0000
50.0940 6.7610 9.9438 1.0000
50.0940 6.9136 9.9478 1.0000
50.0940 7.2192 9.9562 1.0000
50.0940 7.3721 9.9605 1.0000
50.0940 7.6785 9.9695 1.0000
50.0940 7.8319 9.9741 1.0000
50.0940 8.2930 9.9885 1.0000
50.0940 8.4470 9.9935 1.0000
50.0940 8.6011 9.9986 1.0000
50.0940 9.2193 10.0199 1.0000
50.0941 9.5293 10.0311 1.0000
50.0941 9.6847 10.0369 1.0000
50.0941 9.8402 10.0427 1.0000
50.0941 10.1517 10.0547 1.0000
50.0941 10.4640 10.0671 1.0000
50.0941 10.6205 10.0734 1.0000
50.0941 10.7771 10.0799 1.0000
50.0941 11.4057 10.1066 1.0000
50.0941 11.5634 10.1135 1.0000
50.0941 11.7212 10.1206 1.0000
50.0941 12.1962 10.1423 1.0000
50.0941 12.3551 10.1497 1.0000
50.0941 13.3129 10.1965 1.0000
50.0941 -13.3720 10.1995 1.0000
50.0940 -13.2116 10.1914 1.0000
50.0941 -12.7321 10.1677 1.0000
50.0940 -12.5727 10.1601 1.0000
50.0940 -12.2547 10.1450 1.0000
50.0940 -11.9376 10.1304 1.0000
50.0940 -11.7794 10.1232 1.0000
50.0941 -11.6214 10.1161 1.0000
50.0940 -11.4637 10.1092 1.0000
50.0941 -11.3061 10.1023 1.0000
50.0940 -10.8348 10.0823 1.0000
50.0941 -10.6781 10.0758 1.0000
50.0940 -10.2091 10.0570 1.0000
50.0940 -10.0532 10.0509 1.0000
50.0941 -9.5865 10.0332 1.0000
50.0941 -9.2763 10.0219 1.0000
50.0940 -9.1214 10.0164 1.0000
50.0941 -8.9668 10.0110 1.0000
50.0940 -8.8123 10.0057 1.0000
50.0941 -8.1958 9.9854 1.0000
50.0941 -7.7350 9.9712 1.0000
50.0941 -7.5817 9.9666 1.0000
50.0939 -7.4285 9.9622 1.0000
50.0939 -7.1226 9.9535 1.0000
50.0939 -6.9698 9.9493 1.0000
50.0939 -6.5123 9.9373 1.0000
50.0939 -6.3600 9.9335 1.0000
50.0939 -6.2078 9.9298 1.0000
50.0939 -6.0558 9.9262 1.0000
50.0939 -5.4487 9.9125 1.0000
50.0939 -5.1457 9.9063 1.0000
50.0939 -4.8431 9.9004 1.0000
50.0939 -4.6920 9.8975 1.0000
50.0939 -4.5409 9.8948 1.0000
50.0939 -4.3899 9.8922 1.0000
50.0939 -4.2390 9.8896 1.0000
50.0939 -4.0881 9.8872 1.0000
50.0939 -3.9374 9.8848 1.0000
50.0939 -3.7867 9.8825 1.0000
50.0939 -3.4855 9.8782 1.0000
50.0939 -3.1846 9.8743 1.0000
50.0939 -2.8838 9.8707 1.0000
50.0939 -2.7336 9.8691 1.0000
50.0939 -2.2830 9.8646 1.0000
50.0940 -1.5329 9.8590 1.0000
50.0940 -1.2330 9.8574 1.0000
50.0940 -1.0832 9.8567 1.0000
50.0940 -0.6336 9.8552 1.0000
50.0940 -0.4838 9.8549 1.0000
50.0940 -0.0344 9.8544 1.0000
50.0940 0.1154 9.8544 1.0000
50.0940 0.2652 9.8545 1.0000
50.0940 0.4150 9.8547 1.0000
50.0940 1.0144 9.8564 1.0000
50.0940 1.3141 9.8578 1.0000
50.0940 1.4641 9.8586 1.0000
50.0940 1.6140 9.8595 1.0000
50.0940 1.9140 9.8616 1.0000
50.0940 2.0640 9.8628 1.0000
50.0940 2.5143 9.8668 1.0000
50.0940 2.6646 9.8683 1.0000
50.0940 2.8148 9.8699 1.0000
50.0940 3.4163 9.8773 1.0000
50.0940 3.7175 9.8815 1.0000
50.0940 3.8681 9.8837 1.0000
50.0940 4.0188 9.8861 1.0000
50.0940 4.1696 9.8885 1.0000
50.0940 4.3205 9.8910 1.0000
50.0940 4.4715 9.8936 1.0000
50.0940 4.7736 9.8991 1.0000
50.0940 4.9248 9.9019 1.0000
50.0940 5.3790 9.9111 1.0000
50.0940 5.5306 9.9143 1.0000
50.0940 5.6823 9.9176 1.0000
50.0940 5.8341 9.9210 1.0000
50.0940 5.9859 9.9245 1.0000
50.0940 6.5946 9.9394 1.0000
50.0940 6.7470 9.9434 1.0000
50.0940 7.0523 9.9516 1.0000
50.0940 7.2052 9.9558 1.0000
50.0940 7.5113 9.9646 1.0000
50.0940 7.8179 9.9737 1.0000
50.0940 8.4329 9.9931 1.0000
50.0940 8.5870 9.9981 1.0000
50.0940 9.2051 10.0194 1.0000
50.0941 9.6705 10.0364 1.0000
50.0941 9.8259 10.0422 1.0000
50.0941 9.9816 10.0481 1.0000
50.0941 10.7627 10.0793 1.0000
50.0941 11.0766 10.0924 1.0000
50.0941 11.2338 10.0992 1.0000
50.0941 11.3912 10.1060 1.0000
50.0941 11.5489 10.1129 1.0000
50.0941 11.8649 10.1271 1.0000
50.0941 12.4995 10.1566 1.0000
50.0941 12.8183 10.1719 1.0000
50.0941 12.9780 10.1797 1.0000
50.0941 13.1380 10.1877 1.0000
50.0941 13.2982 10.1957 1.0000
50.0941 -13.2262 10.1921 1.0000
50.0941 -12.4281 10.1532 1.0000
50.0940 -12.2692 10.1457 1.0000
50.0940 -11.9521 10.1310 1.0000
50.0941 -11.4781 10.1098 1.0000
50.0940 -11.3205 10.1029 1.0000
50.0941 -11.0061 10.0895 1.0000
50.0940 -10.8491 10.0829 1.0000
50.0941 -10.5359 10.0700 1.0000
50.0941 -10.0675 10.0514 1.0000
50.0940 -9.9117 10.0455 1.0000
50.0941 -9.6007 10.0338 1.0000
50.0940 -9.4455 10.0281 1.0000
50.0940 -9.2905 10.0225 1.0000
50.0941 -9.1356 10.0169 1.0000
50.0941 -8.9809 10.0115 1.0000
50.0940 -8.3637 9.9908 1.0000
50.0941 -8.0561 9.9810 1.0000
50.0941 -7.9025 9.9763 1.0000
50.0940 -7.5957 9.9671 1.0000
50.0939 -7.4425 9.9626 1.0000
50.0939 -7.2895 9.9582 1.0000
50.0939 -7.1366 9.9539 1.0000
50.0939 -6.8311 9.9456 1.0000
50.0939 -6.6786 9.9416 1.0000
50.0939 -6.5262 9.9377 1.0000
50.0939 -6.3739 9.9339 1.0000
50.0939 -6.2218 9.9301 1.0000
50.0939 -5.9177 9.9229 1.0000
50.0939 -5.4626 9.9128 1.0000
50.0939 -5.3110 9.9096 1.0000
50.0939 -5.0082 9.9035 1.0000
50.0939 -4.8570 9.9006 1.0000
50.0939 -4.5547 9.8951 1.0000
50.0939 -4.1020 9.8874 1.0000
50.0939 -3.9512 9.8850 1.0000
50.0939 -3.3487 9.8764 1.0000
50.0939 -3.0479 9.8726 1.0000
50.0939 -2.4469 9.8662 1.0000
50.0939 -2.2968 9.8648 1.0000
50.0939 -2.1466 9.8634 1.0000
50.0940 -1.9966 9.8622 1.0000
50.0940 -1.5466 9.8591 1.0000
50.0940 -1.3967 9.8582 1.0000
50.0940 -1.2468 9.8575 1.0000
50.0940 -1.0969 9.8568 1.0000
50.0940 -0.7972 9.8557 1.0000
50.0940 -0.6473 9.8552 1.0000
50.0940 -0.3477 9.8546 1.0000
50.0940 -0.1979 9.8545 1.0000
50.0940 0.2515 9.8545 1.0000
50.0940 0.5511 9.8550 1.0000
50.0940 0.7009 9.8554 1.0000
50.0940 1.3004 9.8577 1.0000
50.0940 1.7502 9.8604 1.0000
50.0940 2.0503 9.8627 1.0000
50.0940 2.6509 9.8682 1.0000
50.0940 3.2521 9.8751 1.0000
50.0940 3.5531 9.8792 1.0000
50.0940 3.8543 9.8835 1.0000
50.0940 4.4577 9.8933 1.0000
50.0940 4.9110 9.9017 1.0000
50.0940 5.0623 9.9046 1.0000
50.0940 5.3652 9.9108 1.0000
50.0940 5.5167 9.9140 1.0000
50.0940 5.9720 9.9242 1.0000
50.0940 6.1240 9.9278 1.0000
50.0940 6.2762 9.9315 1.0000
50.0940 6.4284 9.9352 1.0000
50.0940 7.0384 9.9512 1.0000
50.0940 -5.7382 9.0371 1.0000
50.0939 -5.5864 9.0340 1.0000
50.0939 -4.5271 9.0150 1.0000
50.0939 -3.3213 8.9981 1.0000
50.0939 -2.7199 8.9916 1.0000
50.0940 -2.1192 8.9864 1.0000
50.0940 -1.6692 8.9834 1.0000
50.0940 -1.5192 8.9825 1.0000
50.0940 -1.2194 8.9810 1.0000
50.0940 -1.0695 8.9804 1.0000
50.0940 -0.9196 8.9799 1.0000
50.0940 -0.0207 8.9784 1.0000
50.0940 0.8782 8.9798 1.0000
50.0940 1.0280 8.9803 1.0000
50.0940 1.3278 8.9815 1.0000
50.0940 1.4777 8.9823 1.0000
50.0940 1.6277 8.9831 1.0000
50.0940 2.3779 8.9885 1.0000
50.0940 2.5280 8.9898 1.0000
50.0940 2.6782 8.9912 1.0000
50.0940 2.8286 8.9927 1.0000
50.0940 2.9788 8.9942 1.0000
50.0940 3.2796 8.9976 1.0000
50.0940 3.4301 8.9994 1.0000
50.0940 3.5806 9.0013 1.0000
50.0940 3.8819 9.0053 1.0000
50.0940 4.0326 9.0074 1.0000
50.0940 4.1834 9.0096 1.0000
50.0940 4.4853 9.0143 1.0000
50.0940 4.6363 9.0168 1.0000
50.0940 4.7875 9.0193 1.0000
50.0940 4.9386 9.0219 1.0000
50.0940 5.0900 9.0246 1.0000
50.0940 5.3929 9.0303 1.0000
50.0940 5.6961 9.0362 1.0000
50.0940 5.8479 9.0394 1.0000
50.0940 5.9998 9.0426 1.0000
50.0940 6.1518 9.0458 1.0000
50.0940 6.6085 9.0562 1.0000
50.0940 6.9136 9.0635 1.0000
50.0940 7.5253 9.0791 1.0000
50.0940 7.9854 9.0918 1.0000
50.0940 8.2929 9.1006 1.0000
50.0940 8.7554 9.1145 1.0000
50.0940 8.9098 9.1193 1.0000
50.0940 9.2193 9.1292 1.0000
50.0940 9.5293 9.1394 1.0000
50.0940 9.6846 9.1446 1.0000
50.0940 9.8401 9.1500 1.0000
50.0940 9.9958 9.1554 1.0000
50.0940 10.6204 9.1780 1.0000
50.0940 10.7771 9.1838 1.0000
50.0940 11.0910 9.1958 1.0000
50.0940 11.2482 9.2019 1.0000
50.0940 11.4057 9.2082 1.0000
50.0940 11.7212 9.2209 1.0000
50.0940 12.0377 9.2340 1.0000
50.0940 12.1963 9.2407 1.0000
50.0940 12.3551 9.2474 1.0000
50.0940 12.5141 9.2543 1.0000
50.0940 12.8329 9.2683 1.0000
50.0940 13.1527 9.2827 1.0000
50.0941 -13.3720 9.2928 1.0000
50.0941 -13.0515 9.2781 1.0000
50.0941 -12.8916 9.2709 1.0000
50.0941 -12.5727 9.2569 1.0000
50.0941 -12.2547 9.2432 1.0000
50.0941 -11.6215 9.2168 1.0000
50.0941 -11.4637 9.2105 1.0000
50.0940 -11.1488 9.1981 1.0000
50.0940 -10.6781 9.1801 1.0000
50.0940 -10.5216 9.1743 1.0000
50.0940 -10.3653 9.1686 1.0000
50.0940 -10.2091 9.1630 1.0000
50.0940 -9.7419 9.1466 1.0000
50.0940 -9.2763 9.1310 1.0000
50.0940 -9.1214 9.1260 1.0000
50.0940 -8.6579 9.1115 1.0000
50.0940 -8.5037 9.1068 1.0000
50.0940 -8.3496 9.1023 1.0000
50.0940 -8.1957 9.0978 1.0000
50.0940 -8.0420 9.0934 1.0000
50.0940 -7.8884 9.0890 1.0000
50.0940 -7.4286 9.0766 1.0000
50.0939 -7.1226 9.0687 1.0000
50.0939 -6.9698 9.0649 1.0000
50.0939 -6.8172 9.0611 1.0000
50.0939 -6.5123 9.0539 1.0000
50.0939 -6.3600 9.0505 1.0000
50.0939 -6.2079 9.0471 1.0000
50.0939 -5.7520 9.0374 1.0000
50.0940 -5.4487 9.0313 1.0000
50.0939 -4.9944 9.0229 1.0000
50.0939 -3.9374 9.0061 1.0000
50.0939 -3.1846 8.9965 1.0000
50.0939 -3.0342 8.9948 1.0000
50.0940 -2.5833 8.9903 1.0000
50.0940 -2.1330 8.9865 1.0000
50.0940 -1.8329 8.9844 1.0000
50.0940 -1.6829 8.9835 1.0000
50.0940 -1.5329 8.9826 1.0000
50.0940 -1.3830 8.9818 1.0000
50.0940 -1.2331 8.9811 1.0000
50.0940 -1.0832 8.9805 1.0000
50.0940 -0.6337 8.9791 1.0000
50.0940 -0.4838 8.9788 1.0000
50.0940 -0.1842 8.9785 1.0000
50.0940 0.2652 8.9785 1.0000
50.0940 0.4150 8.9787 1.0000
50.0940 0.5648 8.9790 1.0000
50.0940 0.8645 8.9797 1.0000
50.0940 1.1642 8.9808 1.0000
50.0940 1.4640 8.9822 1.0000
50.0940 1.6139 8.9831 1.0000
50.0940 1.7639 8.9840 1.0000
50.0940 1.9139 8.9849 1.0000
50.0940 2.0639 8.9860 1.0000
50.0940 2.2141 8.9872 1.0000
50.0940 2.3642 8.9884 1.0000
50.0940 2.5143 8.9897 1.0000
50.0940 2.6645 8.9911 1.0000
50.0940 2.8148 8.9925 1.0000
50.0940 2.9651 8.9941 1.0000
50.0940 3.1154 8.9957 1.0000
50.0940 3.2658 8.9974 1.0000
50.0940 3.5668 9.0011 1.0000
50.0940 3.8681 9.0051 1.0000
50.0940 4.4714 9.0141 1.0000
50.0940 4.7736 9.0191 1.0000
50.0940 5.0761 9.0244 1.0000
50.0940 5.6822 9.0360 1.0000
50.0940 5.8340 9.0391 1.0000
50.0940 5.9859 9.0423 1.0000
50.0940 6.1379 9.0455 1.0000
50.0940 6.4423 9.0523 1.0000
50.0940 6.5946 9.0559 1.0000
50.0940 6.8996 9.0632 1.0000
50.0940 7.5113 9.0788 1.0000
50.0940 8.4329 9.1047 1.0000
50.0940 8.5870 9.1094 1.0000
50.0940 8.7413 9.1141 1.0000
50.0940 8.8957 9.1189 1.0000
50.0940 9.0503 9.1237 1.0000
50.0940 9.2051 9.1287 1.0000
50.0940 9.3600 9.1338 1.0000
50.0940 9.5152 9.1389 1.0000
50.0940 9.6704 9.1442 1.0000
50.0940 10.2935 9.1660 1.0000
50.0940 10.4497 9.1717 1.0000
50.0940 10.6061 9.1774 1.0000
50.0940 10.9196 9.1892 1.0000
50.0940 11.0766 9.1953 1.0000
50.0940 11.2338 9.2014 1.0000
50.0940 11.3912 9.2076 1.0000
50.0940 11.5489 9.2139 1.0000
50.0940 11.8649 9.2268 1.0000
50.0940 12.0232 9.2334 1.0000
50.0940 12.1818 9.2401 1.0000
50.0940 12.3405 9.2468 1.0000
50.0940 12.6588 9.2606 1.0000
50.0940 13.1380 9.2820 1.0000
50.0941 -13.3866 9.2934 1.0000
50.0941 -13.0661 9.2788 1.0000
50.0941 -12.9063 9.2716 1.0000
50.0941 -12.2692 9.2438 1.0000
50.0941 -11.9521 9.2304 1.0000
50.0941 -11.7939 9.2239 1.0000
50.0941 -11.6359 9.2174 1.0000
50.0940 -11.1632 9.1986 1.0000
50.0940 -11.0061 9.1926 1.0000
50.0940 -10.8491 9.1866 1.0000
50.0941 -10.6924 9.1806 1.0000
50.0940 -10.5359 9.1748 1.0000
50.0940 -9.9117 9.1525 1.0000
50.0940 -9.4455 9.1366 1.0000
50.0940 -8.5178 9.1073 1.0000
50.0940 -7.7490 9.0852 1.0000
50.0940 -7.5957 9.0810 1.0000
50.0939 -7.2895 9.0729 1.0000
50.0939 -6.9838 9.0652 1.0000
50.0939 -6.8312 9.0615 1.0000
50.0939 -6.0697 9.0441 1.0000
50.0939 -5.9177 9.0408 1.0000
50.0939 -5.3110 9.0287 1.0000
50.0939 -5.0082 9.0231 1.0000
50.0939 -4.8570 9.0205 1.0000
50.0939 -4.7058 9.0179 1.0000
50.0939 -4.5547 9.0154 1.0000
50.0939 -4.2528 9.0107 1.0000
50.0939 -4.1020 9.0084 1.0000
50.0939 -3.9512 9.0063 1.0000
50.0939 -3.1983 8.9967 1.0000
50.0939 -3.0480 8.9950 1.0000
50.0939 -2.8976 8.9934 1.0000
50.0939 -2.7474 8.9919 1.0000
50.0939 -2.5971 8.9904 1.0000
50.0940 -1.8466 8.9845 1.0000
50.0940 -1.6966 8.9835 1.0000
50.0940 -1.3967 8.9819 1.0000
50.0940 -1.2468 8.9812 1.0000
50.0940 -1.0969 8.9805 1.0000
50.0940 -0.9470 8.9800 1.0000
50.0940 -0.7972 8.9795 1.0000
50.0940 -0.6474 8.9791 1.0000
50.0940 -0.4975 8.9788 1.0000
50.0940 -0.3477 8.9786 1.0000
50.0940 -0.1979 8.9785 1.0000
50.0940 -0.0482 8.9784 1.0000
50.0940 0.2514 8.9785 1.0000
50.0940 0.4013 8.9787 1.0000
50.0940 0.5511 8.9789 1.0000
50.0940 1.0006 8.9802 1.0000
50.0940 1.1505 8.9808 1.0000
50.0940 1.9002 8.9848 1.0000
50.0940 2.0503 8.9859 1.0000
50.0940 2.3504 8.9883 1.0000
50.0940 2.5006 8.9896 1.0000
50.0940 2.8011 8.9924 1.0000
50.0940 2.9513 8.9940 1.0000
50.0940 3.4025 8.9991 1.0000
50.0940 3.7036 9.0029 1.0000
50.0940 4.6087 9.0163 1.0000
50.0940 4.7598 9.0188 1.0000
50.0940 4.9110 9.0214 1.0000
50.0940 5.0623 9.0241 1.0000
50.0940 5.2136 9.0269 1.0000
50.0940 5.5167 9.0327 1.0000
50.0940 6.1240 9.0452 1.0000
50.0940 6.2761 9.0486 1.0000
50.0940 6.4283 9.0520 1.0000
50.0940 6.7331 9.0591 1.0000
50.0940 6.8857 9.0628 1.0000
50.0940 7.0384 9.0666 1.0000
50.0939 -5.5864 8.1579 1.0000
50.0939 -5.4348 8.1552 1.0000
50.0939 -5.2832 8.1526 1.0000
50.0939 -4.9805 8.1476 1.0000
50.0939 -4.6781 8.1429 1.0000
50.0939 -4.3761 8.1385 1.0000
50.0939 -4.2252 8.1365 1.0000
50.0939 -3.9236 8.1325 1.0000
50.0939 -3.6223 8.1288 1.0000
50.0939 -3.3212 8.1255 1.0000
50.0939 -3.0204 8.1224 1.0000
50.0939 -2.5696 8.1183 1.0000
50.0939 -1.8191 8.1130 1.0000
50.0939 -1.6691 8.1122 1.0000
50.0939 -1.5192 8.1114 1.0000
50.0939 -1.0695 8.1095 1.0000
50.0939 -0.9196 8.1090 1.0000
50.0939 -0.3203 8.1078 1.0000
50.0939 -0.1705 8.1077 1.0000
50.0939 -0.0207 8.1077 1.0000
50.0940 0.1291 8.1077 1.0000
50.0939 0.2789 8.1078 1.0000
50.0939 1.6277 8.1119 1.0000
50.0939 1.7777 8.1128 1.0000
50.0939 1.9277 8.1137 1.0000
50.0939 2.0777 8.1146 1.0000
50.0939 2.5280 8.1180 1.0000
50.0939 2.6783 8.1192 1.0000
50.0939 2.9788 8.1220 1.0000
50.0939 3.2796 8.1250 1.0000
50.0939 3.4301 8.1266 1.0000
50.0940 3.5806 8.1283 1.0000
50.0939 3.8819 8.1320 1.0000
50.0940 4.3343 8.1380 1.0000
50.0940 4.6363 8.1423 1.0000
50.0940 4.9387 8.1470 1.0000
50.0940 5.2413 8.1519 1.0000
50.0939 6.3039 8.1716 1.0000
50.0940 6.4562 8.1747 1.0000
50.0939 6.7610 8.1812 1.0000
50.0940 6.9136 8.1845 1.0000
50.0939 7.0663 8.1879 1.0000
50.0940 7.2191 8.1914 1.0000
50.0940 7.6785 8.2024 1.0000
50.0939 7.9855 8.2100 1.0000
50.0939 8.1391 8.2140 1.0000
50.0939 8.4470 8.2221 1.0000
50.0940 8.7554 8.2306 1.0000
50.0940 9.2192 8.2438 1.0000
50.0940 9.6846 8.2578 1.0000
50.0940 9.9958 8.2675 1.0000
50.0940 10.1517 8.2725 1.0000
50.0939 10.4640 8.2827 1.0000
50.0940 10.7770 8.2932 1.0000
50.0939 10.9339 8.2985 1.0000
50.0939 11.4056 8.3152 1.0000
50.0939 11.5633 8.3209 1.0000
50.0939 11.7212 8.3267 1.0000
50.0939 12.1962 8.3445 1.0000
50.0939 12.3550 8.3506 1.0000
50.0939 12.5141 8.3568 1.0000
50.0939 12.6734 8.3631 1.0000
50.0940 13.3129 8.3891 1.0000
50.0940 -13.0515 8.3783 1.0000
50.0940 -12.7321 8.3654 1.0000
50.0940 -11.7794 8.3288 1.0000
50.0940 -11.6214 8.3230 1.0000
50.0940 -11.3062 8.3116 1.0000
50.0940 -11.1488 8.3060 1.0000
50.0940 -10.9917 8.3005 1.0000
50.0940 -10.5216 8.2846 1.0000
50.0940 -10.3653 8.2794 1.0000
50.0940 -10.2091 8.2743 1.0000
50.0940 -9.7419 8.2596 1.0000
50.0940 -9.5865 8.2548 1.0000
50.0940 -9.4313 8.2501 1.0000
50.0940 -9.1214 8.2410 1.0000
50.0940 -8.9667 8.2365 1.0000
50.0940 -8.8122 8.2322 1.0000
50.0940 -8.6579 8.2279 1.0000
50.0940 -8.1957 8.2155 1.0000
50.0940 -7.8884 8.2076 1.0000
50.0940 -7.7350 8.2037 1.0000
50.0939 -7.4285 8.1963 1.0000
50.0939 -7.1225 8.1892 1.0000
50.0939 -6.9698 8.1858 1.0000
50.0939 -6.6646 8.1791 1.0000
50.0939 -6.3600 8.1727 1.0000
50.0939 -6.2078 8.1697 1.0000
50.0939 -6.0558 8.1667 1.0000
50.0939 -5.9039 8.1638 1.0000
50.0939 -5.4486 8.1555 1.0000
50.0939 -5.2971 8.1529 1.0000
50.0939 -5.1457 8.1503 1.0000
50.0939 -4.9943 8.1478 1.0000
50.0939 -4.8431 8.1455 1.0000
50.0939 -4.5409 8.1409 1.0000
50.0939 -4.2389 8.1366 1.0000
50.0939 -4.0881 8.1346 1.0000
50.0939 -3.7867 8.1308 1.0000
50.0939 -3.6360 8.1290 1.0000
50.0939 -3.3350 8.1256 1.0000
50.0939 -3.0342 8.1225 1.0000
50.0939 -2.5833 8.1184 1.0000
50.0939 -2.4332 8.1172 1.0000
50.0939 -2.1330 8.1150 1.0000
50.0939 -1.9829 8.1140 1.0000
50.0939 -1.8329 8.1131 1.0000
50.0939 -0.3340 8.1078 1.0000
50.0939 0.1154 8.1077 1.0000
50.0939 0.2652 8.1078 1.0000
50.0939 0.7146 8.1085 1.0000
50.0939 0.8645 8.1089 1.0000
50.0939 1.3141 8.1105 1.0000
50.0939 1.4641 8.1111 1.0000
50.0940 2.0640 8.1145 1.0000
50.0939 2.2141 8.1156 1.0000
50.0939 2.5143 8.1179 1.0000
50.0939 2.8148 8.1204 1.0000
50.0940 2.9651 8.1218 1.0000
50.0940 3.4163 8.1265 1.0000
50.0940 3.5668 8.1282 1.0000
50.0940 3.7174 8.1300 1.0000
50.0939 4.0188 8.1337 1.0000
50.0940 4.1696 8.1357 1.0000
50.0939 4.3205 8.1378 1.0000
50.0940 4.4714 8.1399 1.0000
50.0939 4.6225 8.1421 1.0000
50.0940 4.7736 8.1444 1.0000
50.0940 5.3790 8.1543 1.0000
50.0940 5.5305 8.1569 1.0000
50.0940 6.1379 8.1683 1.0000
50.0940 6.4423 8.1744 1.0000
50.0939 6.7470 8.1809 1.0000
50.0939 7.0523 8.1876 1.0000
50.0940 7.2052 8.1911 1.0000
50.0940 7.3581 8.1947 1.0000
50.0940 7.5113 8.1983 1.0000
50.0940 7.6645 8.2020 1.0000
50.0939 7.8179 8.2058 1.0000
50.0940 7.9714 8.2097 1.0000
50.0940 8.1250 8.2136 1.0000
50.0939 8.4328 8.2217 1.0000
50.0940 8.5870 8.2259 1.0000
50.0940 9.0503 8.2389 1.0000
50.0939 10.4497 8.2822 1.0000
50.0940 10.7627 8.2927 1.0000
50.0940 10.9195 8.2981 1.0000
50.0939 11.2338 8.3090 1.0000
50.0939 11.3912 8.3146 1.0000
50.0939 12.0232 8.3379 1.0000
50.0939 12.1817 8.3439 1.0000
50.0939 12.3405 8.3501 1.0000
50.0939 12.4995 8.3562 1.0000
50.0939 12.8182 8.3689 1.0000
50.0940 13.2982 8.3885 1.0000
50.0940 -13.2262 8.3855 1.0000
50.0940 -12.9063 8.3724 1.0000
50.0940 -12.4281 8.3535 1.0000
50.0940 -12.2692 8.3473 1.0000
50.0940 -11.9521 8.3352 1.0000
50.0940 -11.6359 8.3235 1.0000
50.0940 -11.4781 8.3178 1.0000
50.0940 -11.1632 8.3065 1.0000
50.0940 -11.0061 8.3010 1.0000
50.0940 -10.6924 8.2903 1.0000
50.0940 -10.3796 8.2799 1.0000
50.0940 -10.2234 8.2748 1.0000
50.0940 -10.0675 8.2698 1.0000
50.0940 -9.7561 8.2600 1.0000
50.0940 -9.4455 8.2505 1.0000
50.0940 -9.2905 8.2459 1.0000
50.0940 -9.1356 8.2414 1.0000
50.0940 -8.6720 8.2283 1.0000
50.0940 -8.5178 8.2240 1.0000
50.0940 -8.2098 8.2158 1.0000
50.0940 -7.5957 8.2003 1.0000
50.0939 -7.4425 8.1966 1.0000
50.0939 -7.2895 8.1930 1.0000
50.0939 -7.1365 8.1895 1.0000
50.0939 -6.9837 8.1861 1.0000
50.0939 -6.8311 8.1827 1.0000
50.0939 -6.5261 8.1762 1.0000
50.0939 -6.3739 8.1730 1.0000
50.0939 -6.0696 8.1670 1.0000
50.0939 -5.9177 8.1640 1.0000
50.0939 -5.7659 8.1612 1.0000
50.0939 -5.6141 8.1584 1.0000
50.0939 -5.4625 8.1557 1.0000
50.0939 -5.1595 8.1505 1.0000
50.0939 -4.4037 8.1389 1.0000
50.0939 -4.2528 8.1368 1.0000
50.0939 -4.1019 8.1348 1.0000
50.0939 -3.9511 8.1328 1.0000
50.0939 -3.8004 8.1310 1.0000
50.0939 -3.6498 8.1291 1.0000
50.0939 -2.8976 8.1212 1.0000
50.0939 -2.5971 8.1185 1.0000
50.0939 -2.1467 8.1151 1.0000
50.0939 -1.8466 8.1132 1.0000
50.0939 -1.6966 8.1123 1.0000
50.0939 -1.0969 8.1096 1.0000
50.0939 -0.9470 8.1091 1.0000
50.0939 -0.7972 8.1087 1.0000
