ply
format ascii 1.0
element vertex 1603
property float32 x
property float32 y
property float32 z
property float32 I
end_header
50.0939 2.4184 5.5283 1.0000
50.0939 2.5685 5.5291 1.0000
50.0939 3.4705 5.5351 1.0000
50.0939 3.6211 5.5363 1.0000
50.0939 3.7717 5.5375 1.0000
50.0939 3.9224 5.5388 1.0000
50.0939 4.0731 5.5401 1.0000
50.0939 4.2240 5.5414 1.0000
50.0939 4.5259 5.5443 1.0000
50.0939 4.8280 5.5474 1.0000
50.0939 4.9793 5.5491 1.0000
50.0939 5.2820 5.5525 1.0000
50.0939 5.4336 5.5542 1.0000
50.0939 5.7369 5.5580 1.0000
50.0939 5.8887 5.5599 1.0000
50.0939 6.0406 5.5619 1.0000
50.0939 6.1927 5.5639 1.0000
50.0939 6.6494 5.5703 1.0000
50.0939 6.8019 5.5725 1.0000
50.0939 7.2602 5.5796 1.0000
50.0939 7.5663 5.5845 1.0000
50.0939 8.0266 5.5923 1.0000
50.0939 8.1803 5.5950 1.0000
50.0939 8.4882 5.6006 1.0000
50.0939 8.9512 5.6093 1.0000
50.0939 9.1059 5.6123 1.0000
50.0939 9.2607 5.6154 1.0000
50.0939 9.5709 5.6217 1.0000
50.0939 9.7262 5.6250 1.0000
50.0939 9.8818 5.6283 1.0000
50.0939 10.1934 5.6350 1.0000
50.0939 10.3495 5.6385 1.0000
50.0939 10.5058 5.6420 1.0000
50.0939 10.8189 5.6492 1.0000
50.0939 11.4477 5.6642 1.0000
50.0939 11.6055 5.6681 1.0000
50.0939 11.9216 5.6761 1.0000
50.0939 12.0800 5.6801 1.0000
50.0939 12.2386 5.6843 1.0000
50.0939 12.7159 5.6970 1.0000
50.0939 1.6827 4.6696 1.0000
50.0939 1.8327 4.6701 1.0000
50.0939 1.9827 4.6706 1.0000
50.0939 2.1328 4.6712 1.0000
50.0939 2.2829 4.6718 1.0000
50.0939 2.5832 4.6732 1.0000
50.0939 3.0339 4.6755 1.0000
50.0939 3.1843 4.6764 1.0000
50.0939 3.4852 4.6783 1.0000
50.0939 3.6358 4.6793 1.0000
50.0939 3.9371 4.6814 1.0000
50.0939 4.5406 4.6861 1.0000
50.0939 5.1454 4.6915 1.0000
50.0939 5.2968 4.6930 1.0000
50.0939 5.6000 4.6960 1.0000
50.0939 5.7517 4.6976 1.0000
50.0939 5.9035 4.6993 1.0000
50.0939 6.6643 4.7081 1.0000
50.0939 7.1222 4.7139 1.0000
50.0939 7.2751 4.7159 1.0000
50.0939 7.5812 4.7201 1.0000
50.0939 7.7346 4.7223 1.0000
50.0939 7.8880 4.7245 1.0000
50.0939 8.3492 4.7314 1.0000
50.0939 8.6574 4.7362 1.0000
50.0939 8.9663 4.7411 1.0000
50.0939 9.1210 4.7437 1.0000
50.0939 9.8970 4.7572 1.0000
50.0939 10.0527 4.7600 1.0000
50.0939 10.2086 4.7629 1.0000
50.0939 10.5211 4.7688 1.0000
50.0939 10.9912 4.7780 1.0000
50.0939 11.3056 4.7844 1.0000
50.0939 11.4631 4.7876 1.0000
50.0939 11.6209 4.7909 1.0000
50.0939 11.7788 4.7943 1.0000
50.0939 11.9370 4.7977 1.0000
50.0939 12.0954 4.8011 1.0000
50.0939 12.2541 4.8046 1.0000
50.0939 12.5721 4.8117 1.0000
50.0939 12.8911 4.8190 1.0000
50.0939 13.0509 4.8228 1.0000
50.0939 13.2110 4.8266 1.0000
50.0939 -13.3135 4.8290 1.0000
50.0939 -12.9932 4.8214 1.0000
50.0939 -12.3557 4.8068 1.0000
50.0939 -12.1969 4.8033 1.0000
50.0939 -12.0384 4.7999 1.0000
50.0939 -11.8800 4.7964 1.0000
50.0939 -11.7219 4.7931 1.0000
50.0939 -11.5640 4.7897 1.0000
50.0939 -10.9346 4.7769 1.0000
50.0939 -9.8409 4.7562 1.0000
50.0939 -9.6854 4.7534 1.0000
50.0939 -9.2200 4.7454 1.0000
50.0939 -9.0652 4.7428 1.0000
50.0939 -8.9106 4.7402 1.0000
50.0939 -8.7561 4.7377 1.0000
50.0939 -8.6018 4.7353 1.0000
50.0939 -8.4477 4.7329 1.0000
50.0939 -8.2937 4.7305 1.0000
50.0939 -8.1399 4.7282 1.0000
50.0939 -7.9862 4.7259 1.0000
50.0939 -7.8327 4.7237 1.0000
50.0939 -7.6793 4.7215 1.0000
50.0938 -7.3729 4.7173 1.0000
50.0938 -7.2200 4.7152 1.0000
50.0938 -6.7618 4.7093 1.0000
50.0938 -6.6093 4.7074 1.0000
50.0938 -6.3048 4.7038 1.0000
50.0938 -5.8487 4.6987 1.0000
50.0938 -5.3937 4.6939 1.0000
50.0938 -5.2422 4.6925 1.0000
50.0938 -5.0909 4.6910 1.0000
50.0938 -4.7883 4.6882 1.0000
50.0938 -4.6372 4.6869 1.0000
50.0938 -4.3352 4.6844 1.0000
50.0938 -4.0335 4.6821 1.0000
50.0938 -3.5815 4.6789 1.0000
50.0938 -3.2805 4.6770 1.0000
50.0938 -2.9798 4.6752 1.0000
50.0938 -2.8295 4.6744 1.0000
50.0938 -2.5290 4.6729 1.0000
50.0938 -2.3788 4.6722 1.0000
50.0939 -2.2287 4.6716 1.0000
50.0939 -2.0786 4.6710 1.0000
50.0939 -1.7786 4.6699 1.0000
50.0939 -1.6287 4.6694 1.0000
50.0939 -1.4787 4.6690 1.0000
50.0939 -1.3288 4.6686 1.0000
50.0939 -0.8792 4.6677 1.0000
50.0939 -0.7293 4.6675 1.0000
50.0939 -0.5795 4.6673 1.0000
50.0939 -0.2799 4.6671 1.0000
50.0939 0.3193 4.6671 1.0000
50.0939 0.4691 4.6672 1.0000
50.0939 0.6189 4.6673 1.0000
50.0939 0.7688 4.6675 1.0000
50.0939 0.9186 4.6678 1.0000
50.0939 1.3682 4.6687 1.0000
50.0939 2.1181 4.6712 1.0000
50.0939 2.4183 4.6724 1.0000
50.0939 2.5685 4.6731 1.0000
50.0939 2.7187 4.6738 1.0000
50.0939 3.0193 4.6755 1.0000
50.0939 3.3200 4.6772 1.0000
50.0939 3.4706 4.6782 1.0000
50.0939 3.9224 4.6813 1.0000
50.0939 4.2239 4.6835 1.0000
50.0939 4.5258 4.6860 1.0000
50.0939 4.6769 4.6873 1.0000
50.0939 5.1306 4.6914 1.0000
50.0939 5.4336 4.6944 1.0000
50.0939 5.7368 4.6975 1.0000
50.0939 5.8887 4.6991 1.0000
50.0939 6.1926 4.7025 1.0000
50.0939 6.6494 4.7079 1.0000
50.0939 6.8019 4.7098 1.0000
50.0939 6.9545 4.7117 1.0000
50.0939 7.2601 4.7157 1.0000
50.0939 7.4132 4.7178 1.0000
50.0939 7.5663 4.7199 1.0000
50.0939 7.7196 4.7221 1.0000
50.0939 7.8730 4.7243 1.0000
50.0939 8.1803 4.7288 1.0000
50.0939 8.3341 4.7311 1.0000
50.0939 8.4882 4.7335 1.0000
50.0939 8.7968 4.7384 1.0000
50.0939 9.4157 4.7487 1.0000
50.0939 9.5709 4.7514 1.0000
50.0939 9.7262 4.7541 1.0000
50.0939 9.8818 4.7569 1.0000
50.0939 10.1934 4.7626 1.0000
50.0939 10.3495 4.7655 1.0000
50.0939 10.6622 4.7715 1.0000
50.0939 10.9758 4.7777 1.0000
50.0939 11.1329 4.7808 1.0000
50.0939 11.2902 4.7840 1.0000
50.0939 11.6054 4.7906 1.0000
50.0939 11.7634 4.7939 1.0000
50.0939 12.2386 4.8043 1.0000
50.0939 12.3975 4.8078 1.0000
50.0939 12.7159 4.8150 1.0000
50.0939 1.3829 3.8163 1.0000
50.0939 1.5328 3.8166 1.0000
50.0939 1.6827 3.8169 1.0000
50.0939 1.9827 3.8178 1.0000
50.0939 2.2829 3.8188 1.0000
50.0939 2.5832 3.8199 1.0000
50.0939 3.0339 3.8218 1.0000
50.0939 3.3348 3.8232 1.0000
50.0939 3.4853 3.8240 1.0000
50.0939 3.7864 3.8257 1.0000
50.0939 3.9371 3.8266 1.0000
50.0939 4.5406 3.8304 1.0000
50.0939 4.8429 3.8326 1.0000
50.0939 4.9941 3.8337 1.0000
50.0939 5.1454 3.8349 1.0000
50.0939 5.2968 3.8361 1.0000
50.0939 5.4484 3.8373 1.0000
50.0939 5.7517 3.8399 1.0000
50.0939 5.9036 3.8412 1.0000
50.0939 6.5119 3.8469 1.0000
50.0939 6.6643 3.8484 1.0000
50.0939 6.9695 3.8515 1.0000
50.0939 7.1222 3.8532 1.0000
50.0939 7.5813 3.8582 1.0000
50.0939 7.7346 3.8600 1.0000
50.0939 7.8880 3.8618 1.0000
50.0939 8.1954 3.8655 1.0000
50.0939 8.3493 3.8674 1.0000
50.0939 8.5032 3.8694 1.0000
50.0939 8.8118 3.8734 1.0000
50.0939 8.9663 3.8754 1.0000
50.0939 10.0527 3.8909 1.0000
50.0939 10.2086 3.8932 1.0000
50.0939 10.6775 3.9005 1.0000
50.0939 10.8343 3.9030 1.0000
50.0939 10.9912 3.9055 1.0000
50.0939 11.1483 3.9081 1.0000
50.0939 11.3056 3.9107 1.0000
50.0939 11.6209 3.9161 1.0000
50.0939 12.0955 3.9244 1.0000
50.0939 12.2541 3.9273 1.0000
50.0939 12.7314 3.9361 1.0000
50.0939 -13.3135 3.9472 1.0000
50.0939 -12.6739 3.9350 1.0000
50.0939 -12.5147 3.9320 1.0000
50.0939 -12.3557 3.9291 1.0000
50.0939 -12.1969 3.9262 1.0000
50.0939 -12.0383 3.9234 1.0000
50.0939 -11.8800 3.9206 1.0000
50.0939 -11.7218 3.9178 1.0000
50.0939 -11.2489 3.9098 1.0000
50.0939 -11.0916 3.9072 1.0000
50.0939 -10.7777 3.9021 1.0000
50.0939 -10.6211 3.8996 1.0000
50.0939 -10.1524 3.8924 1.0000
50.0939 -9.9965 3.8900 1.0000
50.0939 -9.8409 3.8877 1.0000
50.0939 -9.3750 3.8810 1.0000
50.0939 -9.2200 3.8789 1.0000
50.0939 -8.9106 3.8747 1.0000
50.0939 -8.6018 3.8706 1.0000
50.0939 -8.2937 3.8667 1.0000
50.0939 -8.1399 3.8648 1.0000
50.0939 -7.9862 3.8630 1.0000
50.0939 -7.5261 3.8576 1.0000
50.0938 -7.0671 3.8526 1.0000
50.0938 -6.9144 3.8510 1.0000
50.0938 -6.6093 3.8479 1.0000
50.0938 -6.4570 3.8464 1.0000
50.0938 -6.3048 3.8449 1.0000
50.0938 -6.0007 3.8421 1.0000
50.0938 -5.8488 3.8407 1.0000
50.0938 -5.6970 3.8394 1.0000
50.0938 -5.5453 3.8381 1.0000
50.0938 -5.3937 3.8368 1.0000
50.0938 -5.2422 3.8356 1.0000
50.0938 -4.9396 3.8333 1.0000
50.0938 -4.7883 3.8322 1.0000
50.0938 -4.6372 3.8311 1.0000
50.0938 -4.3352 3.8291 1.0000
50.0938 -4.1843 3.8281 1.0000
50.0938 -4.0335 3.8271 1.0000
50.0938 -3.8828 3.8262 1.0000
50.0938 -3.5815 3.8245 1.0000
50.0938 -3.4310 3.8237 1.0000
50.0938 -3.2805 3.8230 1.0000
50.0938 -3.1301 3.8222 1.0000
50.0938 -2.9798 3.8215 1.0000
50.0938 -2.6792 3.8202 1.0000
50.0938 -2.5290 3.8197 1.0000
50.0939 -2.2287 3.8186 1.0000
50.0939 -1.9286 3.8176 1.0000
50.0939 -1.6286 3.8168 1.0000
50.0939 -1.1789 3.8158 1.0000
50.0939 -1.0290 3.8156 1.0000
50.0939 -0.8791 3.8154 1.0000
50.0939 -0.4296 3.8149 1.0000
50.0939 0.0197 3.8148 1.0000
50.0939 0.1695 3.8148 1.0000
50.0939 0.3193 3.8149 1.0000
50.0939 0.6189 3.8151 1.0000
50.0939 0.9186 3.8154 1.0000
50.0939 1.0685 3.8157 1.0000
50.0939 1.2183 3.8159 1.0000
50.0939 1.9681 3.8177 1.0000
50.0939 2.5686 3.8198 1.0000
50.0939 2.7187 3.8204 1.0000
50.0939 2.8690 3.8211 1.0000
50.0939 3.4706 3.8239 1.0000
50.0939 3.9224 3.8265 1.0000
50.0939 4.0732 3.8274 1.0000
50.0939 4.2240 3.8283 1.0000
50.0939 4.5259 3.8303 1.0000
50.0939 4.6770 3.8314 1.0000
50.0939 4.8280 3.8325 1.0000
50.0939 4.9793 3.8336 1.0000
50.0939 5.1306 3.8348 1.0000
50.0939 5.2821 3.8359 1.0000
50.0939 5.4336 3.8372 1.0000
50.0939 6.1926 3.8438 1.0000
50.0939 6.3448 3.8453 1.0000
50.0939 6.8019 3.8498 1.0000
50.0939 6.9545 3.8514 1.0000
50.0939 7.1073 3.8530 1.0000
50.0939 7.4132 3.8563 1.0000
50.0939 7.7196 3.8598 1.0000
50.0939 7.8730 3.8616 1.0000
50.0939 8.7968 3.8732 1.0000
50.0939 9.1059 3.8773 1.0000
50.0939 9.2607 3.8794 1.0000
50.0939 9.4157 3.8816 1.0000
50.0939 9.7262 3.8860 1.0000
50.0939 10.0375 3.8906 1.0000
50.0939 10.3495 3.8954 1.0000
50.0939 10.9758 3.9053 1.0000
50.0939 11.1329 3.9079 1.0000
50.0939 11.2903 3.9105 1.0000
50.0939 11.4477 3.9131 1.0000
50.0939 11.7634 3.9186 1.0000
50.0939 12.0800 3.9241 1.0000
50.0939 12.2386 3.9270 1.0000
50.0939 12.7159 3.9358 1.0000
50.0939 1.6827 2.9665 1.0000
50.0939 1.9827 2.9671 1.0000
50.0939 2.7334 2.9692 1.0000
50.0939 2.8836 2.9697 1.0000
50.0939 3.0340 2.9702 1.0000
50.0939 3.3348 2.9714 1.0000
50.0939 3.6358 2.9726 1.0000
50.0939 3.9371 2.9739 1.0000
50.0939 4.0879 2.9747 1.0000
50.0939 4.2387 2.9754 1.0000
50.0939 4.3896 2.9762 1.0000
50.0939 5.2968 2.9813 1.0000
50.0939 5.6000 2.9833 1.0000
50.0939 5.7516 2.9843 1.0000
50.0939 6.0554 2.9864 1.0000
50.0939 6.2075 2.9875 1.0000
50.0939 6.5119 2.9897 1.0000
50.0939 6.6643 2.9909 1.0000
50.0939 6.8168 2.9921 1.0000
50.0939 6.9695 2.9934 1.0000
50.0939 7.2751 2.9959 1.0000
50.0939 7.4281 2.9972 1.0000
50.0939 7.5812 2.9986 1.0000
50.0939 7.7345 2.9999 1.0000
50.0939 8.0416 3.0028 1.0000
50.0939 8.3492 3.0057 1.0000
50.0939 8.5032 3.0072 1.0000
50.0939 8.6574 3.0087 1.0000
50.0939 9.1210 3.0135 1.0000
50.0939 9.2758 3.0152 1.0000
50.0939 9.5860 3.0186 1.0000
50.0939 9.7414 3.0203 1.0000
50.0939 9.8970 3.0221 1.0000
50.0939 10.3648 3.0276 1.0000
50.0939 10.8342 3.0334 1.0000
50.0939 11.1483 3.0373 1.0000
50.0939 11.3056 3.0394 1.0000
50.0939 11.4631 3.0414 1.0000
50.0939 11.6209 3.0435 1.0000
50.0939 11.7788 3.0457 1.0000
50.0939 11.9370 3.0478 1.0000
50.0939 12.0954 3.0500 1.0000
50.0939 12.2541 3.0522 1.0000
50.0939 12.4130 3.0545 1.0000
50.0939 12.8910 3.0614 1.0000
50.0939 13.0509 3.0638 1.0000
50.0939 13.2109 3.0662 1.0000
50.0939 -13.1532 3.0653 1.0000
50.0939 -12.9932 3.0629 1.0000
50.0939 -12.8335 3.0605 1.0000
50.0939 -12.6739 3.0582 1.0000
50.0939 -12.5147 3.0559 1.0000
50.0939 -12.0383 3.0492 1.0000
50.0939 -11.8800 3.0470 1.0000
50.0939 -11.7218 3.0449 1.0000
50.0939 -11.5640 3.0428 1.0000
50.0939 -11.4063 3.0407 1.0000
50.0939 -11.0916 3.0366 1.0000
50.0939 -10.7777 3.0326 1.0000
50.0939 -10.6211 3.0307 1.0000
50.0939 -10.3084 3.0269 1.0000
50.0939 -10.1524 3.0251 1.0000
50.0939 -9.8408 3.0215 1.0000
50.0939 -9.5300 3.0180 1.0000
50.0939 -8.6018 3.0082 1.0000
50.0939 -8.4477 3.0067 1.0000
50.0939 -8.1399 3.0037 1.0000
50.0939 -7.6793 2.9994 1.0000
50.0939 -7.5260 2.9981 1.0000
50.0938 -7.2200 2.9954 1.0000
50.0938 -6.9144 2.9929 1.0000
50.0938 -6.7618 2.9917 1.0000
50.0938 -6.6093 2.9905 1.0000
50.0938 -6.4570 2.9893 1.0000
50.0938 -6.1527 2.9871 1.0000
50.0938 -6.0006 2.9860 1.0000
50.0938 -5.8487 2.9849 1.0000
50.0938 -5.5453 2.9829 1.0000
50.0938 -5.3937 2.9819 1.0000
50.0938 -5.2422 2.9810 1.0000
50.0938 -4.7883 2.9783 1.0000
50.0938 -4.6372 2.9775 1.0000
50.0938 -4.3352 2.9759 1.0000
50.0938 -4.0335 2.9744 1.0000
50.0938 -3.4310 2.9717 1.0000
50.0938 -3.2805 2.9711 1.0000
50.0938 -3.1301 2.9706 1.0000
50.0938 -2.9798 2.9700 1.0000
50.0938 -2.5290 2.9686 1.0000
50.0939 -2.2287 2.9677 1.0000
50.0939 -2.0787 2.9673 1.0000
50.0939 -1.9286 2.9670 1.0000
50.0939 -1.7786 2.9667 1.0000
50.0939 -1.6287 2.9664 1.0000
50.0939 -1.4787 2.9661 1.0000
50.0939 -1.3288 2.9658 1.0000
50.0939 -1.1789 2.9656 1.0000
50.0939 -1.0290 2.9654 1.0000
50.0939 -0.8791 2.9653 1.0000
50.0939 -0.2799 2.9648 1.0000
50.0939 -0.1301 2.9648 1.0000
50.0939 0.6189 2.9650 1.0000
50.0939 1.2183 2.9657 1.0000
50.0939 1.3682 2.9659 1.0000
50.0939 1.5181 2.9662 1.0000
50.0939 1.9681 2.9671 1.0000
50.0939 2.2682 2.9678 1.0000
50.0939 2.4183 2.9682 1.0000
50.0939 2.5684 2.9687 1.0000
50.0939 3.3201 2.9713 1.0000
50.0939 4.0732 2.9746 1.0000
50.0939 4.3748 2.9761 1.0000
50.0939 4.5259 2.9769 1.0000
50.0939 4.8280 2.9785 1.0000
50.0939 4.9793 2.9794 1.0000
50.0939 5.4335 2.9822 1.0000
50.0939 6.0406 2.9863 1.0000
50.0939 6.1927 2.9874 1.0000
50.0939 6.3448 2.9885 1.0000
50.0939 6.4970 2.9896 1.0000
50.0939 6.9545 2.9932 1.0000
50.0939 8.0266 3.0026 1.0000
50.0939 8.1803 3.0041 1.0000
50.0939 8.3341 3.0056 1.0000
50.0939 8.4882 3.0071 1.0000
50.0939 8.6423 3.0086 1.0000
50.0939 8.7967 3.0102 1.0000
50.0939 8.9512 3.0118 1.0000
50.0939 9.1059 3.0134 1.0000
50.0939 9.2607 3.0150 1.0000
50.0939 9.4157 3.0167 1.0000
50.0939 9.8818 3.0219 1.0000
50.0939 10.3495 3.0274 1.0000
50.0939 10.5058 3.0293 1.0000
50.0939 10.6623 3.0312 1.0000
50.0939 10.8189 3.0332 1.0000
50.0939 10.9758 3.0351 1.0000
50.0939 11.2902 3.0392 1.0000
50.0939 11.4477 3.0412 1.0000
50.0939 11.7634 3.0454 1.0000
50.0939 12.5566 3.0565 1.0000
50.0938 1.3829 2.1173 1.0000
50.0938 1.9827 2.1182 1.0000
50.0938 2.1328 2.1184 1.0000
50.0938 2.4330 2.1190 1.0000
50.0938 2.5832 2.1193 1.0000
50.0938 3.3348 2.1212 1.0000
50.0938 3.4853 2.1216 1.0000
50.0938 3.7864 2.1225 1.0000
50.0938 3.9371 2.1230 1.0000
50.0938 4.0879 2.1235 1.0000
50.0938 4.3896 2.1246 1.0000
50.0938 4.5406 2.1252 1.0000
50.0938 4.9941 2.1270 1.0000
50.0938 5.6000 2.1297 1.0000
50.0938 5.7517 2.1304 1.0000
50.0938 5.9035 2.1312 1.0000
50.0938 6.0554 2.1319 1.0000
50.0938 6.8168 2.1360 1.0000
50.0938 7.1222 2.1378 1.0000
50.0938 7.2751 2.1387 1.0000
50.0938 7.7345 2.1416 1.0000
50.0938 8.1954 2.1446 1.0000
50.0938 8.3492 2.1457 1.0000
50.0938 8.5032 2.1468 1.0000
50.0938 9.1210 2.1513 1.0000
50.0938 9.4308 2.1537 1.0000
50.0938 9.8970 2.1574 1.0000
50.0938 10.0527 2.1587 1.0000
50.0938 10.2086 2.1600 1.0000
50.0938 10.8343 2.1654 1.0000
50.0938 10.9912 2.1669 1.0000
50.0938 11.1483 2.1683 1.0000
50.0938 11.4631 2.1712 1.0000
50.0938 11.6209 2.1727 1.0000
50.0938 11.7789 2.1742 1.0000
50.0938 11.9370 2.1758 1.0000
50.0938 12.0954 2.1773 1.0000
50.0938 12.2541 2.1789 1.0000
50.0938 12.4130 2.1805 1.0000
50.0938 12.5721 2.1821 1.0000
50.0938 12.8911 2.1855 1.0000
50.0938 13.0509 2.1872 1.0000
50.0938 13.3713 2.1906 1.0000
50.0939 -13.3135 2.1900 1.0000
50.0939 -13.1532 2.1882 1.0000
50.0939 -12.9932 2.1865 1.0000
50.0939 -12.8335 2.1849 1.0000
50.0939 -12.6739 2.1832 1.0000
50.0939 -12.5147 2.1816 1.0000
50.0939 -12.3557 2.1799 1.0000
50.0939 -12.1969 2.1783 1.0000
50.0939 -12.0384 2.1768 1.0000
50.0939 -11.8800 2.1752 1.0000
50.0939 -11.7219 2.1737 1.0000
50.0939 -11.5640 2.1722 1.0000
50.0939 -11.4063 2.1707 1.0000
50.0939 -11.2489 2.1692 1.0000
50.0939 -11.0916 2.1678 1.0000
50.0939 -10.6211 2.1636 1.0000
50.0939 -10.4647 2.1622 1.0000
50.0939 -10.3084 2.1609 1.0000
50.0939 -9.9966 2.1582 1.0000
50.0939 -9.8409 2.1570 1.0000
50.0939 -9.6854 2.1557 1.0000
50.0939 -9.2200 2.1521 1.0000
50.0939 -8.9105 2.1497 1.0000
50.0939 -8.7561 2.1486 1.0000
50.0939 -8.6018 2.1475 1.0000
50.0939 -7.9862 2.1432 1.0000
50.0939 -7.8327 2.1422 1.0000
50.0938 -7.5260 2.1403 1.0000
50.0938 -7.2200 2.1384 1.0000
50.0938 -6.6093 2.1348 1.0000
50.0938 -6.1527 2.1324 1.0000
50.0938 -6.0006 2.1316 1.0000
50.0938 -5.8487 2.1309 1.0000
50.0938 -5.3937 2.1287 1.0000
50.0938 -4.9395 2.1268 1.0000
50.0938 -4.1843 2.1239 1.0000
50.0938 -3.8828 2.1229 1.0000
50.0938 -3.7321 2.1224 1.0000
50.0938 -3.4310 2.1215 1.0000
50.0938 -3.2805 2.1210 1.0000
50.0938 -2.8295 2.1199 1.0000
50.0938 -2.6792 2.1195 1.0000
50.0938 -2.5290 2.1192 1.0000
50.0938 -2.3788 2.1189 1.0000
50.0938 -2.0786 2.1183 1.0000
50.0938 -1.9286 2.1181 1.0000
50.0938 -1.7786 2.1178 1.0000
50.0938 -1.6286 2.1176 1.0000
50.0938 -1.1789 2.1171 1.0000
50.0938 -1.0290 2.1170 1.0000
50.0938 -0.8792 2.1168 1.0000
50.0938 -0.4297 2.1166 1.0000
50.0938 -0.2799 2.1165 1.0000
50.0938 0.0197 2.1165 1.0000
50.0938 0.1695 2.1165 1.0000
50.0938 0.3193 2.1165 1.0000
50.0938 0.4691 2.1166 1.0000
50.0938 0.9186 2.1169 1.0000
50.0938 1.0684 2.1170 1.0000
50.0938 1.2183 2.1171 1.0000
50.0938 1.8181 2.1179 1.0000
50.0938 2.1181 2.1184 1.0000
50.0938 2.2682 2.1187 1.0000
50.0938 2.4183 2.1190 1.0000
50.0938 2.7187 2.1196 1.0000
50.0938 3.1696 2.1207 1.0000
50.0938 3.3200 2.1211 1.0000
50.0938 3.4706 2.1216 1.0000
50.0938 4.0732 2.1235 1.0000
50.0938 4.2240 2.1240 1.0000
50.0938 4.6769 2.1257 1.0000
50.0938 4.8281 2.1263 1.0000
50.0938 4.9793 2.1269 1.0000
50.0938 5.1306 2.1276 1.0000
50.0938 5.2821 2.1282 1.0000
50.0938 5.4336 2.1289 1.0000
50.0938 5.5852 2.1296 1.0000
50.0938 5.7368 2.1303 1.0000
50.0938 5.8887 2.1311 1.0000
50.0938 6.0406 2.1318 1.0000
50.0938 6.1926 2.1326 1.0000
50.0938 6.3448 2.1334 1.0000
50.0938 6.6494 2.1351 1.0000
50.0938 7.1073 2.1377 1.0000
50.0938 7.4132 2.1396 1.0000
50.0938 7.5663 2.1405 1.0000
50.0938 7.7196 2.1415 1.0000
50.0938 7.8730 2.1425 1.0000
50.0938 8.3342 2.1456 1.0000
50.0938 8.4882 2.1467 1.0000
50.0938 8.7967 2.1489 1.0000
50.0938 8.9512 2.1500 1.0000
50.0938 9.1059 2.1512 1.0000
50.0938 9.2607 2.1524 1.0000
50.0938 9.4157 2.1536 1.0000
50.0938 9.5709 2.1548 1.0000
50.0938 9.7262 2.1560 1.0000
50.0938 10.1934 2.1599 1.0000
50.0938 10.3495 2.1612 1.0000
50.0938 10.9758 2.1667 1.0000
50.0938 11.2902 2.1696 1.0000
50.0938 11.6055 2.1726 1.0000
50.0938 12.0800 2.1772 1.0000
50.0938 12.2386 2.1788 1.0000
50.0938 12.5565 2.1820 1.0000
45.2412 1.3843 1.1470 1.0000
45.2436 1.5198 1.1472 1.0000
45.2475 1.6553 1.1474 1.0000
45.2542 1.9267 1.1478 1.0000
45.2648 2.0628 1.1482 1.0000
44.8477 2.1782 1.1378 1.0000
45.2950 2.3357 1.1493 1.0000
50.0939 2.8836 1.2715 1.0000
50.0938 3.0340 1.2717 1.0000
50.0938 3.4853 1.2725 1.0000
50.0938 3.6358 1.2728 1.0000
50.0938 4.0879 1.2736 1.0000
50.0938 4.2387 1.2740 1.0000
50.0938 4.5406 1.2746 1.0000
50.0938 4.6917 1.2750 1.0000
50.0938 4.8429 1.2753 1.0000
50.0938 5.1454 1.2761 1.0000
50.0938 5.2968 1.2765 1.0000
50.0938 5.4484 1.2769 1.0000
50.0938 5.6000 1.2773 1.0000
50.0938 6.0555 1.2787 1.0000
50.0938 6.3596 1.2796 1.0000
50.0938 6.5119 1.2801 1.0000
50.0938 6.9695 1.2817 1.0000
50.0938 7.8880 1.2851 1.0000
50.0938 8.1954 1.2863 1.0000
50.0938 8.3492 1.2869 1.0000
50.0938 8.6575 1.2882 1.0000
50.0938 8.8118 1.2889 1.0000
50.0938 9.1210 1.2903 1.0000
50.0938 9.2758 1.2910 1.0000
50.0938 9.4309 1.2917 1.0000
50.0938 9.7414 1.2932 1.0000
50.0938 9.8970 1.2940 1.0000
50.0938 10.2086 1.2955 1.0000
50.0938 10.5211 1.2971 1.0000
50.0938 10.6775 1.2979 1.0000
50.0938 10.8343 1.2988 1.0000
50.0938 11.9370 1.3050 1.0000
50.0938 12.0954 1.3059 1.0000
50.0938 12.7314 1.3098 1.0000
50.0938 -12.6739 1.3094 1.0000
50.0939 -12.5147 1.3084 1.0000
50.0938 -12.3557 1.3075 1.0000
50.0939 -12.1969 1.3065 1.0000
50.0939 -12.0383 1.3056 1.0000
50.0939 -11.8800 1.3046 1.0000
50.0939 -11.7219 1.3037 1.0000
50.0938 -11.5640 1.3028 1.0000
50.0938 -11.4063 1.3019 1.0000
50.0938 -11.0916 1.3002 1.0000
50.0939 -10.9346 1.2993 1.0000
50.0938 -10.7778 1.2985 1.0000
50.0938 -10.6211 1.2976 1.0000
50.0939 -10.1524 1.2952 1.0000
50.0938 -9.9965 1.2944 1.0000
50.0939 -9.8409 1.2937 1.0000
50.0938 -9.6854 1.2929 1.0000
50.0938 -9.5301 1.2922 1.0000
50.0939 -9.2200 1.2907 1.0000
50.0938 -8.9106 1.2893 1.0000
50.0939 -8.7561 1.2887 1.0000
50.0939 -8.4477 1.2873 1.0000
50.0939 -8.1399 1.2861 1.0000
50.0938 -7.5261 1.2837 1.0000
50.0938 -7.0671 1.2820 1.0000
50.0938 -6.6093 1.2804 1.0000
50.0938 -6.3048 1.2794 1.0000
50.0938 -5.6970 1.2776 1.0000
50.0938 -5.3937 1.2768 1.0000
50.0938 -5.0909 1.2759 1.0000
50.0938 -4.9396 1.2756 1.0000
50.0938 -4.4862 1.2745 1.0000
50.0938 -4.1843 1.2738 1.0000
50.0938 -4.0336 1.2735 1.0000
50.0938 -3.8828 1.2732 1.0000
50.0938 -3.5815 1.2727 1.0000
50.0938 -3.4310 1.2724 1.0000
50.0938 -3.2805 1.2721 1.0000
45.0162 -2.4077 1.1424 1.0000
45.0235 -1.7334 1.1418 1.0000
45.0259 -1.5986 1.1417 1.0000
45.0296 -1.3292 1.1416 1.0000
45.0296 -1.1944 1.1415 1.0000
45.0294 -1.0597 1.1414 1.0000
45.0313 -0.9250 1.1414 1.0000
45.0358 -0.6557 1.1414 1.0000
45.0452 -0.1170 1.1415 1.0000
45.0476 0.0177 1.1415 1.0000
45.0499 0.1524 1.1416 1.0000
45.0531 0.4219 1.1417 1.0000
45.0539 0.5566 1.1418 1.0000
45.0545 0.6914 1.1418 1.0000
45.2439 0.9650 1.1468 1.0000
45.2414 1.3711 1.1470 1.0000
45.2432 1.5065 1.1471 1.0000
45.2541 1.9135 1.1478 1.0000
45.3034 2.4588 1.1497 1.0000
50.0939 2.8689 1.2715 1.0000
50.0939 3.0193 1.2717 1.0000
50.0939 3.1696 1.2720 1.0000
50.0938 3.3201 1.2722 1.0000
50.0938 3.4706 1.2725 1.0000
50.0938 3.6211 1.2727 1.0000
50.0938 3.7718 1.2730 1.0000
50.0938 3.9224 1.2733 1.0000
50.0938 4.2240 1.2739 1.0000
50.0938 4.5259 1.2746 1.0000
50.0938 4.9793 1.2757 1.0000
50.0938 5.2821 1.2764 1.0000
50.0938 5.4336 1.2769 1.0000
50.0938 5.7369 1.2777 1.0000
50.0938 5.8887 1.2782 1.0000
50.0938 6.1927 1.2791 1.0000
50.0938 6.6494 1.2805 1.0000
50.0938 6.8019 1.2811 1.0000
50.0938 7.2602 1.2827 1.0000
50.0938 7.5663 1.2838 1.0000
50.0938 7.7196 1.2844 1.0000
50.0938 7.8730 1.2850 1.0000
50.0938 8.0266 1.2856 1.0000
50.0938 8.1803 1.2862 1.0000
50.0938 8.3342 1.2869 1.0000
50.0938 8.4882 1.2875 1.0000
50.0938 8.6424 1.2882 1.0000
50.0938 8.9512 1.2895 1.0000
50.0938 9.1059 1.2902 1.0000
50.0938 9.4157 1.2916 1.0000
50.0938 9.5709 1.2924 1.0000
50.0938 9.8818 1.2939 1.0000
50.0938 10.3495 1.2962 1.0000
50.0938 10.8189 1.2987 1.0000
50.0938 10.9758 1.2995 1.0000
50.0938 11.1329 1.3004 1.0000
50.0938 11.2903 1.3013 1.0000
50.0938 11.6055 1.3030 1.0000
50.0938 12.3975 1.3077 1.0000
50.0938 12.5566 1.3087 1.0000
50.0938 12.7159 1.3097 1.0000
45.0809 1.3794 0.3809 1.0000
45.0699 1.5140 0.3808 1.0000
45.0590 1.6485 0.3808 1.0000
45.1960 1.7888 0.3820 1.0000
45.2116 2.1959 0.3823 1.0000
45.2242 2.4677 0.3825 1.0000
50.0938 2.8837 0.4238 1.0000
50.0938 3.1843 0.4239 1.0000
50.0938 3.3348 0.4240 1.0000
50.0938 3.4853 0.4241 1.0000
50.0938 3.6358 0.4242 1.0000
50.0938 3.7864 0.4243 1.0000
50.0938 3.9371 0.4244 1.0000
50.0938 4.0879 0.4245 1.0000
50.0938 4.3896 0.4247 1.0000
50.0938 4.5406 0.4248 1.0000
50.0938 4.6916 0.4249 1.0000
50.0938 4.9941 0.4252 1.0000
50.0938 6.2075 0.4263 1.0000
50.0938 6.3596 0.4265 1.0000
50.0938 6.5119 0.4266 1.0000
50.0938 7.1222 0.4273 1.0000
50.0938 7.4281 0.4277 1.0000
50.0938 7.7346 0.4281 1.0000
50.0938 8.5032 0.4291 1.0000
50.0938 8.8118 0.4296 1.0000
50.0938 9.4309 0.4305 1.0000
50.0938 9.8970 0.4312 1.0000
50.0938 10.2087 0.4318 1.0000
50.0938 10.5211 0.4323 1.0000
50.0938 10.6775 0.4326 1.0000
50.0938 10.9912 0.4331 1.0000
50.0938 11.7788 0.4346 1.0000
50.0938 12.4130 0.4359 1.0000
50.0938 12.8910 0.4368 1.0000
50.0938 13.2109 0.4375 1.0000
50.0938 13.3713 0.4379 1.0000
50.0938 -12.9932 0.4371 1.0000
50.0938 -12.5146 0.4361 1.0000
50.0938 -12.0383 0.4351 1.0000
50.0939 -11.7218 0.4345 1.0000
50.0938 -11.2488 0.4336 1.0000
50.0938 -10.9345 0.4330 1.0000
50.0939 -10.6211 0.4325 1.0000
50.0939 -10.4646 0.4322 1.0000
50.0938 -9.6854 0.4309 1.0000
50.0939 -9.5300 0.4306 1.0000
50.0939 -9.2200 0.4302 1.0000
50.0938 -9.0652 0.4299 1.0000
50.0938 -8.9105 0.4297 1.0000
50.0938 -8.6018 0.4293 1.0000
50.0939 -8.4477 0.4290 1.0000
50.0939 -8.2937 0.4288 1.0000
50.0939 -8.1399 0.4286 1.0000
50.0939 -7.6793 0.4280 1.0000
50.0939 -7.5260 0.4278 1.0000
50.0938 -7.2199 0.4274 1.0000
50.0938 -7.0671 0.4272 1.0000
50.0938 -6.7618 0.4269 1.0000
50.0938 -6.3048 0.4264 1.0000
50.0938 -6.0007 0.4261 1.0000
50.0938 -5.8487 0.4259 1.0000
50.0938 -5.5453 0.4256 1.0000
50.0938 -5.3937 0.4255 1.0000
50.0938 -5.0909 0.4252 1.0000
50.0938 -4.9395 0.4251 1.0000
50.0938 -4.3352 0.4246 1.0000
50.0938 -4.0335 0.4244 1.0000
50.0938 -3.8827 0.4243 1.0000
50.0938 -2.9798 0.4238 1.0000
44.9500 -2.4041 0.3802 1.0000
44.9535 -2.2695 0.3801 1.0000
44.9583 -2.1349 0.3801 1.0000
44.9728 -1.7314 0.3801 1.0000
44.9773 -1.5970 0.3801 1.0000
44.9986 -0.9243 0.3801 1.0000
45.0111 -0.5207 0.3802 1.0000
45.0152 -0.3861 0.3802 1.0000
45.0194 -0.2516 0.3802 1.0000
45.0236 -0.1170 0.3802 1.0000
45.0277 0.0177 0.3803 1.0000
45.0402 0.4218 0.3804 1.0000
45.0444 0.5565 0.3804 1.0000
45.2048 0.8289 0.3818 1.0000
45.2004 0.9641 0.3818 1.0000
45.0819 1.3662 0.3809 1.0000
45.1957 1.7756 0.3820 1.0000
45.1994 1.9112 0.3821 1.0000
45.2110 2.1827 0.3823 1.0000
45.2236 2.4544 0.3825 1.0000
50.0938 2.8690 0.4238 1.0000
50.0938 3.0193 0.4238 1.0000
50.0938 3.1697 0.4239 1.0000
50.0938 3.3201 0.4240 1.0000
50.0938 3.6211 0.4242 1.0000
50.0938 3.7717 0.4243 1.0000
50.0938 4.0732 0.4245 1.0000
50.0938 4.2240 0.4246 1.0000
50.0938 4.3749 0.4247 1.0000
50.0938 4.5259 0.4248 1.0000
50.0938 4.6770 0.4249 1.0000
50.0938 4.9793 0.4252 1.0000
50.0938 5.1306 0.4253 1.0000
50.0938 5.2820 0.4254 1.0000
50.0938 5.4336 0.4255 1.0000
50.0938 5.5852 0.4257 1.0000
50.0938 5.7369 0.4258 1.0000
50.0938 5.8887 0.4260 1.0000
50.0938 6.0406 0.4261 1.0000
50.0938 6.3448 0.4264 1.0000
50.0938 6.4970 0.4266 1.0000
50.0938 6.9545 0.4271 1.0000
50.0938 7.4132 0.4277 1.0000
50.0938 7.7196 0.4281 1.0000
50.0938 8.0266 0.4285 1.0000
50.0938 8.3341 0.4289 1.0000
50.0938 8.4882 0.4291 1.0000
50.0938 8.6424 0.4293 1.0000
50.0938 8.7967 0.4295 1.0000
50.0938 9.1059 0.4300 1.0000
50.0938 9.2607 0.4302 1.0000
50.0938 9.4157 0.4305 1.0000
50.0938 9.5709 0.4307 1.0000
50.0938 9.8818 0.4312 1.0000
50.0938 10.0375 0.4315 1.0000
50.0938 10.8189 0.4328 1.0000
50.0938 10.9758 0.4331 1.0000
50.0938 11.1329 0.4334 1.0000
50.0938 11.4477 0.4340 1.0000
50.0938 11.6055 0.4343 1.0000
50.0938 11.7634 0.4346 1.0000
50.0938 12.0800 0.4352 1.0000
50.0938 12.3975 0.4358 1.0000
50.0938 12.5566 0.4361 1.0000
44.9711 1.2414 -0.3799 1.0000
44.9741 1.3761 -0.3800 1.0000
44.9719 1.6453 -0.3801 1.0000
44.9684 1.7798 -0.3801 1.0000
50.0938 2.1328 -0.4234 1.0000
50.0938 2.4330 -0.4236 1.0000
50.0938 2.5832 -0.4236 1.0000
50.0938 3.0340 -0.4238 1.0000
50.0938 3.1843 -0.4239 1.0000
50.0938 3.4853 -0.4241 1.0000
50.0938 3.6358 -0.4242 1.0000
50.0938 3.7864 -0.4243 1.0000
50.0938 4.0879 -0.4245 1.0000
50.0938 4.5406 -0.4248 1.0000
50.0938 4.8429 -0.4250 1.0000
50.0938 4.9940 -0.4252 1.0000
50.0938 5.1454 -0.4253 1.0000
50.0938 5.2968 -0.4254 1.0000
50.0938 5.4483 -0.4256 1.0000
50.0938 5.7517 -0.4258 1.0000
50.0938 5.9035 -0.4260 1.0000
50.0938 6.0554 -0.4261 1.0000
50.0938 6.3596 -0.4264 1.0000
50.0938 6.5119 -0.4266 1.0000
50.0938 6.8168 -0.4270 1.0000
50.0938 7.1222 -0.4273 1.0000
50.0938 7.2751 -0.4275 1.0000
50.0938 7.4281 -0.4277 1.0000
50.0938 7.5813 -0.4279 1.0000
50.0938 8.0416 -0.4285 1.0000
50.0938 8.1953 -0.4287 1.0000
50.0938 8.5032 -0.4291 1.0000
50.0938 9.1210 -0.4300 1.0000
50.0938 9.2758 -0.4302 1.0000
50.0938 9.4308 -0.4305 1.0000
50.0938 9.5861 -0.4307 1.0000
50.0938 9.7414 -0.4310 1.0000
50.0938 9.8970 -0.4312 1.0000
50.0938 10.2086 -0.4318 1.0000
50.0938 10.8343 -0.4328 1.0000
50.0938 11.1482 -0.4334 1.0000
50.0938 11.3056 -0.4337 1.0000
50.0938 11.4631 -0.4340 1.0000
50.0938 11.9370 -0.4349 1.0000
50.0938 12.4130 -0.4359 1.0000
50.0938 -13.1532 -0.4374 1.0000
50.0938 -12.6739 -0.4364 1.0000
50.0938 -12.5146 -0.4361 1.0000
50.0938 -12.1968 -0.4354 1.0000
50.0938 -11.4063 -0.4339 1.0000
50.0938 -11.2488 -0.4336 1.0000
50.0938 -11.0916 -0.4333 1.0000
50.0938 -10.9345 -0.4330 1.0000
50.0938 -10.7777 -0.4327 1.0000
50.0938 -10.6211 -0.4325 1.0000
50.0938 -10.3084 -0.4319 1.0000
50.0938 -10.1523 -0.4317 1.0000
50.0938 -9.6854 -0.4309 1.0000
50.0938 -9.2200 -0.4302 1.0000
50.0938 -9.0652 -0.4299 1.0000
50.0938 -8.7561 -0.4295 1.0000
50.0938 -8.6018 -0.4293 1.0000
50.0938 -8.4477 -0.4290 1.0000
50.0938 -7.8326 -0.4282 1.0000
50.0938 -7.6792 -0.4280 1.0000
50.0938 -7.5260 -0.4278 1.0000
50.0938 -7.0671 -0.4272 1.0000
50.0938 -6.7617 -0.4269 1.0000
50.0938 -6.6093 -0.4267 1.0000
50.0938 -6.0006 -0.4261 1.0000
50.0938 -5.8487 -0.4259 1.0000
50.0938 -5.6970 -0.4258 1.0000
50.0938 -5.5452 -0.4256 1.0000
50.0938 -5.3937 -0.4255 1.0000
50.0938 -5.2422 -0.4254 1.0000
50.0938 -5.0908 -0.4252 1.0000
50.0938 -4.9395 -0.4251 1.0000
50.0938 -4.7883 -0.4250 1.0000
50.0938 -4.6371 -0.4249 1.0000
50.0938 -4.4861 -0.4248 1.0000
50.0938 -4.3352 -0.4246 1.0000
50.0938 -4.1843 -0.4245 1.0000
50.0938 -4.0335 -0.4244 1.0000
50.0938 -3.2805 -0.4240 1.0000
50.0938 -3.1301 -0.4239 1.0000
50.0938 -2.6792 -0.4237 1.0000
50.0938 -2.5290 -0.4236 1.0000
50.0938 -2.3788 -0.4235 1.0000
50.0938 -2.2287 -0.4235 1.0000
50.0938 -1.9286 -0.4234 1.0000
44.8236 -1.5915 -0.3788 1.0000
44.8274 -1.4574 -0.3788 1.0000
44.8308 -1.3234 -0.3788 1.0000
44.8321 -1.1892 -0.3788 1.0000
44.8300 -1.0550 -0.3787 1.0000
44.8265 -0.9208 -0.3787 1.0000
50.0938 -0.4297 -0.4231 1.0000
50.0938 -0.1301 -0.4231 1.0000
50.0938 0.0197 -0.4231 1.0000
50.0938 0.1695 -0.4231 1.0000
50.0938 0.6189 -0.4231 1.0000
50.0938 0.7688 -0.4231 1.0000
50.0938 0.9186 -0.4231 1.0000
50.0938 1.0685 -0.4232 1.0000
44.9739 1.3630 -0.3800 1.0000
44.9688 1.7667 -0.3801 1.0000
50.0938 2.4183 -0.4236 1.0000
50.0938 2.7187 -0.4237 1.0000
50.0938 2.8690 -0.4237 1.0000
50.0938 3.0193 -0.4238 1.0000
50.0938 3.1696 -0.4239 1.0000
50.0938 3.3201 -0.4240 1.0000
50.0938 4.3749 -0.4247 1.0000
50.0938 4.5259 -0.4248 1.0000
50.0938 4.6769 -0.4249 1.0000
50.0938 4.8281 -0.4250 1.0000
50.0938 4.9793 -0.4251 1.0000
50.0938 5.2821 -0.4254 1.0000
50.0938 5.4336 -0.4255 1.0000
50.0938 5.5852 -0.4257 1.0000
50.0938 5.8887 -0.4260 1.0000
50.0938 6.0406 -0.4261 1.0000
50.0938 6.6494 -0.4268 1.0000
50.0938 7.1073 -0.4273 1.0000
50.0938 7.4132 -0.4277 1.0000
50.0938 7.8730 -0.4282 1.0000
50.0938 8.0266 -0.4285 1.0000
50.0938 8.3341 -0.4289 1.0000
50.0938 8.6424 -0.4293 1.0000
50.0938 8.7967 -0.4295 1.0000
50.0938 9.1059 -0.4300 1.0000
50.0938 9.5709 -0.4307 1.0000
50.0938 9.7262 -0.4310 1.0000
50.0938 9.8818 -0.4312 1.0000
50.0938 10.1934 -0.4317 1.0000
50.0938 10.3495 -0.4320 1.0000
50.0938 10.8189 -0.4328 1.0000
50.0938 11.1329 -0.4334 1.0000
50.0938 11.2902 -0.4337 1.0000
50.0938 11.4477 -0.4340 1.0000
50.0938 11.6054 -0.4343 1.0000
50.0938 11.7634 -0.4346 1.0000
50.0938 11.9216 -0.4349 1.0000
50.0938 12.2386 -0.4355 1.0000
50.0938 12.3975 -0.4358 1.0000
50.0938 12.5565 -0.4361 1.0000
50.0938 12.7159 -0.4365 1.0000
27.6852 0.8470 -0.7019 1.0000
27.6827 0.9298 -0.7019 1.0000
27.6798 1.0126 -0.7019 1.0000
27.6768 1.0954 -0.7019 1.0000
27.6663 1.3436 -0.7019 1.0000
27.6582 1.5092 -0.7019 1.0000
27.6537 1.5918 -0.7019 1.0000
27.6489 1.6745 -0.7019 1.0000
27.6440 1.7572 -0.7019 1.0000
27.6215 2.0877 -0.7019 1.0000
27.6153 2.1703 -0.7020 1.0000
27.6089 2.2530 -0.7020 1.0000
27.6021 2.3355 -0.7020 1.0000
27.5952 2.4180 -0.7020 1.0000
27.5880 2.5005 -0.7020 1.0000
27.5804 2.5830 -0.7020 1.0000
27.5727 2.6655 -0.7020 1.0000
27.5648 2.7479 -0.7020 1.0000
27.5482 2.9129 -0.7020 1.0000
27.5395 2.9953 -0.7020 1.0000
27.5305 3.0776 -0.7020 1.0000
27.5024 3.3245 -0.7020 1.0000
27.4925 3.4067 -0.7020 1.0000
27.4718 3.5711 -0.7020 1.0000
27.4612 3.6533 -0.7020 1.0000
27.4502 3.7353 -0.7020 1.0000
27.4160 3.9816 -0.7020 1.0000
27.4041 4.0636 -0.7020 1.0000
27.3921 4.1455 -0.7020 1.0000
27.3796 4.2274 -0.7020 1.0000
27.3277 4.5547 -0.7021 1.0000
27.2861 4.7997 -0.7021 1.0000
27.2718 4.8813 -0.7021 1.0000
27.2423 5.0444 -0.7021 1.0000
27.2273 5.1259 -0.7021 1.0000
27.1964 5.2886 -0.7021 1.0000
27.1484 5.5325 -0.7021 1.0000
27.1149 5.6948 -0.7021 1.0000
27.0980 5.7760 -0.7021 1.0000
27.0808 5.8569 -0.7021 1.0000
27.0632 5.9379 -0.7021 1.0000
27.0454 6.0188 -0.7021 1.0000
27.0093 6.1805 -0.7021 1.0000
26.9908 6.2613 -0.7021 1.0000
26.9531 6.4226 -0.7021 1.0000
26.9340 6.5033 -0.7021 1.0000
26.8749 6.7447 -0.7022 1.0000
26.8345 6.9054 -0.7022 1.0000
26.7716 7.1459 -0.7022 1.0000
26.7962 -6.9504 -0.7015 1.0000
26.8171 -6.8703 -0.7015 1.0000
26.8780 -6.6296 -0.7015 1.0000
26.9177 -6.4688 -0.7015 1.0000
26.9561 -6.3078 -0.7015 1.0000
27.0303 -5.9850 -0.7016 1.0000
27.0659 -5.8234 -0.7016 1.0000
27.0833 -5.7424 -0.7016 1.0000
27.1176 -5.5805 -0.7016 1.0000
27.1670 -5.3370 -0.7016 1.0000
27.1830 -5.2557 -0.7016 1.0000
27.1987 -5.1745 -0.7016 1.0000
27.2446 -4.9303 -0.7016 1.0000
27.2593 -4.8489 -0.7016 1.0000
27.2738 -4.7674 -0.7016 1.0000
27.2883 -4.6858 -0.7016 1.0000
27.3023 -4.6041 -0.7016 1.0000
27.3688 -4.1956 -0.7016 1.0000
27.4057 -3.9500 -0.7017 1.0000
27.4406 -3.7041 -0.7017 1.0000
27.4516 -3.6220 -0.7017 1.0000
27.4836 -3.3756 -0.7017 1.0000
27.4937 -3.2935 -0.7017 1.0000
27.5134 -3.1291 -0.7017 1.0000
27.5317 -2.9644 -0.7017 1.0000
27.5577 -2.7173 -0.7017 1.0000
27.5659 -2.6350 -0.7017 1.0000
27.5739 -2.5526 -0.7017 1.0000
27.5816 -2.4702 -0.7017 1.0000
27.5889 -2.3877 -0.7017 1.0000
27.6162 -2.0575 -0.7018 1.0000
27.6223 -1.9751 -0.7018 1.0000
27.6340 -1.8098 -0.7018 1.0000
27.6395 -1.7271 -0.7018 1.0000
27.6446 -1.6445 -0.7018 1.0000
27.6495 -1.5618 -0.7018 1.0000
27.6542 -1.4790 -0.7018 1.0000
27.6630 -1.3137 -0.7018 1.0000
27.6669 -1.2310 -0.7018 1.0000
27.6705 -1.1482 -0.7018 1.0000
27.6741 -1.0655 -0.7018 1.0000
27.6772 -0.9828 -0.7018 1.0000
27.6803 -0.9000 -0.7018 1.0000
27.6830 -0.8173 -0.7018 1.0000
27.6877 -0.6516 -0.7018 1.0000
27.6895 -0.5689 -0.7018 1.0000
27.6914 -0.4861 -0.7018 1.0000
27.6940 -0.3205 -0.7018 1.0000
27.6964 0.0936 -0.7019 1.0000
27.6959 0.2593 -0.7019 1.0000
27.6950 0.3421 -0.7019 1.0000
27.6896 0.6734 -0.7019 1.0000
27.6876 0.7561 -0.7019 1.0000
27.6855 0.8389 -0.7019 1.0000
27.6830 0.9218 -0.7019 1.0000
27.6668 1.3356 -0.7019 1.0000
27.6586 1.5010 -0.7019 1.0000
27.6493 1.6664 -0.7019 1.0000
27.6394 1.8317 -0.7019 1.0000
27.6338 1.9145 -0.7019 1.0000
27.6281 1.9970 -0.7019 1.0000
27.6159 2.1623 -0.7020 1.0000
27.6095 2.2449 -0.7020 1.0000
27.6027 2.3275 -0.7020 1.0000
27.5959 2.4100 -0.7020 1.0000
27.5657 2.7399 -0.7020 1.0000
27.5404 2.9871 -0.7020 1.0000
27.5223 3.1518 -0.7020 1.0000
27.5032 3.3164 -0.7020 1.0000
27.4729 3.5631 -0.7020 1.0000
27.4514 3.7275 -0.7020 1.0000
27.4288 3.8915 -0.7020 1.0000
27.4171 3.9736 -0.7020 1.0000
27.4053 4.0555 -0.7020 1.0000
27.3808 4.2194 -0.7020 1.0000
27.3424 4.4649 -0.7021 1.0000
27.3291 4.5468 -0.7021 1.0000
27.3155 4.6285 -0.7021 1.0000
27.2732 4.8734 -0.7021 1.0000
27.2585 4.9549 -0.7021 1.0000
27.2288 5.1180 -0.7021 1.0000
27.1980 5.2808 -0.7021 1.0000
27.1500 5.5246 -0.7021 1.0000
27.1166 5.6869 -0.7021 1.0000
27.0996 5.7680 -0.7021 1.0000
27.0825 5.8490 -0.7021 1.0000
27.0650 5.9302 -0.7021 1.0000
27.0293 6.0918 -0.7021 1.0000
26.9927 6.2534 -0.7021 1.0000
26.9738 6.3341 -0.7021 1.0000
26.9549 6.4149 -0.7021 1.0000
26.8968 6.6565 -0.7021 1.0000
26.8769 6.7369 -0.7022 1.0000
16.5991 0.5079 -0.7017 1.0000
16.5959 0.6071 -0.7017 1.0000
16.5940 0.6568 -0.7017 1.0000
16.5921 0.7064 -0.7017 1.0000
16.5899 0.7560 -0.7017 1.0000
16.5877 0.8055 -0.7017 1.0000
16.5853 0.8552 -0.7017 1.0000
16.5799 0.9544 -0.7017 1.0000
16.5709 1.1031 -0.7017 1.0000
16.5675 1.1526 -0.7017 1.0000
16.5641 1.2022 -0.7017 1.0000
16.5604 1.2517 -0.7017 1.0000
16.5567 1.3012 -0.7017 1.0000
16.5487 1.4003 -0.7017 1.0000
16.5445 1.4496 -0.7017 1.0000
16.5401 1.4992 -0.7017 1.0000
16.5262 1.6475 -0.7017 1.0000
16.5055 1.8450 -0.7017 1.0000
16.5000 1.8945 -0.7017 1.0000
16.4943 1.9437 -0.7017 1.0000
16.4763 2.0917 -0.7017 1.0000
16.4636 2.1901 -0.7017 1.0000
16.4435 2.3377 -0.7017 1.0000
16.4146 2.5343 -0.7017 1.0000
16.4069 2.5834 -0.7017 1.0000
16.3991 2.6325 -0.7017 1.0000
16.3667 2.8285 -0.7018 1.0000
16.3582 2.8775 -0.7018 1.0000
16.3319 3.0241 -0.7018 1.0000
16.3229 3.0729 -0.7018 1.0000
16.3043 3.1705 -0.7018 1.0000
16.2851 3.2680 -0.7018 1.0000
16.2553 3.4140 -0.7018 1.0000
16.2450 3.4626 -0.7018 1.0000
16.2347 3.5112 -0.7018 1.0000
16.2241 3.5597 -0.7018 1.0000
16.2027 3.6567 -0.7018 1.0000
16.1917 3.7052 -0.7018 1.0000
16.1805 3.7535 -0.7018 1.0000
16.1229 3.9951 -0.7018 1.0000
16.1109 4.0433 -0.7018 1.0000
16.0988 4.0915 -0.7018 1.0000
16.0866 4.1396 -0.7018 1.0000
16.0443 -4.2641 -0.7014 1.0000
16.0571 -4.2163 -0.7014 1.0000
16.0697 -4.1681 -0.7014 1.0000
16.0821 -4.1201 -0.7014 1.0000
16.1066 -4.0239 -0.7014 1.0000
16.1186 -3.9756 -0.7014 1.0000
16.1538 -3.8310 -0.7014 1.0000
16.1877 -3.6859 -0.7014 1.0000
16.1987 -3.6376 -0.7014 1.0000
16.2203 -3.5406 -0.7015 1.0000
16.2309 -3.4922 -0.7015 1.0000
16.2618 -3.3465 -0.7015 1.0000
16.2717 -3.2978 -0.7015 1.0000
16.2815 -3.2491 -0.7015 1.0000
16.3008 -3.1517 -0.7015 1.0000
16.3195 -3.0542 -0.7015 1.0000
16.3375 -2.9565 -0.7015 1.0000
16.3464 -2.9076 -0.7015 1.0000
16.3551 -2.8587 -0.7015 1.0000
16.3636 -2.8099 -0.7015 1.0000
16.3720 -2.7609 -0.7015 1.0000
16.3802 -2.7120 -0.7015 1.0000
16.3883 -2.6630 -0.7015 1.0000
16.4041 -2.5650 -0.7015 1.0000
16.4117 -2.5159 -0.7015 1.0000
16.4192 -2.4668 -0.7015 1.0000
16.4266 -2.4177 -0.7015 1.0000
16.4408 -2.3194 -0.7015 1.0000
16.4546 -2.2211 -0.7015 1.0000
16.4612 -2.1719 -0.7015 1.0000
16.4677 -2.1226 -0.7015 1.0000
16.4739 -2.0734 -0.7015 1.0000
16.4802 -2.0241 -0.7015 1.0000
16.4921 -1.9256 -0.7015 1.0000
16.5035 -1.8269 -0.7015 1.0000
16.5089 -1.7775 -0.7015 1.0000
16.5142 -1.7283 -0.7015 1.0000
16.5193 -1.6789 -0.7015 1.0000
16.5339 -1.5305 -0.7016 1.0000
16.5384 -1.4812 -0.7016 1.0000
16.5471 -1.3822 -0.7016 1.0000
16.5512 -1.3327 -0.7016 1.0000
16.5552 -1.2832 -0.7016 1.0000
16.5590 -1.2338 -0.7016 1.0000
16.5627 -1.1842 -0.7016 1.0000
16.5662 -1.1347 -0.7016 1.0000
16.5696 -1.0852 -0.7016 1.0000
16.5728 -1.0357 -0.7016 1.0000
16.5759 -0.9861 -0.7016 1.0000
16.5816 -0.8869 -0.7016 1.0000
16.5912 -0.6885 -0.7016 1.0000
16.5952 -0.5892 -0.7016 1.0000
16.5970 -0.5396 -0.7016 1.0000
16.6000 -0.4404 -0.7016 1.0000
16.6013 -0.3908 -0.7016 1.0000
16.6024 -0.3411 -0.7016 1.0000
16.6056 -0.1425 -0.7016 1.0000
16.6059 -0.0929 -0.7016 1.0000
16.6062 -0.0432 -0.7016 1.0000
16.6063 0.0064 -0.7016 1.0000
16.6062 0.0561 -0.7016 1.0000
16.6061 0.1057 -0.7016 1.0000
16.6058 0.1555 -0.7016 1.0000
16.6046 0.2548 -0.7016 1.0000
16.6038 0.3044 -0.7016 1.0000
16.6029 0.3540 -0.7016 1.0000
16.5992 0.5030 -0.7017 1.0000
16.5922 0.7016 -0.7017 1.0000
16.5879 0.8008 -0.7017 1.0000
16.5802 0.9495 -0.7017 1.0000
16.5711 1.0982 -0.7017 1.0000
16.5678 1.1478 -0.7017 1.0000
16.5644 1.1974 -0.7017 1.0000
16.5571 1.2965 -0.7017 1.0000
16.5531 1.3459 -0.7017 1.0000
16.5405 1.4943 -0.7017 1.0000
16.5361 1.5437 -0.7017 1.0000
16.5314 1.5933 -0.7017 1.0000
16.5266 1.6427 -0.7017 1.0000
16.5166 1.7415 -0.7017 1.0000
16.5061 1.8403 -0.7017 1.0000
16.4949 1.9390 -0.7017 1.0000
16.4890 1.9883 -0.7017 1.0000
16.4770 2.0870 -0.7017 1.0000
16.4707 2.1361 -0.7017 1.0000
16.4642 2.1854 -0.7017 1.0000
16.4577 2.2346 -0.7017 1.0000
16.4371 2.3822 -0.7017 1.0000
16.4300 2.4314 -0.7017 1.0000
16.4153 2.5296 -0.7017 1.0000
16.4076 2.5787 -0.7017 1.0000
16.3999 2.6277 -0.7017 1.0000
16.3505 2.9216 -0.7018 1.0000
16.3417 2.9705 -0.7018 1.0000
16.3328 3.0194 -0.7018 1.0000
16.3145 3.1170 -0.7018 1.0000
16.3052 3.1658 -0.7018 1.0000
16.2763 3.3120 -0.7018 1.0000
16.2663 3.3605 -0.7018 1.0000
16.2563 3.4092 -0.7018 1.0000
16.2357 3.5064 -0.7018 1.0000
16.2145 3.6035 -0.7018 1.0000
16.2037 3.6519 -0.7018 1.0000
16.1928 3.7005 -0.7018 1.0000
16.1817 3.7488 -0.7018 1.0000
16.1704 3.7972 -0.7018 1.0000
16.1121 4.0386 -0.7018 1.0000
11.8469 0.3979 -0.7016 1.0000
11.8429 0.5042 -0.7016 1.0000
11.8414 0.5396 -0.7016 1.0000
11.8398 0.5750 -0.7016 1.0000
11.8362 0.6458 -0.7016 1.0000
11.8342 0.6812 -0.7016 1.0000
11.8176 0.9288 -0.7016 1.0000
11.8147 0.9641 -0.7016 1.0000
11.8118 0.9994 -0.7016 1.0000
11.8088 1.0347 -0.7016 1.0000
11.8025 1.1053 -0.7016 1.0000
11.7957 1.1758 -0.7016 1.0000
11.7922 1.2111 -0.7016 1.0000
11.7769 1.3521 -0.7016 1.0000
11.7687 1.4226 -0.7016 1.0000
11.7644 1.4577 -0.7016 1.0000
11.7509 1.5633 -0.7016 1.0000
11.7462 1.5984 -0.7016 1.0000
11.7414 1.6335 -0.7016 1.0000
11.7365 1.6686 -0.7016 1.0000
11.7315 1.7038 -0.7016 1.0000
11.7263 1.7387 -0.7016 1.0000
11.7211 1.7738 -0.7016 1.0000
11.7049 1.8788 -0.7016 1.0000
11.6992 1.9140 -0.7016 1.0000
11.6935 1.9489 -0.7016 1.0000
11.6816 2.0189 -0.7016 1.0000
11.6694 2.0886 -0.7016 1.0000
11.6568 2.1584 -0.7016 1.0000
11.6370 2.2629 -0.7016 1.0000
11.6020 2.4366 -0.7016 1.0000
11.5797 2.5407 -0.7016 1.0000
11.5486 2.6790 -0.7017 1.0000
11.5405 2.7136 -0.7017 1.0000
11.5158 2.8169 -0.7017 1.0000
11.5073 2.8514 -0.7017 1.0000
11.4988 2.8858 -0.7017 1.0000
11.4902 2.9202 -0.7017 1.0000
11.4814 2.9545 -0.7017 1.0000
11.4636 3.0232 -0.7017 1.0000
11.4531 -3.0440 -0.7014 1.0000
11.4889 -2.9068 -0.7014 1.0000
11.4975 -2.8724 -0.7014 1.0000
11.5060 -2.8380 -0.7014 1.0000
11.5229 -2.7691 -0.7014 1.0000
11.5312 -2.7347 -0.7014 1.0000
11.5553 -2.6312 -0.7014 1.0000
11.5631 -2.5967 -0.7014 1.0000
11.5860 -2.4928 -0.7014 1.0000
11.6008 -2.4235 -0.7014 1.0000
11.6080 -2.3888 -0.7014 1.0000
11.6222 -2.3194 -0.7014 1.0000
11.6426 -2.2149 -0.7014 1.0000
11.6492 -2.1802 -0.7014 1.0000
11.6746 -2.0407 -0.7014 1.0000
11.6806 -2.0058 -0.7014 1.0000
11.6866 -1.9708 -0.7014 1.0000
11.6925 -1.9359 -0.7014 1.0000
11.7095 -1.8310 -0.7014 1.0000
11.7307 -1.6908 -0.7015 1.0000
11.7357 -1.6557 -0.7015 1.0000
11.7406 -1.6205 -0.7015 1.0000
11.7548 -1.5153 -0.7015 1.0000
11.7680 -1.4097 -0.7015 1.0000
11.7722 -1.3744 -0.7015 1.0000
11.7763 -1.3393 -0.7015 1.0000
11.7803 -1.3040 -0.7015 1.0000
11.7951 -1.1631 -0.7015 1.0000
11.8083 -1.0219 -0.7015 1.0000
11.8113 -0.9867 -0.7015 1.0000
11.8143 -0.9513 -0.7015 1.0000
11.8249 -0.8100 -0.7015 1.0000
11.8273 -0.7746 -0.7015 1.0000
11.8296 -0.7392 -0.7015 1.0000
11.8318 -0.7038 -0.7015 1.0000
11.8377 -0.5977 -0.7015 1.0000
11.8395 -0.5623 -0.7015 1.0000
11.8411 -0.5268 -0.7015 1.0000
11.8427 -0.4915 -0.7015 1.0000
11.8441 -0.4561 -0.7015 1.0000
11.8454 -0.4207 -0.7015 1.0000
11.8478 -0.3498 -0.7015 1.0000
11.8488 -0.3143 -0.7015 1.0000
11.8506 -0.2435 -0.7015 1.0000
11.8513 -0.2080 -0.7015 1.0000
11.8524 -0.1372 -0.7015 1.0000
11.8530 -0.0663 -0.7015 1.0000
11.8532 0.0046 -0.7015 1.0000
11.8532 0.0401 -0.7015 1.0000
11.8520 0.1818 -0.7015 1.0000
11.8500 0.2882 -0.7015 1.0000
11.8491 0.3236 -0.7015 1.0000
11.8481 0.3590 -0.7015 1.0000
11.8470 0.3944 -0.7016 1.0000
11.8430 0.5007 -0.7016 1.0000
11.8415 0.5360 -0.7016 1.0000
11.8382 0.6071 -0.7016 1.0000
11.8344 0.6777 -0.7016 1.0000
11.8323 0.7131 -0.7016 1.0000
11.8256 0.8193 -0.7016 1.0000
11.8178 0.9254 -0.7016 1.0000
11.8091 1.0312 -0.7016 1.0000
11.8060 1.0666 -0.7016 1.0000
11.8028 1.1019 -0.7016 1.0000
11.7960 1.1725 -0.7016 1.0000
11.7925 1.2077 -0.7016 1.0000
11.7889 1.2430 -0.7016 1.0000
11.7851 1.2782 -0.7016 1.0000
11.7691 1.4191 -0.7016 1.0000
11.7605 1.4895 -0.7016 1.0000
11.7560 1.5246 -0.7016 1.0000
11.7467 1.5950 -0.7016 1.0000
11.7419 1.6301 -0.7016 1.0000
11.7269 1.7354 -0.7016 1.0000
11.7217 1.7704 -0.7016 1.0000
11.7163 1.8055 -0.7016 1.0000
11.7109 1.8405 -0.7016 1.0000
11.7054 1.8755 -0.7016 1.0000
11.6940 1.9455 -0.7016 1.0000
11.6822 2.0154 -0.7016 1.0000
11.6637 2.1202 -0.7016 1.0000
11.6509 2.1898 -0.7016 1.0000
11.6377 2.2594 -0.7016 1.0000
11.6027 2.4332 -0.7016 1.0000
11.5729 2.5719 -0.7016 1.0000
11.5494 2.6757 -0.7017 1.0000
11.5332 2.7448 -0.7017 1.0000
11.5250 2.7791 -0.7017 1.0000
11.5166 2.8136 -0.7017 1.0000
11.4997 2.8825 -0.7017 1.0000
11.4910 2.9168 -0.7017 1.0000
9.2065 0.3093 -0.7015 1.0000
9.2055 0.3367 -0.7015 1.0000
9.2045 0.3643 -0.7015 1.0000
9.2033 0.3918 -0.7015 1.0000
9.2021 0.4193 -0.7015 1.0000
9.2009 0.4469 -0.7015 1.0000
9.1995 0.4743 -0.7015 1.0000
9.1981 0.5018 -0.7015 1.0000
9.1966 0.5294 -0.7015 1.0000
9.1949 0.5569 -0.7015 1.0000
9.1915 0.6117 -0.7015 1.0000
9.1896 0.6394 -0.7015 1.0000
9.1857 0.6943 -0.7015 1.0000
9.1836 0.7217 -0.7015 1.0000
9.1791 0.7766 -0.7015 1.0000
9.1744 0.8315 -0.7015 1.0000
9.1719 0.8590 -0.7015 1.0000
9.1693 0.8864 -0.7015 1.0000
9.1666 0.9138 -0.7015 1.0000
9.1638 0.9412 -0.7015 1.0000
9.1610 0.9686 -0.7015 1.0000
9.1581 0.9960 -0.7015 1.0000
9.1551 1.0234 -0.7015 1.0000
9.1488 1.0781 -0.7015 1.0000
9.1422 1.1329 -0.7015 1.0000
9.1353 1.1874 -0.7015 1.0000
9.1281 1.2421 -0.7015 1.0000
9.1044 1.4057 -0.7015 1.0000
9.1002 1.4329 -0.7015 1.0000
9.0959 1.4602 -0.7015 1.0000
9.0870 1.5146 -0.7015 1.0000
9.0683 1.6231 -0.7016 1.0000
9.0635 1.6501 -0.7016 1.0000
9.0534 1.7043 -0.7016 1.0000
9.0483 1.7314 -0.7016 1.0000
9.0431 1.7585 -0.7016 1.0000
9.0324 1.8126 -0.7016 1.0000
9.0270 1.8396 -0.7016 1.0000
9.0215 1.8665 -0.7016 1.0000
9.0102 1.9204 -0.7016 1.0000
9.0045 1.9474 -0.7016 1.0000
8.9986 1.9744 -0.7016 1.0000
8.9927 2.0013 -0.7016 1.0000
8.9805 2.0550 -0.7016 1.0000
8.9744 2.0819 -0.7016 1.0000
8.9681 2.1087 -0.7016 1.0000
8.9618 2.1355 -0.7016 1.0000
8.9554 2.1623 -0.7016 1.0000
8.9489 2.1891 -0.7016 1.0000
8.9423 2.2158 -0.7016 1.0000
8.9289 2.2692 -0.7016 1.0000
8.9221 2.2960 -0.7016 1.0000
8.9082 2.3492 -0.7016 1.0000
8.9012 2.3759 -0.7016 1.0000
8.9080 -2.3391 -0.7014 1.0000
8.9149 -2.3124 -0.7014 1.0000
8.9219 -2.2857 -0.7014 1.0000
8.9354 -2.2324 -0.7014 1.0000
8.9421 -2.2056 -0.7014 1.0000
8.9615 -2.1253 -0.7014 1.0000
8.9679 -2.0985 -0.7014 1.0000
8.9741 -2.0717 -0.7014 1.0000
8.9864 -2.0180 -0.7014 1.0000
8.9924 -1.9911 -0.7014 1.0000
9.0099 -1.9104 -0.7014 1.0000
9.0322 -1.8025 -0.7014 1.0000
9.0376 -1.7755 -0.7014 1.0000
9.0429 -1.7484 -0.7014 1.0000
9.0481 -1.7215 -0.7014 1.0000
9.0532 -1.6943 -0.7014 1.0000
9.0583 -1.6672 -0.7014 1.0000
9.0632 -1.6402 -0.7014 1.0000
9.0681 -1.6130 -0.7014 1.0000
9.0729 -1.5859 -0.7014 1.0000
9.0913 -1.4773 -0.7014 1.0000
9.1000 -1.4230 -0.7014 1.0000
9.1043 -1.3957 -0.7014 1.0000
9.1164 -1.3141 -0.7014 1.0000
9.1203 -1.2867 -0.7014 1.0000
9.1242 -1.2594 -0.7014 1.0000
9.1279 -1.2321 -0.7014 1.0000
9.1352 -1.1776 -0.7014 1.0000
9.1387 -1.1503 -0.7014 1.0000
9.1454 -1.0956 -0.7014 1.0000
9.1486 -1.0682 -0.7014 1.0000
9.1519 -1.0408 -0.7014 1.0000
9.1549 -1.0135 -0.7014 1.0000
9.1609 -0.9587 -0.7014 1.0000
9.1637 -0.9312 -0.7014 1.0000
9.1717 -0.8491 -0.7014 1.0000
9.1790 -0.7668 -0.7014 1.0000
9.1835 -0.7118 -0.7014 1.0000
9.1856 -0.6844 -0.7014 1.0000
9.1914 -0.6020 -0.7015 1.0000
9.1932 -0.5745 -0.7015 1.0000
9.1948 -0.5470 -0.7015 1.0000
9.1965 -0.5194 -0.7015 1.0000
9.1980 -0.4920 -0.7015 1.0000
9.2021 -0.4095 -0.7015 1.0000
9.2044 -0.3544 -0.7015 1.0000
9.2055 -0.3270 -0.7015 1.0000
9.2064 -0.2994 -0.7015 1.0000
9.2073 -0.2719 -0.7015 1.0000
9.2081 -0.2443 -0.7015 1.0000
9.2087 -0.2168 -0.7015 1.0000
9.2094 -0.1892 -0.7015 1.0000
9.2100 -0.1617 -0.7015 1.0000
9.2104 -0.1341 -0.7015 1.0000
9.2115 0.0036 -0.7015 1.0000
9.2108 0.1137 -0.7015 1.0000
9.2105 0.1413 -0.7015 1.0000
9.2089 0.2238 -0.7015 1.0000
9.2082 0.2514 -0.7015 1.0000
9.2074 0.2790 -0.7015 1.0000
9.2066 0.3065 -0.7015 1.0000
9.2056 0.3340 -0.7015 1.0000
9.2010 0.4441 -0.7015 1.0000
9.1997 0.4717 -0.7015 1.0000
9.1967 0.5267 -0.7015 1.0000
9.1934 0.5817 -0.7015 1.0000
9.1917 0.6091 -0.7015 1.0000
9.1898 0.6367 -0.7015 1.0000
9.1879 0.6641 -0.7015 1.0000
9.1817 0.7465 -0.7015 1.0000
9.1794 0.7740 -0.7015 1.0000
9.1770 0.8015 -0.7015 1.0000
9.1746 0.8288 -0.7015 1.0000
9.1721 0.8563 -0.7015 1.0000
9.1669 0.9112 -0.7015 1.0000
9.1641 0.9385 -0.7015 1.0000
9.1613 0.9660 -0.7015 1.0000
9.1584 0.9933 -0.7015 1.0000
9.1554 1.0207 -0.7015 1.0000
9.1523 1.0481 -0.7015 1.0000
9.1426 1.1301 -0.7015 1.0000
9.1392 1.1575 -0.7015 1.0000
9.1321 1.2121 -0.7015 1.0000
9.1285 1.2394 -0.7015 1.0000
9.1209 1.2940 -0.7015 1.0000
9.1170 1.3213 -0.7015 1.0000
9.1090 1.3757 -0.7015 1.0000
9.1048 1.4030 -0.7015 1.0000
9.1006 1.4302 -0.7015 1.0000
9.0963 1.4575 -0.7015 1.0000
9.0919 1.4846 -0.7015 1.0000
9.0783 1.5661 -0.7016 1.0000
