ply
format ascii 1.0
element vertex 1602
property float32 x
property float32 y
property float32 z
property float32 I
end_header
50.0940 0.1258 10.7363 1.0000
50.0941 0.5757 10.7370 1.0000
50.0940 0.7257 10.7374 1.0000
50.0941 0.8757 10.7379 1.0000
50.0941 1.0257 10.7385 1.0000
50.0940 1.1759 10.7392 1.0000
50.0940 1.6261 10.7419 1.0000
50.0941 2.0766 10.7455 1.0000
50.0940 2.8284 10.7534 1.0000
50.0940 3.2799 10.7593 1.0000
50.0940 3.4306 10.7614 1.0000
50.0940 3.5813 10.7637 1.0000
50.0940 3.7321 10.7660 1.0000
50.0941 4.3359 10.7764 1.0000
50.0940 4.4870 10.7793 1.0000
50.0941 4.7895 10.7852 1.0000
50.0941 5.0924 10.7916 1.0000
50.0941 5.3956 10.7984 1.0000
50.0940 5.6993 10.8055 1.0000
50.0940 5.8512 10.8093 1.0000
50.0940 6.0033 10.8131 1.0000
50.0941 6.3078 10.8211 1.0000
50.0941 6.4602 10.8252 1.0000
50.0941 6.7654 10.8337 1.0000
50.0940 7.0710 10.8427 1.0000
50.0940 7.5306 10.8569 1.0000
50.0940 7.8376 10.8669 1.0000
50.0941 7.9913 10.8720 1.0000
50.0941 8.1452 10.8773 1.0000
50.0941 8.2992 10.8826 1.0000
50.0940 8.6077 10.8936 1.0000
50.0940 9.0716 10.9109 1.0000
50.0940 9.2266 10.9169 1.0000
50.0941 9.3818 10.9229 1.0000
50.0940 9.6926 10.9354 1.0000
50.0941 9.8482 10.9418 1.0000
50.0941 10.0041 10.9483 1.0000
50.0941 10.1602 10.9549 1.0000
50.0941 10.3164 10.9616 1.0000
50.0940 10.4729 10.9684 1.0000
50.0940 10.6295 10.9753 1.0000
50.0940 10.7863 10.9823 1.0000
50.0940 10.9433 10.9895 1.0000
50.0941 11.2580 11.0041 1.0000
50.0941 11.8900 11.0346 1.0000
50.0941 12.0485 11.0424 1.0000
50.0940 12.5255 11.0668 1.0000
50.0940 12.6850 11.0751 1.0000
50.0940 13.1648 11.1008 1.0000
50.0941 13.3253 11.1096 1.0000
50.0941 -13.3594 11.1115 1.0000
50.0941 -13.1989 11.1027 1.0000
50.0941 -12.8786 11.0854 1.0000
50.0941 -12.5593 11.0686 1.0000
50.0941 -12.2409 11.0522 1.0000
50.0941 -12.0821 11.0441 1.0000
50.0941 -11.9236 11.0362 1.0000
50.0941 -11.4491 11.0131 1.0000
50.0941 -10.9766 10.9910 1.0000
50.0941 -10.8196 10.9838 1.0000
50.0941 -10.5061 10.9699 1.0000
50.0941 -10.3496 10.9630 1.0000
50.0941 -10.1933 10.9563 1.0000
50.0941 -10.0372 10.9497 1.0000
50.0941 -9.8813 10.9432 1.0000
50.0941 -9.5700 10.9304 1.0000
50.0941 -9.1045 10.9122 1.0000
50.0941 -8.9496 10.9063 1.0000
50.0941 -8.7949 10.9005 1.0000
50.0941 -8.3319 10.8838 1.0000
50.0941 -8.1778 10.8784 1.0000
50.0941 -7.5631 10.8580 1.0000
50.0940 -7.4098 10.8531 1.0000
50.0939 -7.1036 10.8437 1.0000
50.0940 -6.9506 10.8391 1.0000
50.0939 -6.3402 10.8219 1.0000
50.0939 -6.0356 10.8139 1.0000
50.0939 -5.8835 10.8101 1.0000
50.0939 -5.7315 10.8063 1.0000
50.0939 -5.4279 10.7991 1.0000
50.0939 -5.2761 10.7957 1.0000
50.0940 -5.1246 10.7923 1.0000
50.0940 -4.5191 10.7799 1.0000
50.0940 -4.3679 10.7770 1.0000
50.0939 -3.7641 10.7665 1.0000
50.0940 -3.6133 10.7642 1.0000
50.0939 -2.8603 10.7538 1.0000
50.0939 -2.4091 10.7487 1.0000
50.0941 -2.2588 10.7472 1.0000
50.0940 -2.1085 10.7458 1.0000
50.0940 -1.9583 10.7445 1.0000
50.0940 -1.5078 10.7411 1.0000
50.0941 -0.9076 10.7380 1.0000
50.0941 -0.7576 10.7375 1.0000
50.0940 -0.6076 10.7371 1.0000
50.0940 -0.4576 10.7367 1.0000
50.0941 -0.1576 10.7363 1.0000
50.0941 0.1423 10.7363 1.0000
50.0941 0.4423 10.7367 1.0000
50.0940 0.8923 10.7380 1.0000
50.0940 1.0423 10.7386 1.0000
50.0940 1.1924 10.7393 1.0000
50.0941 1.4925 10.7410 1.0000
50.0941 1.6427 10.7420 1.0000
50.0941 2.2435 10.7470 1.0000
50.0940 2.5441 10.7501 1.0000
50.0940 2.8450 10.7536 1.0000
50.0940 3.2966 10.7595 1.0000
50.0941 3.5979 10.7639 1.0000
50.0940 3.8996 10.7688 1.0000
50.0941 4.0505 10.7713 1.0000
50.0940 4.6549 10.7825 1.0000
50.0941 4.8063 10.7856 1.0000
50.0941 5.1091 10.7920 1.0000
50.0941 5.2607 10.7953 1.0000
50.0940 5.5642 10.8023 1.0000
50.0941 5.7160 10.8059 1.0000
50.0941 6.0201 10.8135 1.0000
50.0941 6.3246 10.8215 1.0000
50.0941 6.7823 10.8342 1.0000
50.0941 7.0879 10.8432 1.0000
50.0940 7.5475 10.8575 1.0000
50.0940 8.1622 10.8779 1.0000
50.0941 8.3162 10.8832 1.0000
50.0941 8.9339 10.9057 1.0000
50.0940 9.3989 10.9236 1.0000
50.0940 9.5543 10.9298 1.0000
50.0940 9.7098 10.9361 1.0000
50.0940 9.8655 10.9425 1.0000
50.0941 10.0213 10.9490 1.0000
50.0941 10.1774 10.9556 1.0000
50.0941 10.3337 10.9623 1.0000
50.0941 10.6468 10.9761 1.0000
50.0940 10.9607 10.9903 1.0000
50.0941 11.1180 10.9975 1.0000
50.0940 11.7491 11.0276 1.0000
50.0940 12.2248 11.0513 1.0000
50.0941 12.7026 11.0761 1.0000
50.0941 13.0223 11.0931 1.0000
50.0940 13.1825 11.1018 1.0000
50.0941 -12.5417 11.0676 1.0000
50.0941 -12.3824 11.0594 1.0000
50.0941 -11.4317 11.0123 1.0000
50.0941 -10.4887 10.9691 1.0000
50.0941 -10.1760 10.9556 1.0000
50.0941 -10.0200 10.9489 1.0000
50.0941 -9.7084 10.9360 1.0000
50.0941 -9.2423 10.9175 1.0000
50.0941 -9.0873 10.9115 1.0000
50.0941 -8.7779 10.8999 1.0000
50.0941 -8.3148 10.8832 1.0000
50.0941 -8.0070 10.8726 1.0000
50.0941 -7.8532 10.8674 1.0000
50.0941 -7.6996 10.8624 1.0000
50.0941 -7.5462 10.8574 1.0000
50.0940 -7.2397 10.8478 1.0000
50.0939 -6.9337 10.8386 1.0000
50.0939 -6.6283 10.8298 1.0000
50.0940 -6.4757 10.8256 1.0000
50.0940 -6.3233 10.8215 1.0000
50.0939 -6.0188 10.8135 1.0000
50.0940 -5.8668 10.8096 1.0000
50.0939 -4.5024 10.7795 1.0000
50.0939 -4.3512 10.7767 1.0000
50.0940 -4.0492 10.7713 1.0000
50.0939 -3.5966 10.7639 1.0000
50.0939 -3.1446 10.7574 1.0000
50.0940 -2.9942 10.7554 1.0000
50.0939 -2.5429 10.7501 1.0000
50.0940 -2.3925 10.7485 1.0000
50.0940 -2.0920 10.7456 1.0000
50.0940 -1.7915 10.7431 1.0000
50.0941 -1.6414 10.7420 1.0000
50.0940 -1.1911 10.7393 1.0000
50.0941 -1.0411 10.7386 1.0000
50.0941 -0.7410 10.7375 1.0000
50.0941 -0.5910 10.7370 1.0000
50.0941 -0.4410 10.7367 1.0000
50.0940 0.1589 10.7363 1.0000
50.0941 0.4588 10.7367 1.0000
50.0941 0.6088 10.7371 1.0000
50.0940 -0.1741 9.8545 1.0000
50.0940 0.1258 9.8544 1.0000
50.0940 0.4258 9.8548 1.0000
50.0940 0.5758 9.8551 1.0000
50.0940 0.8758 9.8559 1.0000
50.0940 1.4760 9.8587 1.0000
50.0940 1.6261 9.8596 1.0000
50.0940 1.7763 9.8606 1.0000
50.0940 2.6779 9.8685 1.0000
50.0940 2.9788 9.8718 1.0000
50.0940 3.1294 9.8736 1.0000
50.0940 3.2800 9.8755 1.0000
50.0940 3.4306 9.8775 1.0000
50.0940 3.5813 9.8796 1.0000
50.0940 3.7321 9.8817 1.0000
50.0940 4.0338 9.8863 1.0000
50.0940 4.1848 9.8887 1.0000
50.0940 4.3359 9.8912 1.0000
50.0940 4.4870 9.8939 1.0000
50.0940 4.6383 9.8966 1.0000
50.0940 4.9409 9.9022 1.0000
50.0940 5.0924 9.9052 1.0000
50.0940 6.0034 9.9249 1.0000
50.0940 6.4602 9.9360 1.0000
50.0940 6.7654 9.9439 1.0000
50.0940 6.9182 9.9479 1.0000
50.0940 7.2241 9.9564 1.0000
50.0940 7.6840 9.9697 1.0000
50.0940 7.8376 9.9743 1.0000
50.0940 7.9913 9.9790 1.0000
50.0940 8.1452 9.9838 1.0000
50.0940 8.4534 9.9937 1.0000
50.0940 8.6077 9.9988 1.0000
50.0940 8.7622 10.0040 1.0000
50.0940 8.9168 10.0093 1.0000
50.0941 9.8482 10.0430 1.0000
50.0941 10.1602 10.0551 1.0000
50.0941 10.3164 10.0612 1.0000
50.0941 10.7863 10.0803 1.0000
50.0941 10.9433 10.0868 1.0000
50.0941 11.1006 10.0935 1.0000
50.0941 11.2580 10.1002 1.0000
50.0941 11.4157 10.1070 1.0000
50.0941 11.7316 10.1210 1.0000
50.0941 12.0485 10.1354 1.0000
50.0941 12.3663 10.1502 1.0000
50.0941 12.6849 10.1654 1.0000
50.0941 12.8447 10.1732 1.0000
50.0941 13.0046 10.1811 1.0000
50.0941 13.3253 10.1971 1.0000
50.0941 -13.3593 10.1988 1.0000
50.0941 -12.8786 10.1749 1.0000
50.0941 -12.0821 10.1370 1.0000
50.0940 -11.9236 10.1297 1.0000
50.0940 -11.2914 10.1017 1.0000
50.0941 -10.6627 10.0752 1.0000
50.0940 -10.5061 10.0688 1.0000
50.0941 -10.3496 10.0625 1.0000
50.0940 -9.8813 10.0443 1.0000
50.0941 -9.2595 10.0214 1.0000
50.0940 -9.1045 10.0159 1.0000
50.0940 -8.9497 10.0105 1.0000
50.0940 -8.7950 10.0051 1.0000
50.0940 -8.4861 9.9948 1.0000
50.0940 -8.3319 9.9898 1.0000
50.0941 -8.1779 9.9849 1.0000
50.0940 -7.8702 9.9753 1.0000
50.0941 -7.7166 9.9707 1.0000
50.0939 -7.2566 9.9573 1.0000
50.0939 -7.1035 9.9530 1.0000
50.0939 -6.9506 9.9488 1.0000
50.0939 -6.7978 9.9447 1.0000
50.0939 -6.6452 9.9407 1.0000
50.0939 -6.4926 9.9368 1.0000
50.0939 -6.0356 9.9257 1.0000
50.0939 -5.8835 9.9221 1.0000
50.0939 -5.7316 9.9187 1.0000
50.0939 -5.4278 9.9121 1.0000
50.0939 -5.1246 9.9058 1.0000
50.0939 -4.5191 9.8944 1.0000
50.0939 -4.3680 9.8918 1.0000
50.0939 -3.7641 9.8822 1.0000
50.0939 -3.6133 9.8800 1.0000
50.0939 -3.4626 9.8779 1.0000
50.0939 -3.0108 9.8722 1.0000
50.0939 -2.7098 9.8688 1.0000
50.0940 -2.2587 9.8644 1.0000
50.0939 -2.1085 9.8631 1.0000
50.0940 -1.8081 9.8608 1.0000
50.0940 -1.2076 9.8573 1.0000
50.0940 -0.7575 9.8555 1.0000
50.0940 -0.6075 9.8551 1.0000
50.0940 -0.4575 9.8548 1.0000
50.0940 -0.3075 9.8546 1.0000
50.0940 -0.1576 9.8545 1.0000
50.0940 0.1424 9.8544 1.0000
50.0940 0.2923 9.8546 1.0000
50.0940 0.4423 9.8548 1.0000
50.0940 0.8923 9.8560 1.0000
50.0940 1.0423 9.8565 1.0000
50.0940 1.1924 9.8572 1.0000
50.0940 1.3425 9.8579 1.0000
50.0940 1.6427 9.8597 1.0000
50.0940 2.2435 9.8643 1.0000
50.0940 2.5441 9.8671 1.0000
50.0940 2.6945 9.8687 1.0000
50.0940 2.9955 9.8720 1.0000
50.0940 3.8996 9.8842 1.0000
50.0940 4.2015 9.8890 1.0000
50.0940 4.3526 9.8915 1.0000
50.0940 4.5037 9.8942 1.0000
50.0940 4.6549 9.8969 1.0000
50.0940 4.9577 9.9025 1.0000
50.0940 5.1091 9.9055 1.0000
50.0940 5.2607 9.9086 1.0000
50.0940 5.4124 9.9118 1.0000
50.0940 5.5642 9.9150 1.0000
50.0940 5.8680 9.9218 1.0000
50.0940 6.3246 9.9326 1.0000
50.0940 6.4771 9.9364 1.0000
50.0940 6.7823 9.9443 1.0000
50.0940 7.0880 9.9526 1.0000
50.0940 7.2410 9.9568 1.0000
50.0940 7.3942 9.9612 1.0000
50.0940 7.5475 9.9656 1.0000
50.0940 7.7009 9.9702 1.0000
50.0940 8.0083 9.9795 1.0000
50.0940 8.1621 9.9844 1.0000
50.0940 8.6248 9.9994 1.0000
50.0940 9.2437 10.0208 1.0000
50.0940 9.3989 10.0264 1.0000
50.0941 9.8655 10.0437 1.0000
50.0941 10.6468 10.0745 1.0000
50.0941 10.8036 10.0810 1.0000
50.0941 10.9607 10.0875 1.0000
50.0941 11.1179 10.0942 1.0000
50.0941 11.4331 10.1078 1.0000
50.0941 11.5910 10.1148 1.0000
50.0941 12.2248 10.1436 1.0000
50.0941 12.3838 10.1511 1.0000
50.0941 12.5430 10.1586 1.0000
50.0941 12.8623 10.1741 1.0000
50.0941 13.3430 10.1980 1.0000
50.0941 -13.3416 10.1979 1.0000
50.0940 -13.1811 10.1898 1.0000
50.0940 -13.0209 10.1819 1.0000
50.0941 -12.7012 10.1662 1.0000
50.0941 -12.5417 10.1586 1.0000
50.0941 -12.3824 10.1510 1.0000
50.0941 -12.2234 10.1435 1.0000
50.0940 -12.0646 10.1362 1.0000
50.0940 -11.5896 10.1147 1.0000
50.0941 -11.4317 10.1078 1.0000
50.0940 -11.2740 10.1009 1.0000
50.0941 -11.1166 10.0941 1.0000
50.0940 -10.8022 10.0809 1.0000
50.0940 -10.6454 10.0745 1.0000
50.0941 -10.3323 10.0618 1.0000
50.0941 -10.1761 10.0557 1.0000
50.0941 -9.8641 10.0436 1.0000
50.0941 -9.2424 10.0207 1.0000
50.0940 -8.7779 10.0046 1.0000
50.0940 -8.6234 9.9994 1.0000
50.0940 -8.4691 9.9943 1.0000
50.0941 -8.3149 9.9892 1.0000
50.0941 -7.8532 9.9748 1.0000
50.0941 -7.6996 9.9701 1.0000
50.0939 -7.0866 9.9525 1.0000
50.0939 -6.7809 9.9443 1.0000
50.0939 -6.4757 9.9364 1.0000
50.0939 -6.0188 9.9253 1.0000
50.0939 -5.8667 9.9218 1.0000
50.0939 -5.5629 9.9150 1.0000
50.0939 -4.5024 9.8941 1.0000
50.0939 -4.3512 9.8915 1.0000
50.0939 -4.2002 9.8890 1.0000
50.0939 -3.8983 9.8842 1.0000
50.0939 -3.5966 9.8798 1.0000
50.0939 -3.2953 9.8757 1.0000
50.0939 -2.2422 9.8643 1.0000
50.0940 -1.4912 9.8588 1.0000
50.0940 -1.3411 9.8579 1.0000
50.0940 -1.0410 9.8565 1.0000
50.0940 -0.7410 9.8555 1.0000
50.0940 -0.5909 9.8551 1.0000
50.0940 -0.4410 9.8548 1.0000
50.0940 -0.2910 9.8546 1.0000
50.0940 -0.1410 9.8544 1.0000
50.0940 0.3089 9.8546 1.0000
50.0940 0.4589 9.8548 1.0000
50.0940 -0.1741 8.9784 1.0000
50.0940 -0.0242 8.9784 1.0000
50.0940 0.1258 8.9784 1.0000
50.0940 0.2757 8.9785 1.0000
50.0940 0.4257 8.9787 1.0000
50.0940 0.5757 8.9790 1.0000
50.0940 0.7257 8.9793 1.0000
50.0940 1.1758 8.9809 1.0000
50.0940 1.3259 8.9815 1.0000
50.0940 1.6261 8.9831 1.0000
50.0940 1.7763 8.9840 1.0000
50.0940 1.9264 8.9850 1.0000
50.0940 2.0767 8.9861 1.0000
50.0940 2.8284 8.9927 1.0000
50.0940 3.5813 9.0013 1.0000
50.0940 3.8829 9.0053 1.0000
50.0940 4.0338 9.0075 1.0000
50.0940 4.3359 9.0120 1.0000
50.0940 4.6382 9.0168 1.0000
50.0940 5.3957 9.0303 1.0000
50.0940 5.5474 9.0333 1.0000
50.0940 5.6993 9.0363 1.0000
50.0940 5.8512 9.0394 1.0000
50.0940 6.1555 9.0459 1.0000
50.0940 6.4602 9.0527 1.0000
50.0940 6.9182 9.0636 1.0000
50.0940 7.2241 9.0713 1.0000
50.0940 7.3773 9.0752 1.0000
50.0940 7.6840 9.0834 1.0000
50.0940 8.1451 9.0963 1.0000
50.0940 8.6077 9.1100 1.0000
50.0940 8.7621 9.1147 1.0000
50.0940 8.9168 9.1195 1.0000
50.0940 9.0716 9.1244 1.0000
50.0940 9.2266 9.1294 1.0000
50.0940 10.0041 9.1557 1.0000
50.0940 10.3164 9.1668 1.0000
50.0940 10.4729 9.1725 1.0000
50.0940 10.9433 9.1901 1.0000
50.0940 11.1006 9.1962 1.0000
50.0940 11.2580 9.2023 1.0000
50.0940 11.5736 9.2149 1.0000
50.0940 11.7316 9.2213 1.0000
50.0940 11.8899 9.2278 1.0000
50.0940 12.3663 9.2479 1.0000
50.0940 12.5255 9.2548 1.0000
50.0940 12.6850 9.2618 1.0000
50.0940 13.0046 9.2760 1.0000
50.0940 13.3253 9.2906 1.0000
50.0941 -13.3594 9.2922 1.0000
50.0941 -13.0386 9.2775 1.0000
50.0941 -12.2409 9.2426 1.0000
50.0941 -11.9236 9.2292 1.0000
50.0941 -11.7652 9.2227 1.0000
50.0941 -11.6071 9.2163 1.0000
50.0941 -11.4491 9.2099 1.0000
50.0940 -11.1340 9.1975 1.0000
50.0940 -10.5061 9.1737 1.0000
50.0940 -10.3496 9.1680 1.0000
50.0940 -10.0372 9.1568 1.0000
50.0940 -9.8813 9.1514 1.0000
50.0940 -9.5700 9.1408 1.0000
50.0940 -9.4147 9.1356 1.0000
50.0940 -9.1045 9.1255 1.0000
50.0940 -8.9496 9.1206 1.0000
50.0940 -8.6404 9.1110 1.0000
50.0940 -8.4861 9.1063 1.0000
50.0940 -8.3319 9.1017 1.0000
50.0940 -8.0239 9.0928 1.0000
50.0940 -7.8702 9.0885 1.0000
50.0940 -7.2566 9.0721 1.0000
50.0939 -7.1036 9.0682 1.0000
50.0939 -6.9507 9.0644 1.0000
50.0939 -6.4926 9.0535 1.0000
50.0939 -6.3402 9.0500 1.0000
50.0940 -5.7316 9.0370 1.0000
50.0939 -5.5796 9.0339 1.0000
50.0939 -5.4279 9.0309 1.0000
50.0939 -5.1246 9.0252 1.0000
50.0939 -4.9731 9.0225 1.0000
50.0939 -4.8217 9.0199 1.0000
50.0939 -4.6704 9.0173 1.0000
50.0939 -4.3680 9.0125 1.0000
50.0940 -3.9150 9.0058 1.0000
50.0939 -2.5595 8.9901 1.0000
50.0939 -2.4091 8.9888 1.0000
50.0939 -2.1086 8.9863 1.0000
50.0940 -1.9583 8.9852 1.0000
50.0940 -1.6579 8.9833 1.0000
50.0940 -1.5079 8.9825 1.0000
50.0940 -1.3578 8.9817 1.0000
50.0940 -1.2077 8.9810 1.0000
50.0940 -1.0576 8.9804 1.0000
50.0940 -0.9076 8.9799 1.0000
50.0940 -0.7575 8.9794 1.0000
50.0940 -0.4575 8.9788 1.0000
50.0940 0.1424 8.9784 1.0000
50.0940 0.5923 8.9790 1.0000
50.0940 0.7423 8.9794 1.0000
50.0940 1.0424 8.9803 1.0000
50.0940 1.6427 8.9832 1.0000
50.0940 1.7929 8.9841 1.0000
50.0940 2.0932 8.9862 1.0000
50.0940 2.5442 8.9900 1.0000
50.0940 2.6945 8.9914 1.0000
50.0940 2.8450 8.9929 1.0000
50.0940 2.9954 8.9944 1.0000
50.0940 3.2966 8.9978 1.0000
50.0940 3.4472 8.9996 1.0000
50.0940 3.8996 9.0055 1.0000
50.0940 4.0505 9.0077 1.0000
50.0940 4.2015 9.0099 1.0000
50.0940 4.3525 9.0122 1.0000
50.0940 4.6549 9.0171 1.0000
50.0940 4.8063 9.0196 1.0000
50.0940 5.1091 9.0250 1.0000
50.0940 5.2607 9.0278 1.0000
50.0940 5.4124 9.0306 1.0000
50.0940 5.5642 9.0336 1.0000
50.0940 5.7161 9.0366 1.0000
50.0940 6.7823 9.0603 1.0000
50.0940 7.2410 9.0717 1.0000
50.0940 7.3942 9.0757 1.0000
50.0940 7.7009 9.0839 1.0000
50.0940 7.8545 9.0881 1.0000
50.0940 8.0082 9.0924 1.0000
50.0940 8.4704 9.1058 1.0000
50.0940 8.7792 9.1152 1.0000
50.0940 9.0887 9.1250 1.0000
50.0940 9.3989 9.1351 1.0000
50.0940 9.5542 9.1402 1.0000
50.0940 9.8654 9.1509 1.0000
50.0940 10.0213 9.1563 1.0000
50.0940 10.6468 9.1789 1.0000
50.0940 10.8036 9.1848 1.0000
50.0940 10.9607 9.1908 1.0000
50.0940 11.1179 9.1969 1.0000
50.0940 11.2754 9.2030 1.0000
50.0940 11.4331 9.2093 1.0000
50.0940 11.5910 9.2156 1.0000
50.0940 11.9075 9.2286 1.0000
50.0940 12.3838 9.2487 1.0000
50.0940 13.3430 9.2914 1.0000
50.0941 -13.3416 9.2914 1.0000
50.0941 -13.1812 9.2840 1.0000
50.0941 -12.5417 9.2555 1.0000
50.0941 -11.9060 9.2285 1.0000
50.0941 -11.7477 9.2220 1.0000
50.0941 -11.4317 9.2092 1.0000
50.0940 -11.2741 9.2030 1.0000
50.0940 -11.1166 9.1968 1.0000
50.0940 -10.9593 9.1908 1.0000
50.0940 -10.6454 9.1789 1.0000
50.0940 -10.1761 9.1618 1.0000
50.0940 -9.8641 9.1508 1.0000
50.0940 -9.7084 9.1455 1.0000
50.0940 -9.5529 9.1402 1.0000
50.0940 -9.0874 9.1249 1.0000
50.0940 -8.3148 9.1012 1.0000
50.0940 -8.1609 9.0968 1.0000
50.0940 -8.0070 9.0924 1.0000
50.0941 -7.8532 9.0881 1.0000
50.0940 -7.6996 9.0838 1.0000
50.0939 -6.4757 9.0531 1.0000
50.0939 -6.3233 9.0496 1.0000
50.0939 -6.0188 9.0430 1.0000
50.0939 -5.4111 9.0306 1.0000
50.0939 -5.2594 9.0277 1.0000
50.0939 -5.1079 9.0249 1.0000
50.0939 -4.8050 9.0196 1.0000
50.0939 -4.6537 9.0170 1.0000
50.0939 -4.3513 9.0122 1.0000
50.0939 -3.8983 9.0055 1.0000
50.0939 -3.7475 9.0035 1.0000
50.0939 -3.5967 9.0015 1.0000
50.0939 -3.4460 8.9996 1.0000
50.0939 -3.1447 8.9961 1.0000
50.0939 -2.9942 8.9944 1.0000
50.0939 -2.8437 8.9928 1.0000
50.0940 -2.6932 8.9914 1.0000
50.0939 -2.5429 8.9899 1.0000
50.0939 -2.3925 8.9886 1.0000
50.0940 -2.2422 8.9874 1.0000
50.0940 -2.0919 8.9862 1.0000
50.0940 -1.9417 8.9851 1.0000
50.0940 -1.0411 8.9803 1.0000
50.0940 -0.5910 8.9790 1.0000
50.0940 -0.2910 8.9785 1.0000
50.0940 -0.1411 8.9784 1.0000
50.0940 0.0089 8.9784 1.0000
50.0940 0.1589 8.9784 1.0000
50.0940 0.4589 8.9788 1.0000
50.0940 0.6089 8.9790 1.0000
50.0939 -0.6241 8.1083 1.0000
50.0939 -0.4741 8.1080 1.0000
50.0939 0.1258 8.1077 1.0000
50.0939 0.2758 8.1078 1.0000
50.0939 0.7257 8.1085 1.0000
50.0939 0.8758 8.1089 1.0000
50.0940 1.0258 8.1094 1.0000
50.0939 1.1759 8.1099 1.0000
50.0939 1.3259 8.1105 1.0000
50.0939 1.4760 8.1112 1.0000
50.0939 2.5275 8.1180 1.0000
50.0939 2.6779 8.1192 1.0000
50.0939 2.8284 8.1206 1.0000
50.0939 3.2799 8.1250 1.0000
50.0940 3.5813 8.1284 1.0000
50.0939 4.0338 8.1339 1.0000
50.0939 4.3359 8.1380 1.0000
50.0940 4.7895 8.1446 1.0000
50.0940 4.9409 8.1470 1.0000
50.0940 5.2440 8.1520 1.0000
50.0939 5.3956 8.1546 1.0000
50.0939 5.5474 8.1572 1.0000
50.0940 6.6127 8.1780 1.0000
50.0940 6.7654 8.1813 1.0000
50.0940 6.9181 8.1846 1.0000
50.0940 7.2241 8.1915 1.0000
50.0940 7.3773 8.1951 1.0000
50.0939 7.5305 8.1988 1.0000
50.0939 7.6840 8.2025 1.0000
50.0940 7.8375 8.2063 1.0000
50.0939 8.2991 8.2182 1.0000
50.0939 8.4534 8.2223 1.0000
50.0940 9.2266 8.2440 1.0000
50.0940 9.3817 8.2486 1.0000
50.0939 9.5370 8.2533 1.0000
50.0939 9.6926 8.2580 1.0000
50.0940 9.8482 8.2629 1.0000
50.0940 10.1601 8.2727 1.0000
50.0940 10.4728 8.2830 1.0000
50.0940 10.6295 8.2882 1.0000
50.0939 10.9433 8.2989 1.0000
50.0939 11.2580 8.3099 1.0000
50.0939 11.8899 8.3329 1.0000
50.0939 12.0485 8.3389 1.0000
50.0939 12.2072 8.3449 1.0000
50.0939 12.5255 8.3573 1.0000
50.0939 12.6849 8.3636 1.0000
50.0939 12.8446 8.3699 1.0000
50.0940 13.1648 8.3830 1.0000
50.0940 13.3253 8.3896 1.0000
50.0940 -13.3593 8.3910 1.0000
50.0940 -13.1988 8.3844 1.0000
50.0940 -13.0386 8.3778 1.0000
50.0940 -12.8786 8.3713 1.0000
50.0940 -12.2410 8.3462 1.0000
50.0940 -11.6071 8.3225 1.0000
50.0940 -11.4491 8.3167 1.0000
50.0940 -11.2914 8.3111 1.0000
50.0940 -11.1339 8.3055 1.0000
50.0940 -10.8196 8.2946 1.0000
50.0940 -10.6627 8.2893 1.0000
50.0940 -10.1933 8.2738 1.0000
50.0940 -10.0372 8.2688 1.0000
50.0940 -9.5700 8.2543 1.0000
50.0940 -9.4147 8.2496 1.0000
50.0940 -8.9496 8.2360 1.0000
50.0940 -8.4861 8.2232 1.0000
50.0940 -8.0239 8.2110 1.0000
50.0940 -7.8702 8.2071 1.0000
50.0939 -7.4097 8.1959 1.0000
50.0939 -7.1036 8.1888 1.0000
50.0939 -6.9506 8.1853 1.0000
50.0939 -6.6451 8.1787 1.0000
50.0939 -6.1878 8.1693 1.0000
50.0939 -6.0356 8.1663 1.0000
50.0939 -5.8835 8.1634 1.0000
50.0939 -5.5796 8.1578 1.0000
50.0939 -5.4278 8.1551 1.0000
50.0939 -4.9730 8.1475 1.0000
50.0939 -4.0659 8.1343 1.0000
50.0939 -3.9149 8.1324 1.0000
50.0939 -3.7641 8.1305 1.0000
50.0939 -3.3119 8.1254 1.0000
50.0939 -2.8603 8.1209 1.0000
50.0939 -2.2588 8.1159 1.0000
50.0939 -1.9583 8.1138 1.0000
50.0939 -1.6580 8.1121 1.0000
50.0939 -1.5078 8.1113 1.0000
50.0939 -1.2077 8.1100 1.0000
50.0939 -1.0576 8.1095 1.0000
50.0939 -0.7575 8.1086 1.0000
50.0939 -0.6075 8.1083 1.0000
50.0939 -0.3076 8.1078 1.0000
50.0939 0.1423 8.1077 1.0000
50.0940 0.2923 8.1078 1.0000
50.0939 0.8923 8.1089 1.0000
50.0939 1.1924 8.1100 1.0000
50.0939 1.4926 8.1113 1.0000
50.0939 1.7929 8.1128 1.0000
50.0939 1.9430 8.1138 1.0000
50.0939 2.3938 8.1169 1.0000
50.0939 2.5441 8.1181 1.0000
50.0939 2.6945 8.1194 1.0000
50.0939 2.8450 8.1207 1.0000
50.0939 2.9954 8.1221 1.0000
50.0940 3.1460 8.1236 1.0000
50.0940 3.2966 8.1252 1.0000
50.0940 3.7487 8.1303 1.0000
50.0940 3.8996 8.1322 1.0000
50.0940 4.0505 8.1341 1.0000
50.0940 4.5037 8.1404 1.0000
50.0940 4.9577 8.1473 1.0000
50.0939 5.1091 8.1497 1.0000
50.0940 5.8680 8.1631 1.0000
50.0940 6.0201 8.1660 1.0000
50.0940 6.1723 8.1690 1.0000
50.0940 6.3246 8.1720 1.0000
50.0940 6.7823 8.1816 1.0000
50.0940 6.9350 8.1850 1.0000
50.0940 7.0880 8.1884 1.0000
50.0940 7.2410 8.1919 1.0000
50.0940 7.3941 8.1955 1.0000
50.0940 7.7009 8.2029 1.0000
50.0940 7.8545 8.2067 1.0000
50.0940 8.0083 8.2106 1.0000
50.0940 8.1621 8.2146 1.0000
50.0939 8.4704 8.2227 1.0000
50.0940 8.7792 8.2312 1.0000
50.0940 8.9338 8.2356 1.0000
50.0939 9.2437 8.2445 1.0000
50.0940 9.3989 8.2491 1.0000
50.0940 9.5542 8.2538 1.0000
50.0939 9.7097 8.2586 1.0000
50.0940 9.8654 8.2634 1.0000
50.0940 10.0213 8.2683 1.0000
50.0940 10.3337 8.2784 1.0000
50.0939 10.8036 8.2941 1.0000
50.0939 10.9607 8.2995 1.0000
50.0939 11.1179 8.3049 1.0000
50.0939 11.4331 8.3161 1.0000
50.0939 11.5910 8.3219 1.0000
50.0939 11.7491 8.3277 1.0000
50.0939 11.9074 8.3336 1.0000
50.0939 12.2248 8.3456 1.0000
50.0939 12.7026 8.3643 1.0000
50.0940 13.1825 8.3837 1.0000
50.0940 13.3430 8.3903 1.0000
50.0940 -13.3416 8.3903 1.0000
50.0940 -13.1811 8.3836 1.0000
50.0940 -13.0209 8.3771 1.0000
50.0940 -12.7011 8.3642 1.0000
50.0940 -12.2234 8.3455 1.0000
50.0940 -12.0646 8.3395 1.0000
50.0940 -11.9060 8.3335 1.0000
50.0940 -11.5896 8.3218 1.0000
50.0940 -11.2740 8.3105 1.0000
50.0940 -11.1165 8.3049 1.0000
50.0940 -10.9593 8.2994 1.0000
50.0940 -10.8023 8.2940 1.0000
50.0940 -10.6454 8.2887 1.0000
50.0940 -10.4887 8.2835 1.0000
50.0940 -10.0200 8.2683 1.0000
50.0940 -9.3975 8.2491 1.0000
50.0940 -9.0874 8.2400 1.0000
50.0940 -8.6234 8.2269 1.0000
50.0940 -8.3148 8.2186 1.0000
50.0940 -8.1608 8.2146 1.0000
50.0940 -7.8532 8.2067 1.0000
50.0939 -7.3929 8.1955 1.0000
50.0939 -7.2396 8.1919 1.0000
50.0939 -7.0866 8.1884 1.0000
50.0939 -6.9337 8.1850 1.0000
50.0939 -6.7809 8.1816 1.0000
50.0939 -6.4757 8.1751 1.0000
50.0939 -6.3233 8.1720 1.0000
50.0939 -6.1710 8.1689 1.0000
50.0939 -6.0188 8.1660 1.0000
50.0939 -5.8667 8.1631 1.0000
50.0939 -5.7147 8.1602 1.0000
50.0939 -5.4111 8.1548 1.0000
50.0939 -5.2594 8.1522 1.0000
50.0939 -4.9564 8.1472 1.0000
50.0939 -4.8050 8.1449 1.0000
50.0939 -4.6536 8.1426 1.0000
50.0939 -4.5024 8.1403 1.0000
50.0939 -4.3512 8.1382 1.0000
50.0939 -4.2002 8.1361 1.0000
50.0939 -4.0492 8.1341 1.0000
50.0939 -3.2953 8.1252 1.0000
50.0939 -2.9941 8.1221 1.0000
50.0939 -2.0920 8.1147 1.0000
50.0939 -1.7915 8.1128 1.0000
50.0939 -1.6414 8.1120 1.0000
50.0940 -1.4913 8.1113 1.0000
50.0939 -0.5910 8.1082 1.0000
50.0940 -0.4410 8.1080 1.0000
50.0939 -0.2910 8.1078 1.0000
50.0939 -0.1410 8.1077 1.0000
50.0939 0.1589 8.1077 1.0000
50.0939 0.4589 8.1080 1.0000
50.0940 -0.4741 7.2420 1.0000
50.0940 -0.3242 7.2418 1.0000
50.0940 0.1257 7.2417 1.0000
50.0940 0.2757 7.2418 1.0000
50.0940 0.4257 7.2419 1.0000
50.0940 0.5757 7.2422 1.0000
50.0940 0.7257 7.2424 1.0000
50.0940 0.8757 7.2428 1.0000
50.0940 1.1758 7.2437 1.0000
50.0940 1.3259 7.2442 1.0000
50.0940 1.4760 7.2448 1.0000
50.0940 1.6261 7.2455 1.0000
50.0940 2.0766 7.2479 1.0000
50.0940 2.2269 7.2488 1.0000
50.0940 2.3771 7.2498 1.0000
50.0940 2.6779 7.2520 1.0000
50.0940 2.9788 7.2545 1.0000
50.0940 3.5812 7.2602 1.0000
50.0940 3.8829 7.2634 1.0000
50.0940 4.0338 7.2651 1.0000
50.0940 4.3359 7.2688 1.0000
50.0940 4.4870 7.2707 1.0000
50.0940 4.6382 7.2726 1.0000
50.0940 5.0924 7.2790 1.0000
50.0940 5.2439 7.2813 1.0000
50.0940 6.0033 7.2935 1.0000
50.0939 6.1555 7.2961 1.0000
50.0939 6.3078 7.2989 1.0000
50.0939 6.6128 7.3045 1.0000
50.0940 6.7654 7.3074 1.0000
50.0940 6.9182 7.3104 1.0000
50.0940 7.0711 7.3135 1.0000
50.0939 7.2241 7.3166 1.0000
50.0940 7.6839 7.3264 1.0000
50.0940 8.1451 7.3368 1.0000
50.0939 8.7621 7.3516 1.0000
50.0940 9.2266 7.3635 1.0000
50.0940 10.0041 7.3847 1.0000
50.0940 10.1601 7.3891 1.0000
50.0940 10.4728 7.3982 1.0000
50.0940 10.6294 7.4029 1.0000
50.0940 10.7863 7.4077 1.0000
50.0940 10.9433 7.4125 1.0000
50.0939 11.1005 7.4173 1.0000
50.0940 11.7316 7.4376 1.0000
50.0939 12.0485 7.4482 1.0000
50.0940 12.3662 7.4591 1.0000
50.0939 12.6849 7.4703 1.0000
50.0939 12.8446 7.4759 1.0000
50.0940 13.1648 7.4876 1.0000
50.0939 13.3253 7.4935 1.0000
50.0940 -13.1989 7.4888 1.0000
50.0940 -12.0821 7.4493 1.0000
50.0940 -11.9236 7.4440 1.0000
50.0940 -11.7652 7.4387 1.0000
50.0940 -11.4492 7.4284 1.0000
50.0940 -11.2915 7.4234 1.0000
50.0940 -11.1340 7.4184 1.0000
50.0940 -10.8196 7.4087 1.0000
50.0940 -10.6627 7.4039 1.0000
50.0940 -10.1933 7.3901 1.0000
50.0940 -10.0372 7.3856 1.0000
50.0940 -9.8813 7.3812 1.0000
50.0940 -9.7256 7.3769 1.0000
50.0940 -9.5701 7.3726 1.0000
50.0940 -9.1045 7.3603 1.0000
50.0940 -8.7950 7.3524 1.0000
50.0940 -8.1779 7.3375 1.0000
50.0940 -8.0239 7.3340 1.0000
50.0940 -7.8702 7.3305 1.0000
50.0940 -7.7166 7.3271 1.0000
50.0939 -7.2566 7.3173 1.0000
50.0939 -7.1035 7.3141 1.0000
50.0939 -6.9506 7.3111 1.0000
50.0939 -6.6452 7.3051 1.0000
50.0939 -6.4926 7.3022 1.0000
50.0939 -6.3402 7.2994 1.0000
50.0939 -6.0356 7.2941 1.0000
50.0939 -5.8835 7.2914 1.0000
50.0939 -5.7315 7.2889 1.0000
50.0939 -5.4279 7.2841 1.0000
50.0939 -5.2762 7.2817 1.0000
50.0939 -5.1246 7.2795 1.0000
50.0939 -4.9731 7.2773 1.0000
50.0939 -4.5191 7.2711 1.0000
50.0939 -4.3680 7.2692 1.0000
50.0939 -4.2169 7.2673 1.0000
50.0939 -3.6133 7.2605 1.0000
50.0939 -3.4626 7.2590 1.0000
50.0939 -3.1613 7.2561 1.0000
50.0939 -3.0108 7.2547 1.0000
50.0939 -2.5595 7.2511 1.0000
50.0940 -2.2588 7.2490 1.0000
50.0940 -1.9583 7.2472 1.0000
50.0940 -1.5079 7.2450 1.0000
50.0940 -1.3578 7.2443 1.0000
50.0940 -0.9076 7.2429 1.0000
50.0940 -0.7576 7.2425 1.0000
50.0940 -0.4575 7.2420 1.0000
50.0940 -0.3076 7.2418 1.0000
50.0940 -0.1576 7.2417 1.0000
50.0940 -0.0077 7.2417 1.0000
50.0940 0.1423 7.2417 1.0000
50.0940 0.4423 7.2420 1.0000
50.0940 0.5923 7.2422 1.0000
50.0940 1.0423 7.2432 1.0000
50.0940 1.4925 7.2449 1.0000
50.0940 1.6427 7.2456 1.0000
50.0940 1.7929 7.2463 1.0000
50.0940 1.9430 7.2471 1.0000
50.0940 2.3938 7.2499 1.0000
50.0940 2.5441 7.2510 1.0000
50.0940 2.6945 7.2521 1.0000
50.0940 2.8449 7.2533 1.0000
50.0940 3.2965 7.2573 1.0000
50.0940 3.4472 7.2588 1.0000
50.0940 3.5979 7.2603 1.0000
50.0940 3.8996 7.2636 1.0000
50.0940 4.0505 7.2653 1.0000
50.0939 4.2015 7.2671 1.0000
50.0940 4.3525 7.2690 1.0000
50.0940 4.6550 7.2729 1.0000
50.0939 5.1091 7.2793 1.0000
50.0940 5.2607 7.2815 1.0000
50.0939 5.7161 7.2887 1.0000
50.0940 6.1723 7.2964 1.0000
50.0939 6.7823 7.3078 1.0000
50.0940 7.2410 7.3169 1.0000
50.0940 7.3942 7.3201 1.0000
50.0940 7.5475 7.3234 1.0000
50.0939 7.7009 7.3268 1.0000
50.0940 8.0082 7.3336 1.0000
50.0940 8.1621 7.3372 1.0000
50.0940 8.3161 7.3408 1.0000
50.0940 8.7792 7.3521 1.0000
50.0940 9.3989 7.3680 1.0000
50.0939 9.5542 7.3722 1.0000
50.0939 9.7097 7.3765 1.0000
50.0939 9.8654 7.3808 1.0000
50.0940 10.1774 7.3896 1.0000
50.0940 10.4901 7.3988 1.0000
50.0940 10.6468 7.4034 1.0000
50.0940 10.9607 7.4130 1.0000
50.0940 11.1179 7.4179 1.0000
50.0940 11.5909 7.4330 1.0000
50.0939 11.7491 7.4382 1.0000
50.0940 11.9074 7.4435 1.0000
50.0940 12.7025 7.4709 1.0000
50.0940 12.8623 7.4766 1.0000
50.0940 13.1825 7.4882 1.0000
50.0940 -13.3416 7.4941 1.0000
50.0940 -13.0209 7.4823 1.0000
50.0940 -12.8609 7.4765 1.0000
50.0940 -12.7012 7.4708 1.0000
50.0940 -12.5417 7.4652 1.0000
50.0940 -12.3824 7.4596 1.0000
50.0940 -12.2234 7.4541 1.0000
50.0940 -11.9061 7.4434 1.0000
50.0940 -11.7477 7.4382 1.0000
50.0940 -11.4318 7.4279 1.0000
50.0940 -11.1166 7.4178 1.0000
50.0940 -10.9593 7.4130 1.0000
50.0940 -10.6454 7.4034 1.0000
50.0940 -10.4888 7.3987 1.0000
50.0940 -10.1761 7.3896 1.0000
50.0940 -10.0200 7.3851 1.0000
50.0940 -9.7084 7.3764 1.0000
50.0940 -9.0874 7.3599 1.0000
50.0940 -8.7779 7.3520 1.0000
50.0940 -8.4691 7.3444 1.0000
50.0939 -7.3929 7.3201 1.0000
50.0939 -7.2397 7.3169 1.0000
50.0939 -7.0866 7.3138 1.0000
50.0939 -6.9337 7.3107 1.0000
50.0939 -6.7809 7.3077 1.0000
50.0939 -6.6283 7.3048 1.0000
50.0939 -6.3233 7.2991 1.0000
50.0939 -6.0188 7.2938 1.0000
50.0939 -5.8667 7.2912 1.0000
50.0939 -5.1078 7.2792 1.0000
50.0939 -4.6536 7.2729 1.0000
50.0939 -4.5024 7.2709 1.0000
50.0939 -4.3512 7.2689 1.0000
50.0939 -3.8983 7.2636 1.0000
50.0939 -3.7475 7.2619 1.0000
50.0939 -3.4459 7.2588 1.0000
50.0939 -3.1447 7.2559 1.0000
50.0939 -2.9941 7.2546 1.0000
50.0939 -2.8437 7.2533 1.0000
50.0939 -2.5429 7.2510 1.0000
50.0940 -2.2422 7.2489 1.0000
50.0940 -1.6414 7.2456 1.0000
50.0940 -1.4913 7.2449 1.0000
50.0940 -1.1911 7.2437 1.0000
50.0940 -0.7410 7.2425 1.0000
50.0940 -0.4410 7.2420 1.0000
50.0940 -0.2911 7.2418 1.0000
50.0940 -0.1411 7.2417 1.0000
50.0940 0.1589 7.2417 1.0000
50.0940 0.3089 7.2418 1.0000
50.0939 -0.4741 6.3802 1.0000
50.0939 -0.1741 6.3800 1.0000
50.0939 -0.0242 6.3799 1.0000
50.0939 0.2758 6.3800 1.0000
50.0939 0.4257 6.3801 1.0000
50.0939 0.5757 6.3803 1.0000
50.0939 1.0258 6.3812 1.0000
50.0939 1.1759 6.3817 1.0000
50.0939 1.3259 6.3822 1.0000
50.0939 1.4760 6.3827 1.0000
50.0939 1.6261 6.3833 1.0000
50.0939 1.7763 6.3839 1.0000
50.0939 2.2269 6.3862 1.0000
50.0939 2.3772 6.3871 1.0000
50.0939 2.5275 6.3880 1.0000
50.0939 2.6779 6.3890 1.0000
50.0939 2.9788 6.3912 1.0000
50.0939 3.2800 6.3936 1.0000
50.0939 3.4306 6.3949 1.0000
50.0939 3.5813 6.3962 1.0000
50.0939 3.8829 6.3991 1.0000
50.0939 4.3359 6.4038 1.0000
50.0939 4.4870 6.4055 1.0000
50.0939 4.6382 6.4072 1.0000
50.0939 4.7896 6.4090 1.0000
50.0939 4.9410 6.4109 1.0000
50.0939 5.2440 6.4148 1.0000
50.0939 5.5474 6.4189 1.0000
50.0939 5.6993 6.4211 1.0000
50.0939 6.1555 6.4279 1.0000
50.0939 6.4603 6.4327 1.0000
50.0939 6.7654 6.4378 1.0000
50.0939 7.5306 6.4516 1.0000
50.0939 7.6840 6.4545 1.0000
50.0939 7.9913 6.4606 1.0000
50.0939 8.4533 6.4701 1.0000
50.0939 8.6077 6.4734 1.0000
50.0939 8.7621 6.4768 1.0000
50.0939 8.9168 6.4802 1.0000
50.0939 9.0716 6.4837 1.0000
50.0939 9.3818 6.4908 1.0000
50.0939 9.8482 6.5020 1.0000
50.0939 10.3164 6.5138 1.0000
50.0939 10.4729 6.5179 1.0000
50.0939 11.1005 6.5347 1.0000
50.0939 11.4157 6.5435 1.0000
50.0939 11.5736 6.5480 1.0000
50.0939 11.7316 6.5525 1.0000
50.0939 11.8899 6.5572 1.0000
50.0939 12.2072 6.5666 1.0000
50.0939 12.3662 6.5714 1.0000
50.0939 12.6849 6.5813 1.0000
50.0939 13.0046 6.5914 1.0000
50.0939 13.1648 6.5966 1.0000
50.0940 -13.3594 6.6029 1.0000
50.0940 -13.0386 6.5925 1.0000
50.0940 -12.5593 6.5774 1.0000
50.0940 -11.9236 6.5582 1.0000
50.0940 -11.7652 6.5535 1.0000
50.0940 -11.6071 6.5489 1.0000
50.0940 -11.4492 6.5444 1.0000
50.0940 -10.6627 6.5228 1.0000
50.0940 -10.3496 6.5147 1.0000
50.0940 -10.1933 6.5107 1.0000
50.0940 -9.7256 6.4990 1.0000
50.0940 -9.4147 6.4916 1.0000
50.0940 -8.4861 6.4708 1.0000
50.0940 -8.1779 6.4644 1.0000
50.0940 -7.8702 6.4582 1.0000
50.0940 -7.7166 6.4552 1.0000
50.0940 -7.5631 6.4522 1.0000
50.0939 -7.4098 6.4493 1.0000
50.0939 -7.2566 6.4465 1.0000
50.0939 -7.1036 6.4437 1.0000
50.0939 -6.4926 6.4333 1.0000
50.0939 -6.3402 6.4308 1.0000
50.0939 -6.1878 6.4284 1.0000
50.0939 -5.8835 6.4238 1.0000
50.0939 -5.7315 6.4215 1.0000
50.0939 -5.5796 6.4194 1.0000
50.0939 -5.4279 6.4173 1.0000
50.0939 -4.9731 6.4113 1.0000
50.0939 -4.8216 6.4094 1.0000
50.0939 -4.6704 6.4076 1.0000
50.0939 -4.5191 6.4058 1.0000
50.0939 -4.3679 6.4041 1.0000
50.0939 -4.0659 6.4009 1.0000
50.0939 -3.9150 6.3994 1.0000
50.0939 -3.1613 6.3926 1.0000
50.0939 -2.8603 6.3903 1.0000
50.0939 -2.7098 6.3892 1.0000
50.0939 -2.1085 6.3856 1.0000
50.0939 -1.2077 6.3818 1.0000
50.0939 -0.4575 6.3802 1.0000
50.0939 -0.0076 6.3799 1.0000
50.0939 0.1424 6.3799 1.0000
50.0939 0.8923 6.3809 1.0000
50.0939 1.0424 6.3813 1.0000
50.0939 1.3425 6.3822 1.0000
50.0939 2.2436 6.3863 1.0000
50.0939 2.3938 6.3872 1.0000
50.0939 2.8450 6.3902 1.0000
50.0939 3.1460 6.3925 1.0000
50.0939 3.5979 6.3963 1.0000
50.0939 3.7487 6.3977 1.0000
50.0939 4.3526 6.4040 1.0000
50.0939 4.8063 6.4092 1.0000
50.0939 4.9577 6.4111 1.0000
50.0939 5.2607 6.4150 1.0000
50.0939 5.4124 6.4170 1.0000
50.0939 6.3246 6.4306 1.0000
50.0939 6.6296 6.4355 1.0000
50.0939 6.9350 6.4408 1.0000
50.0939 7.3942 6.4490 1.0000
50.0939 7.5475 6.4519 1.0000
50.0939 7.7009 6.4549 1.0000
50.0939 7.8545 6.4579 1.0000
50.0939 8.1621 6.4641 1.0000
50.0939 8.3162 6.4672 1.0000
50.0939 8.4704 6.4705 1.0000
50.0939 8.6247 6.4738 1.0000
50.0939 8.9339 6.4806 1.0000
50.0939 9.0887 6.4841 1.0000
50.0939 9.7097 6.4987 1.0000
50.0939 9.8654 6.5025 1.0000
50.0939 10.0213 6.5063 1.0000
50.0939 10.3336 6.5142 1.0000
50.0939 10.4901 6.5183 1.0000
50.0939 11.1179 6.5352 1.0000
50.0939 11.2754 6.5395 1.0000
50.0939 11.4331 6.5440 1.0000
50.0939 11.7491 6.5530 1.0000
50.0939 12.2248 6.5671 1.0000
50.0939 12.3838 6.5720 1.0000
50.0939 12.7025 6.5818 1.0000
50.0939 12.8623 6.5869 1.0000
50.0939 13.0223 6.5920 1.0000
50.0940 -13.3416 6.6023 1.0000
50.0940 -13.1811 6.5971 1.0000
50.0940 -12.8609 6.5868 1.0000
50.0940 -11.9061 6.5576 1.0000
50.0940 -11.5896 6.5484 1.0000
50.0940 -11.2740 6.5395 1.0000
50.0940 -10.9593 6.5308 1.0000
50.0940 -10.6454 6.5224 1.0000
50.0940 -10.0200 6.5063 1.0000
50.0940 -9.3975 6.4912 1.0000
50.0940 -9.2424 6.4876 1.0000
50.0940 -9.0874 6.4841 1.0000
50.0940 -8.9325 6.4806 1.0000
50.0940 -8.7779 6.4771 1.0000
50.0940 -8.6234 6.4738 1.0000
50.0940 -8.1608 6.4640 1.0000
50.0940 -8.0070 6.4609 1.0000
50.0940 -7.6996 6.4548 1.0000
50.0939 -7.2396 6.4462 1.0000
50.0939 -7.0866 6.4434 1.0000
50.0939 -6.9337 6.4407 1.0000
50.0939 -6.6283 6.4355 1.0000
50.0939 -6.3233 6.4305 1.0000
50.0939 -6.1710 6.4281 1.0000
50.0939 -5.8667 6.4235 1.0000
50.0939 -5.7147 6.4213 1.0000
50.0939 -5.5629 6.4191 1.0000
50.0939 -5.2594 6.4150 1.0000
50.0939 -5.1079 6.4130 1.0000
50.0939 -4.8050 6.4092 1.0000
50.0939 -4.3513 6.4039 1.0000
50.0939 -4.2002 6.4023 1.0000
50.0939 -4.0492 6.4007 1.0000
50.0939 -3.7474 6.3977 1.0000
50.0939 -3.5966 6.3963 1.0000
50.0939 -3.4460 6.3950 1.0000
50.0939 -3.2953 6.3937 1.0000
50.0939 -2.9942 6.3913 1.0000
50.0939 -2.8436 6.3902 1.0000
50.0939 -2.6932 6.3891 1.0000
50.0939 -2.5429 6.3881 1.0000
50.0939 -1.7915 6.3840 1.0000
50.0939 -1.3411 6.3822 1.0000
50.0939 -1.1911 6.3817 1.0000
50.0939 -0.7410 6.3806 1.0000
50.0939 -0.5910 6.3804 1.0000
50.0939 -0.4410 6.3802 1.0000
50.0939 -0.2910 6.3800 1.0000
50.0939 -0.1410 6.3799 1.0000
50.0939 0.0089 6.3799 1.0000
50.0939 0.3089 6.3800 1.0000
50.0939 0.4589 6.3802 1.0000
50.0939 -0.1742 5.5219 1.0000
50.0939 -0.0242 5.5219 1.0000
50.0939 0.2757 5.5219 1.0000
50.0939 0.4257 5.5221 1.0000
50.0939 0.5757 5.5222 1.0000
50.0939 0.7257 5.5224 1.0000
50.0939 0.8757 5.5227 1.0000
50.0939 1.0258 5.5230 1.0000
50.0939 1.1758 5.5234 1.0000
50.0939 1.9264 5.5259 1.0000
50.0939 2.0766 5.5266 1.0000
50.0939 2.3772 5.5281 1.0000
50.0939 2.5275 5.5289 1.0000
50.0939 2.6779 5.5297 1.0000
50.0939 2.8283 5.5306 1.0000
50.0939 3.4306 5.5348 1.0000
50.0939 3.5813 5.5359 1.0000
50.0939 3.7321 5.5372 1.0000
50.0939 3.8829 5.5384 1.0000
50.0939 4.0338 5.5397 1.0000
50.0939 4.1848 5.5411 1.0000
50.0939 4.4870 5.5440 1.0000
50.0939 4.6382 5.5455 1.0000
50.0939 5.2440 5.5520 1.0000
50.0939 5.3957 5.5538 1.0000
50.0939 5.6993 5.5575 1.0000
50.0939 5.8512 5.5594 1.0000
50.0939 6.3078 5.5655 1.0000
50.0939 6.4602 5.5676 1.0000
50.0939 6.6127 5.5698 1.0000
50.0939 6.9182 5.5743 1.0000
50.0939 7.0711 5.5766 1.0000
50.0939 7.2241 5.5790 1.0000
50.0939 7.5305 5.5839 1.0000
50.0939 7.6840 5.5864 1.0000
50.0939 8.1452 5.5944 1.0000
50.0939 8.4534 5.5999 1.0000
50.0939 8.6077 5.6028 1.0000
50.0939 9.0716 5.6117 1.0000
50.0939 9.2266 5.6147 1.0000
50.0939 9.5370 5.6210 1.0000
50.0939 10.3164 5.6377 1.0000
50.0939 10.4728 5.6412 1.0000
50.0939 10.9433 5.6521 1.0000
50.0939 11.2580 5.6596 1.0000
50.0939 11.4156 5.6634 1.0000
50.0939 11.7316 5.6713 1.0000
50.0939 11.8899 5.6753 1.0000
50.0939 12.2072 5.6834 1.0000
50.0939 12.5255 5.6919 1.0000
50.0939 12.6849 5.6961 1.0000
50.0939 12.8446 5.7005 1.0000
50.0939 -13.1988 5.7103 1.0000
50.0939 -13.0386 5.7058 1.0000
50.0940 -12.5593 5.6928 1.0000
50.0940 -12.4000 5.6885 1.0000
50.0939 -12.0821 5.6802 1.0000
50.0940 -11.6071 5.6681 1.0000
50.0940 -11.4491 5.6642 1.0000
50.0939 -10.6627 5.6456 1.0000
50.0939 -9.8813 5.6283 1.0000
50.0939 -9.7256 5.6250 1.0000
50.0939 -9.4146 5.6185 1.0000
50.0940 -8.9496 5.6093 1.0000
50.0940 -8.4861 5.6005 1.0000
50.0940 -8.1779 5.5950 1.0000
50.0940 -8.0239 5.5922 1.0000
50.0939 -7.8702 5.5896 1.0000
50.0939 -7.5631 5.5844 1.0000
50.0939 -7.4098 5.5819 1.0000
50.0939 -7.2566 5.5795 1.0000
50.0939 -7.1035 5.5771 1.0000
50.0939 -6.9506 5.5747 1.0000
50.0939 -6.6451 5.5702 1.0000
50.0939 -6.0356 5.5618 1.0000
50.0939 -5.4279 5.5542 1.0000
50.0939 -5.2761 5.5524 1.0000
50.0939 -5.1246 5.5507 1.0000
50.0939 -4.9730 5.5490 1.0000
50.0939 -4.8217 5.5474 1.0000
50.0939 -4.5191 5.5443 1.0000
50.0939 -4.3679 5.5428 1.0000
50.0939 -4.2168 5.5414 1.0000
50.0939 -4.0659 5.5400 1.0000
50.0939 -3.6133 5.5362 1.0000
50.0939 -3.4625 5.5350 1.0000
50.0939 -3.1613 5.5328 1.0000
50.0939 -2.8603 5.5308 1.0000
50.0939 -2.7098 5.5299 1.0000
50.0939 -2.2588 5.5275 1.0000
50.0939 -2.1085 5.5267 1.0000
50.0939 -1.9583 5.5261 1.0000
50.0939 -1.3577 5.5239 1.0000
50.0939 -1.2077 5.5235 1.0000
50.0939 -1.0576 5.5231 1.0000
50.0939 -0.9076 5.5228 1.0000
50.0939 -0.7575 5.5225 1.0000
50.0939 -0.4576 5.5221 1.0000
50.0939 -0.3076 5.5220 1.0000
50.0939 -0.0076 5.5219 1.0000
50.0939 0.1423 5.5219 1.0000
50.0939 0.2923 5.5219 1.0000
50.0939 0.4423 5.5221 1.0000
50.0939 0.7423 5.5225 1.0000
50.0939 1.1924 5.5234 1.0000
50.0939 1.3425 5.5238 1.0000
50.0939 1.7928 5.5254 1.0000
50.0939 3.2966 5.5338 1.0000
50.0939 3.4472 5.5349 1.0000
50.0939 3.5980 5.5361 1.0000
50.0939 4.0505 5.5399 1.0000
50.0939 4.5037 5.5441 1.0000
50.0939 4.6549 5.5456 1.0000
50.0939 4.8063 5.5472 1.0000
50.0939 5.5641 5.5558 1.0000
50.0939 5.7161 5.5577 1.0000
50.0939 5.8680 5.5596 1.0000
50.0939 6.0202 5.5616 1.0000
50.0939 6.4770 5.5678 1.0000
50.0939 6.6296 5.5700 1.0000
50.0939 6.7823 5.5722 1.0000
50.0939 6.9350 5.5745 1.0000
50.0939 7.2410 5.5792 1.0000
50.0939 7.3942 5.5817 1.0000
50.0939 8.0083 5.5920 1.0000
50.0939 8.4704 5.6002 1.0000
50.0939 8.7792 5.6060 1.0000
50.0939 9.2437 5.6151 1.0000
50.0939 9.7097 5.6246 1.0000
50.0939 9.8655 5.6279 1.0000
50.0939 10.0213 5.6313 1.0000
50.0939 10.1774 5.6347 1.0000
50.0939 10.3336 5.6381 1.0000
50.0939 10.4901 5.6416 1.0000
50.0939 10.6468 5.6452 1.0000
50.0939 10.8036 5.6488 1.0000
50.0939 11.1179 5.6562 1.0000
50.0939 11.5909 5.6677 1.0000
50.0939 11.9074 5.6757 1.0000
50.0939 12.2248 5.6839 1.0000
50.0939 12.5430 5.6923 1.0000
50.0939 13.1825 5.7098 1.0000
50.0940 -13.0209 5.7053 1.0000
50.0939 -12.3824 5.6880 1.0000
50.0939 -12.0646 5.6797 1.0000
50.0939 -11.1165 5.6562 1.0000
50.0940 -10.9593 5.6525 1.0000
50.0940 -10.4887 5.6416 1.0000
50.0940 -10.0200 5.6312 1.0000
50.0939 -9.7084 5.6246 1.0000
50.0940 -9.3975 5.6182 1.0000
50.0939 -9.0874 5.6120 1.0000
50.0939 -8.7779 5.6060 1.0000
50.0940 -8.1608 5.5947 1.0000
50.0940 -8.0069 5.5919 1.0000
50.0939 -7.6996 5.5867 1.0000
50.0939 -7.3929 5.5817 1.0000
50.0939 -7.0866 5.5768 1.0000
50.0939 -6.9337 5.5745 1.0000
50.0939 -6.6282 5.5700 1.0000
50.0939 -6.3233 5.5657 1.0000
50.0939 -6.1710 5.5636 1.0000
50.0939 -6.0188 5.5616 1.0000
50.0939 -5.8667 5.5596 1.0000
50.0939 -5.7147 5.5577 1.0000
50.0939 -5.5629 5.5558 1.0000
50.0939 -5.4111 5.5540 1.0000
50.0939 -4.9563 5.5488 1.0000
50.0939 -4.6536 5.5456 1.0000
50.0939 -4.5024 5.5441 1.0000
50.0939 -4.3512 5.5426 1.0000
50.0939 -4.2002 5.5412 1.0000
50.0939 -4.0492 5.5399 1.0000
50.0939 -3.8983 5.5385 1.0000
50.0939 -3.4459 5.5349 1.0000
50.0939 -3.2953 5.5338 1.0000
50.0939 -3.1446 5.5327 1.0000
50.0939 -2.9941 5.5317 1.0000
50.0939 -2.8436 5.5307 1.0000
50.0939 -2.5428 5.5290 1.0000
50.0939 -2.3925 5.5281 1.0000
50.0939 -2.2422 5.5274 1.0000
50.0939 -1.9417 5.5260 1.0000
50.0939 -1.3412 5.5238 1.0000
50.0939 -0.8910 5.5227 1.0000
50.0939 -0.7410 5.5225 1.0000
50.0939 -0.5910 5.5222 1.0000
50.0939 -0.1411 5.5219 1.0000
50.0939 0.0089 5.5219 1.0000
50.0939 0.1589 5.5219 1.0000
50.0939 0.3089 5.5220 1.0000
50.0939 0.6089 5.5223 1.0000
50.0939 -0.3241 4.6671 1.0000
50.0939 1.0257 4.6680 1.0000
50.0939 1.4760 4.6690 1.0000
50.0939 1.6261 4.6694 1.0000
50.0939 1.7762 4.6699 1.0000
50.0939 2.0766 4.6710 1.0000
50.0939 2.3772 4.6722 1.0000
50.0939 2.5275 4.6729 1.0000
50.0939 2.8283 4.6744 1.0000
50.0939 3.1293 4.6761 1.0000
50.0939 3.2800 4.6770 1.0000
50.0939 3.5813 4.6789 1.0000
50.0939 3.7321 4.6799 1.0000
50.0939 4.3359 4.6844 1.0000
50.0939 4.4870 4.6857 1.0000
50.0939 4.6382 4.6869 1.0000
50.0939 4.9409 4.6896 1.0000
50.0939 5.0924 4.6910 1.0000
50.0939 5.5474 4.6955 1.0000
50.0939 5.6993 4.6971 1.0000
50.0939 5.8512 4.6987 1.0000
50.0939 6.1555 4.7021 1.0000
50.0939 6.6127 4.7075 1.0000
50.0939 6.7654 4.7094 1.0000
50.0939 7.2241 4.7153 1.0000
50.0939 7.6840 4.7216 1.0000
50.0939 7.8375 4.7238 1.0000
50.0939 8.1451 4.7283 1.0000
50.0939 8.4533 4.7330 1.0000
50.0939 8.6077 4.7354 1.0000
50.0939 9.2266 4.7455 1.0000
50.0939 9.5370 4.7508 1.0000
50.0939 9.6925 4.7535 1.0000
50.0939 10.4728 4.7679 1.0000
50.0939 10.7863 4.7739 1.0000
50.0939 11.1005 4.7802 1.0000
50.0939 11.7316 4.7933 1.0000
50.0939 11.8899 4.7966 1.0000
50.0939 12.5254 4.8107 1.0000
50.0939 12.8446 4.8180 1.0000
50.0939 13.0046 4.8217 1.0000
50.0939 13.1648 4.8255 1.0000
50.0939 13.3252 4.8293 1.0000
50.0939 -13.0386 4.8225 1.0000
50.0939 -12.7188 4.8151 1.0000
50.0939 -12.2409 4.8043 1.0000
50.0939 -11.7652 4.7940 1.0000
50.0939 -11.6070 4.7906 1.0000
50.0939 -11.4491 4.7873 1.0000
50.0939 -11.1339 4.7809 1.0000
50.0939 -10.9766 4.7777 1.0000
50.0939 -10.8196 4.7746 1.0000
50.0939 -10.6627 4.7715 1.0000
50.0939 -10.5060 4.7685 1.0000
50.0939 -10.3496 4.7655 1.0000
50.0939 -10.1933 4.7626 1.0000
50.0939 -9.8813 4.7569 1.0000
50.0939 -9.7255 4.7541 1.0000
50.0939 -9.5700 4.7514 1.0000
50.0939 -9.4147 4.7487 1.0000
50.0939 -9.1045 4.7434 1.0000
50.0939 -8.9496 4.7409 1.0000
50.0939 -8.7949 4.7384 1.0000
50.0939 -8.3319 4.7311 1.0000
50.0939 -8.1778 4.7288 1.0000
50.0938 -7.2566 4.7157 1.0000
50.0938 -6.6451 4.7079 1.0000
50.0938 -6.3402 4.7042 1.0000
50.0938 -6.1878 4.7024 1.0000
50.0938 -6.0356 4.7007 1.0000
50.0938 -5.7315 4.6974 1.0000
50.0938 -5.4278 4.6943 1.0000
50.0938 -4.8216 4.6885 1.0000
50.0938 -4.6703 4.6872 1.0000
50.0938 -4.3679 4.6847 1.0000
50.0938 -4.2168 4.6835 1.0000
50.0938 -3.9149 4.6812 1.0000
50.0938 -3.4626 4.6781 1.0000
50.0938 -2.8602 4.6746 1.0000
50.0938 -2.5595 4.6731 1.0000
50.0938 -2.2587 4.6717 1.0000
50.0939 -2.1086 4.6711 1.0000
50.0939 -1.9583 4.6705 1.0000
50.0939 -1.5079 4.6691 1.0000
50.0939 -1.3577 4.6687 1.0000
50.0939 -1.2077 4.6683 1.0000
50.0939 -0.7575 4.6675 1.0000
50.0939 -0.1576 4.6670 1.0000
50.0939 0.5923 4.6673 1.0000
50.0939 0.8923 4.6677 1.0000
50.0939 1.0423 4.6680 1.0000
50.0939 1.1924 4.6683 1.0000
50.0939 1.3425 4.6687 1.0000
50.0939 1.4925 4.6691 1.0000
50.0939 1.6427 4.6695 1.0000
50.0939 1.7929 4.6700 1.0000
50.0939 1.9430 4.6705 1.0000
50.0939 2.0932 4.6711 1.0000
50.0939 2.2435 4.6717 1.0000
50.0939 2.3938 4.6723 1.0000
50.0939 2.5441 4.6730 1.0000
50.0939 2.6945 4.6737 1.0000
50.0939 2.9954 4.6753 1.0000
50.0939 3.1460 4.6762 1.0000
50.0939 3.4472 4.6780 1.0000
50.0939 3.8996 4.6811 1.0000
50.0939 4.0505 4.6822 1.0000
50.0939 4.2015 4.6834 1.0000
50.0939 4.3525 4.6846 1.0000
50.0939 4.5037 4.6858 1.0000
50.0939 4.6549 4.6871 1.0000
50.0939 4.8062 4.6884 1.0000
50.0939 4.9576 4.6898 1.0000
50.0939 5.1091 4.6912 1.0000
50.0939 5.2607 4.6926 1.0000
50.0939 5.4124 4.6941 1.0000
50.0939 5.5642 4.6957 1.0000
50.0939 5.7160 4.6973 1.0000
50.0939 6.0201 4.7006 1.0000
50.0939 6.1723 4.7023 1.0000
50.0939 6.3246 4.7040 1.0000
50.0939 6.4770 4.7058 1.0000
50.0939 6.6296 4.7077 1.0000
50.0939 6.7822 4.7096 1.0000
50.0939 6.9350 4.7115 1.0000
50.0939 7.0879 4.7135 1.0000
50.0939 7.2410 4.7155 1.0000
50.0939 7.3942 4.7175 1.0000
50.0939 7.5475 4.7197 1.0000
50.0939 7.8545 4.7240 1.0000
50.0939 8.0082 4.7262 1.0000
50.0939 8.3162 4.7309 1.0000
50.0939 8.6247 4.7356 1.0000
50.0939 8.7792 4.7381 1.0000
50.0939 9.0887 4.7432 1.0000
50.0939 9.2437 4.7458 1.0000
50.0939 9.7097 4.7538 1.0000
50.0939 10.4901 4.7682 1.0000
50.0939 10.6468 4.7712 1.0000
50.0939 10.8036 4.7743 1.0000
50.0939 11.1179 4.7805 1.0000
50.0939 11.7491 4.7936 1.0000
50.0939 11.9074 4.7970 1.0000
50.0939 12.0660 4.8005 1.0000
50.0939 12.3838 4.8075 1.0000
50.0939 12.8623 4.8184 1.0000
50.0939 13.0222 4.8221 1.0000
50.0939 13.3430 4.8297 1.0000
50.0939 -13.3416 4.8297 1.0000
50.0939 -13.1811 4.8258 1.0000
50.0939 -12.8609 4.8183 1.0000
50.0939 -12.7012 4.8147 1.0000
50.0939 -12.3824 4.8074 1.0000
50.0939 -12.2234 4.8039 1.0000
50.0939 -12.0646 4.8004 1.0000
50.0939 -11.9061 4.7970 1.0000
50.0939 -11.5896 4.7903 1.0000
50.0939 -10.9593 4.7774 1.0000
50.0939 -10.8023 4.7743 1.0000
50.0939 -10.6454 4.7712 1.0000
50.0939 -10.4887 4.7682 1.0000
50.0939 -10.1760 4.7623 1.0000
50.0939 -9.5529 4.7511 1.0000
50.0939 -9.0873 4.7432 1.0000
50.0939 -8.7779 4.7381 1.0000
50.0939 -8.6234 4.7356 1.0000
50.0939 -8.4690 4.7332 1.0000
50.0939 -8.3148 4.7308 1.0000
50.0939 -8.1608 4.7285 1.0000
50.0939 -7.8532 4.7240 1.0000
50.0939 -7.6996 4.7218 1.0000
50.0938 -7.0866 4.7135 1.0000
50.0938 -6.7809 4.7095 1.0000
50.0938 -6.6282 4.7077 1.0000
50.0938 -6.4757 4.7058 1.0000
50.0938 -6.3233 4.7040 1.0000
50.0938 -6.1710 4.7023 1.0000
50.0938 -6.0188 4.7005 1.0000
50.0938 -5.7147 4.6973 1.0000
50.0938 -5.5629 4.6957 1.0000
50.0938 -5.4111 4.6941 1.0000
50.0938 -5.1078 4.6912 1.0000
50.0938 -4.6536 4.6871 1.0000
50.0938 -4.3512 4.6846 1.0000
50.0938 -4.2002 4.6834 1.0000
50.0938 -3.4459 4.6780 1.0000
50.0938 -3.2953 4.6771 1.0000
50.0938 -2.8436 4.6745 1.0000
50.0938 -2.6932 4.6737 1.0000
50.0938 -2.5428 4.6730 1.0000
50.0939 -1.9417 4.6705 1.0000
50.0939 -1.6414 4.6695 1.0000
50.0939 -1.4912 4.6690 1.0000
50.0939 -1.3412 4.6687 1.0000
50.0939 -1.1911 4.6683 1.0000
50.0939 -0.4410 4.6672 1.0000
50.0939 -0.2911 4.6671 1.0000
50.0939 0.4589 4.6672 1.0000
50.0939 -0.4741 3.8150 1.0000
50.0939 -0.3241 3.8149 1.0000
50.0939 -0.1741 3.8148 1.0000
50.0939 0.2758 3.8149 1.0000
50.0939 0.7257 3.8152 1.0000
50.0939 0.8758 3.8154 1.0000
50.0939 1.0258 3.8156 1.0000
50.0939 1.1759 3.8158 1.0000
50.0939 1.6261 3.8168 1.0000
50.0939 1.7763 3.8172 1.0000
50.0939 1.9264 3.8176 1.0000
50.0939 2.0767 3.8181 1.0000
50.0939 2.3772 3.8191 1.0000
50.0939 2.6779 3.8202 1.0000
50.0939 2.8284 3.8209 1.0000
50.0939 3.1294 3.8222 1.0000
50.0939 3.7321 3.8254 1.0000
50.0939 3.8829 3.8262 1.0000
50.0939 4.4870 3.8301 1.0000
50.0939 4.9409 3.8333 1.0000
50.0939 5.3957 3.8369 1.0000
50.0939 5.5475 3.8381 1.0000
50.0939 6.3078 3.8449 1.0000
50.0939 6.4602 3.8464 1.0000
50.0939 6.6128 3.8479 1.0000
50.0939 7.3773 3.8559 1.0000
50.0939 8.7621 3.8727 1.0000
50.0939 9.0716 3.8768 1.0000
50.0939 9.2266 3.8790 1.0000
50.0939 9.3818 3.8811 1.0000
50.0939 9.5371 3.8833 1.0000
50.0939 9.8482 3.8878 1.0000
50.0939 10.0041 3.8901 1.0000
50.0939 10.1601 3.8925 1.0000
50.0939 10.4728 3.8973 1.0000
50.0939 10.7863 3.9022 1.0000
50.0939 11.1006 3.9073 1.0000
50.0939 11.2580 3.9100 1.0000
50.0939 11.7316 3.9180 1.0000
50.0939 11.8900 3.9208 1.0000
50.0939 12.0485 3.9236 1.0000
50.0939 12.3662 3.9293 1.0000
50.0939 12.5255 3.9322 1.0000
50.0939 12.6849 3.9352 1.0000
50.0939 13.0046 3.9412 1.0000
50.0939 13.1648 3.9443 1.0000
50.0939 13.3253 3.9475 1.0000
50.0939 -13.1988 3.9450 1.0000
50.0939 -13.0386 3.9419 1.0000
50.0939 -12.7188 3.9358 1.0000
50.0939 -12.4000 3.9299 1.0000
50.0939 -12.0821 3.9242 1.0000
50.0939 -11.9236 3.9214 1.0000
50.0939 -11.7652 3.9186 1.0000
50.0939 -11.4491 3.9132 1.0000
50.0939 -11.2914 3.9105 1.0000
50.0939 -10.8196 3.9028 1.0000
50.0939 -10.6627 3.9003 1.0000
50.0939 -10.1932 3.8930 1.0000
